Vam	Vbm	Vcm	Iam	Ibm	Icm
0.88339341	0.040854915	0.876500314	0.175242388	0.693013524	0.170646441
0.111419455	0.864352394	0.855998762	0.592078344	0.155668548	0.155140263
0.104071395	0.866459514	0.867396619	0.615308249	0.158760116	0.162858811
0.866480979	0.866828055	0.104029275	0.158960233	0.162846627	0.615277975
0.866719761	0.104289856	0.866880081	0.162427267	0.615229865	0.159124582
0.876083614	0.882452979	0.040855017	0.171123773	0.175446413	0.693027553
0.873191142	0.876029681	0.065207961	0.165332643	0.168830504	0.652746613
0.054856281	0.054622985	0.05519446	0.689855587	0.690416739	0.68999268
0.865739069	0.863564949	0.863304689	0.219692816	0.219634862	0.219118804
0.013709267	0.875767582	0.882953594	0.697509481	0.170418661	0.175159013
0.877171095	0.438574811	0.438570088	0.170434346	0.62641135	0.596451882
0.882986108	0.041199292	0.040865111	0.175489097	0.692379988	0.692624788
0.099255312	0.841800808	0.103199264	0.602519089	0.135119171	0.627901586
0.088049587	0.867200006	0.866238878	0.619247604	0.159603139	0.162332481
0.145650305	0.127206047	0.826483143	0.603791558	0.574758741	0.119235655
0.066609836	0.052079671	0.080149681	0.672928759	0.672920284	0.674388018
0.432683412	0.877409633	0.448137129	0.557963413	0.170467972	0.590328435
0.437069138	0.446326161	0.877327762	0.575741751	0.546062162	0.170603556
0.82312023	0.823057561	0.823321726	0.298068462	0.298667692	0.298137896
0.864025137	0.856088126	0.11667856	0.15577932	0.155666984	0.590352271
0.458979975	0.425645339	0.877275314	0.575883039	0.539912239	0.170489483
0.877324086	0.451076012	0.4324109	0.170503902	0.608594069	0.57517498
0.866037097	0.095791208	0.866517489	0.162315807	0.617188339	0.158855856
0.841628977	0.113500798	0.100707542	0.135194264	0.625728	0.60044874
0.04853568	0.045548266	0.053252146	0.656292558	0.655807241	0.655761103
0.082133268	0.854587695	0.06660963	0.631243011	0.148533656	0.653176424
0.87740073	0.480577243	0.405771181	0.170589223	0.57504227	0.532683274
0.081435701	0.855339586	0.067808206	0.63199241	0.148863948	0.653123296
0.884279966	5.49502E-06	0.874988834	0.175716015	0.699260122	0.170502507
0.083573355	0.868920039	0.080115756	0.664911869	0.162579433	0.676403581
0.867059655	0.087916466	0.866693988	0.162316627	0.619625608	0.159490878
0.392840732	0.87727299	0.484684515	0.582443646	0.170404673	0.625232208
0.127881896	0.827488301	0.144779152	0.574570803	0.119383516	0.603563389
0.081669649	0.079457466	0.869188476	0.673555447	0.661747278	0.162584623
0.088029589	0.867555732	0.865792619	0.619252091	0.159555108	0.162258908
0.876209095	0.884026484	0.054274605	0.170761907	0.175899227	0.690507513
0.88373203	5.49578E-06	0.8758181	0.175142376	0.699483521	0.170116914
0.415688535	0.877429035	0.470016751	0.536156731	0.170586656	0.575463019
0.411570829	0.877425136	0.470473503	0.551420719	0.170145479	0.590039681
0.866421861	0.087777062	0.867326909	0.162168746	0.619744126	0.159768684
0.425572334	0.877322726	0.459087173	0.539562604	0.17054932	0.575616729
0.40403166	0.877322114	0.473403231	0.586174576	0.170462732	0.625877346
0.877399393	0.461992798	0.421693347	0.170584928	0.608149628	0.571664527
0.054200229	0.881614827	0.054584594	0.690985564	0.175500271	0.690051523
0.438479437	0.44495831	0.877616869	0.590839186	0.561333943	0.17072905
0.873686039	0.876404864	0.047209147	0.165623531	0.168867712	0.656961531
0.46128708	0.877793154	0.452178089	0.530297308	0.170778014	0.559458269
0.825443334	0.146685938	0.129708757	0.11883233	0.602540061	0.574010249
0.401469428	0.877405697	0.480907334	0.548161883	0.169982696	0.589638379
0.825450713	0.198464509	0.211913812	0.118780813	0.612400833	0.584724397
0.42961343	0.877563521	0.459594107	0.524127162	0.170769679	0.56000097
0.465443659	0.877494023	0.449634839	0.531183204	0.170691262	0.560348651
0.080325868	0.211294107	0.216368811	0.620083448	0.619744131	0.621582366
4.93119E-06	4.84689E-06	0.881296935	0.699117414	0.699342764	0.175424219
0.877352314	0.437073005	0.446346296	0.170617003	0.575715918	0.546063502
0.877265821	0.44785771	0.432637697	0.170413605	0.590883993	0.558315314
0.863534418	0.862828025	0.863519898	0.220024397	0.219210933	0.219280784
0.469794361	0.415791155	0.877365147	0.575359911	0.536097605	0.170514533
0.86289622	0.863120356	0.863686545	0.218739066	0.218603965	0.219318249
0.41361849	0.87723065	0.474989861	0.569046049	0.170552003	0.60850826
0.08805795	0.86636775	0.865763598	0.61953088	0.159013019	0.162029798
0.103067817	0.099227576	0.841468111	0.627738035	0.602590513	0.135043711
0.877439344	0.484126304	0.399678056	0.17061891	0.607614928	0.564959963
0.875726364	0.076055781	0.871062032	0.169457223	0.65049699	0.164785236
0.393148137	0.877900846	0.485002787	0.582482207	0.170665859	0.625145426
0.877411848	0.450972195	0.432649508	0.170535338	0.608888479	0.575613366
0.87711402	0.461850686	0.415290641	0.170590027	0.626149633	0.58969421
0.855194568	0.06892617	0.071409383	0.148992543	0.649690905	0.629472691
0.133774134	0.86228811	0.84290373	0.567742446	0.155304779	0.148171035
0.844004197	0.133760817	0.863038622	0.148369253	0.567891363	0.155483554
0.142634044	0.133199404	0.098906952	0.611338881	0.611707907	0.614049153
0.877895915	0.459789199	0.429740755	0.170595683	0.559814776	0.52431983
0.040831621	0.874830237	0.882816076	0.692614772	0.16989579	0.175165481
0.877135386	0.461869056	0.415292957	0.170526123	0.626154952	0.589771521
0.454582805	0.436246934	0.877388173	0.60953953	0.576169339	0.170608561
0.877800498	0.473647026	0.40426449	0.170647331	0.625874613	0.58609698
0.857489804	0.123096135	0.863556882	0.156407776	0.588397098	0.155505126
0.867614173	0.866635533	0.077299636	0.159995102	0.161466535	0.622835572
0.074121016	0.855698496	0.091180244	0.625790256	0.149235785	0.645754277
0.470351799	0.41981464	0.877651534	0.559584584	0.520987691	0.170645595
0.845753521	0.847131698	0.84701171	0.25686082	0.257095827	0.256740475
0.427125373	0.877693919	0.450553794	0.593095615	0.170383616	0.626496573
0.874397354	0.047120759	0.871835595	0.168230632	0.657002264	0.164935936
0.881795035	0.027508272	0.027488026	0.175669928	0.694943893	0.695137144
0.027490141	0.027982781	0.027749402	0.695276308	0.694732223	0.69539751
0.459137387	0.425668378	0.877427388	0.575413254	0.539296364	0.170620816
0.856044013	0.123154327	0.863699433	0.156055405	0.588599428	0.155289557
0.071427655	0.856512573	0.068845342	0.629530593	0.149201104	0.649753809
0.470249543	0.419823087	0.877554401	0.559487346	0.520950562	0.170679644
0.040866215	0.876102844	0.882711053	0.693250548	0.170491107	0.174559632
0.446331633	0.877314726	0.43705165	0.546089029	0.170594524	0.575723851
0.862496561	0.842608369	0.133793794	0.155555023	0.148405222	0.567747199
0.083449052	0.102221166	0.84176304	0.631283762	0.605900749	0.134707686
0.863845906	0.857735437	0.130392029	0.15548945	0.15735303	0.586515448
0.074964658	0.074850924	0.075223503	0.634193588	0.634545494	0.634661004
0.325863731	0.825474913	0.313744522	0.583790135	0.118529299	0.615285759
0.419523352	0.87710861	0.470089874	0.521068986	0.170564951	0.559733043
0.842029947	0.12520371	0.10369785	0.135215199	0.623874802	0.59831386
0.092753989	0.099725593	0.84173703	0.62953901	0.604357045	0.134857169
0.071654274	0.855975597	0.079694657	0.627259868	0.1493854	0.647943923
0.872251176	0.87453542	0.065209794	0.165190058	0.168849532	0.652686404
0.866805856	0.104383985	0.86683042	0.162634288	0.615177003	0.159171491
0.842482509	0.137257167	0.859561887	0.14839902	0.566237259	0.153938205
0.079981248	0.083482259	0.868689483	0.675822899	0.663556656	0.162659074
0.883153592	0.054276124	0.875474326	0.175479243	0.690568025	0.170436489
0.855209463	0.065592743	0.078685918	0.148978048	0.652885685	0.633000668
0.872798912	0.874432421	0.047229581	0.16513258	0.168302946	0.657030206
0.409922204	0.876973126	0.480589807	0.517584113	0.170603136	0.559366838
0.422147763	0.877526175	0.459285909	0.554583088	0.17053687	0.590402512
0.868847924	0.077982481	0.081958518	0.162446375	0.677837044	0.665836744
0.84174861	0.092746865	0.099866967	0.134783512	0.629484496	0.603951398
0.072497418	0.070235469	0.07510104	0.649164679	0.649937688	0.649170895
0.846592417	0.847060921	0.846887608	0.257216876	0.257212058	0.25758248
0.086860661	0.078194766	0.869073138	0.671774714	0.660523168	0.162605243
0.855231063	0.068918966	0.071436304	0.149171309	0.649691873	0.62925506
0.485922407	0.40295439	0.877350579	0.608079532	0.565018454	0.170509104
0.4463368	0.877321529	0.437053281	0.546092777	0.170598612	0.575721757
0.063467131	0.059900578	0.06541573	0.65203892	0.651949234	0.651703674
0.074201882	0.855518319	0.091154777	0.625759316	0.14932738	0.645622306
0.866014649	0.081803376	0.867092588	0.161777661	0.62156761	0.15944226
0.863839682	0.855501123	0.11138894	0.155864702	0.154828343	0.592255458
0.077151512	0.867586195	0.865540785	0.623129982	0.160007886	0.161538168
0.87397897	0.050512437	0.871222856	0.167991521	0.658582053	0.165012306
0.013757952	0.014590172	0.014545772	0.697235652	0.696593905	0.697031993
0.071310882	0.06583794	0.085306015	0.669946327	0.669965434	0.670468818
0.104056775	0.866262934	0.86719155	0.615058734	0.158524885	0.163008683
0.080493622	0.078030111	0.868910431	0.674208934	0.662256287	0.162460333
0.082173774	0.854396306	0.066797359	0.631253136	0.148550982	0.653147836
0.469855509	0.415712952	0.877370056	0.57534653	0.536097715	0.170520548
0.312006713	0.825825747	0.311489966	0.586057508	0.11857089	0.616666264
0.87743539	0.437189643	0.444295672	0.170488445	0.590844741	0.561276891
0.113844756	0.099865418	0.841727136	0.626186428	0.600999123	0.13505033
0.041186421	0.040854658	0.881538266	0.692366022	0.692736564	0.175382152
0.864314528	0.856287875	0.116655214	0.155740438	0.155913097	0.590265005
0.028314729	0.027520426	0.881736529	0.694703725	0.695308657	0.175032321
0.873974206	0.049555602	0.872231175	0.168456116	0.658355283	0.165325994
0.867657732	0.866372794	0.077248639	0.159943621	0.16132012	0.622861818
0.863740958	0.856634521	0.123053491	0.155468191	0.156263737	0.588328298
0.083450695	0.08372175	0.084043475	0.632381029	0.632074481	0.632497163
0.059768535	0.043119816	0.077196631	0.67474499	0.675150682	0.67668627
0.066096193	0.05292417	0.081166882	0.67306506	0.672546171	0.673784
0.099805089	0.841738697	0.092877977	0.604192084	0.134863802	0.629607195
0.103520653	0.841739673	0.12503442	0.597954645	0.135264726	0.623273666
0.040858798	0.876555657	0.88275616	0.693099768	0.171337472	0.175685281
0.877349357	0.439336351	0.443948403	0.170578943	0.60840837	0.578249607
0.415704147	0.877466638	0.47001658	0.536116154	0.170582903	0.57545625
0.865209749	0.854184787	0.107725984	0.157176897	0.154991358	0.593950952
0.129641325	0.82501006	0.146597197	0.574426614	0.118695795	0.603559057
0.445643461	0.877530609	0.437867173	0.562639809	0.170367924	0.591798623
0.860613196	0.844854185	0.137070712	0.154449957	0.149293524	0.566212933
0.392568312	0.876707917	0.484393068	0.582319424	0.170666438	0.625393807
0.877707078	0.436949244	0.444804993	0.170488479	0.591283727	0.561789017
0.04790393	0.042245463	0.073818143	0.678003688	0.677627109	0.680461355
0.09926332	0.841861121	0.103165157	0.602391204	0.135117826	0.627951085
0.432683506	0.877409527	0.448137027	0.557963393	0.170467939	0.590328451
0.861836025	0.862267305	0.863438313	0.219186728	0.218667203	0.219325576
0.865242533	0.856345854	0.111436502	0.156421418	0.154993152	0.592029091
0.876918625	0.48394202	0.494362679	0.169940859	0.559913707	0.530996546
0.410306178	0.877654726	0.480880553	0.517693805	0.170677336	0.559333523
0.877701563	0.484897141	0.393057203	0.170381906	0.625279409	0.582495615
0.877052815	0.471888938	0.509960141	0.169889861	0.559795437	0.531478729
0.013709514	0.876042137	0.88325063	0.697525315	0.170609222	0.175497784
0.071984703	0.065889241	0.086157732	0.67049064	0.670017441	0.670724549
0.825652643	0.146134262	0.129451432	0.119245484	0.603105648	0.574261217
0.054259537	0.875433637	0.88284648	0.690322962	0.170459778	0.175316412
0.863808865	0.846511996	0.137108552	0.154684128	0.149219239	0.566230202
0.863873969	0.844782717	0.133777587	0.155434501	0.148518616	0.567820492
0.125145888	0.103097864	0.841916911	0.623655158	0.598640358	0.135173881
0.105908601	0.082721589	0.85535943	0.643251053	0.623499802	0.149415342
0.448189592	0.435952566	0.877449998	0.575553427	0.542764098	0.170626032
0.308389278	0.825918491	0.304155729	0.584517293	0.118719631	0.611280806
0.027321178	0.876216574	0.882863515	0.695091229	0.170584259	0.175489092
0.066886046	0.05291706	0.081981272	0.673302703	0.672358239	0.673966679
0.88191558	0.054538172	0.054152389	0.17554115	0.689545593	0.690303126
0.054215292	0.881183914	0.054619387	0.690702958	0.175270808	0.690251642
0.0926919	0.099734038	0.84167176	0.62957644	0.60450926	0.13489766
0.041123528	0.040723387	0.8813819	0.692387436	0.692720272	0.175438625
0.405875187	0.877409194	0.480611712	0.532721605	0.170534317	0.575166301
0.041125238	0.040845045	0.881892764	0.692304169	0.692764433	0.175390849
0.074700038	0.078144492	0.854768475	0.650336649	0.629655239	0.148787799
0.448267151	0.435946589	0.877528181	0.575538254	0.542679074	0.170612375
0.855352398	0.116656454	0.864595716	0.155867859	0.590328767	0.155926136
0.427087813	0.877614384	0.450512083	0.593073501	0.170684972	0.626485876
0.821949315	0.823206909	0.822469851	0.298422717	0.298730991	0.299065734
0.821980151	0.823614855	0.823305862	0.298264209	0.298847269	0.29900289
0.091298837	0.074542665	0.85572255	0.645673244	0.626043447	0.149190412
0.123202008	0.862972187	0.857200834	0.588520312	0.155461188	0.156619822
0.826114217	0.13799891	0.129059504	0.119230685	0.605906152	0.57712394
0.877378848	0.484272833	0.399508955	0.170630549	0.607601917	0.564895372
0.07156585	0.85672373	0.068842494	0.629634576	0.149476408	0.649845593
0.434647524	0.877369518	0.455527736	0.576288644	0.170626577	0.609944526
0.075994584	0.871940577	0.875722236	0.650441783	0.164603886	0.169493088
0.868992708	0.098187365	0.080490349	0.162769778	0.667403911	0.656068157
0.861236724	0.844358233	0.141807472	0.153134735	0.149189604	0.564458055
0.130517669	0.862606235	0.856762625	0.58642192	0.154670299	0.156743745
0.099788636	0.841633467	0.092866135	0.604144747	0.134882487	0.629616761
0.432683412	0.877409633	0.448137129	0.557963413	0.170467972	0.590328435
0.84608337	0.147369336	0.860804526	0.150689185	0.562839219	0.153047955
0.863834902	0.864493851	0.86334268	0.219004567	0.219111514	0.219253479
0.841560459	0.113724368	0.100407443	0.135055248	0.625717304	0.600563606
0.484882365	0.393016526	0.877648122	0.625483016	0.582383045	0.170649842
0.456371592	0.4353764	0.877454436	0.608365616	0.575107152	0.170578313
0.080136205	0.206748279	0.205955286	0.620416023	0.620887521	0.624572262
0.4698493	0.41573916	0.877369598	0.575362437	0.536096176	0.170516707
0.074891404	0.07495579	0.075216856	0.634193678	0.634537327	0.634622669
0.327338562	0.337735261	0.825296671	0.611946213	0.581274414	0.118808132
0.462089836	0.415524542	0.877587705	0.626264508	0.58960494	0.170698136
0.880747656	0.014043279	0.013953901	0.175450501	0.696607698	0.69746486
0.028236468	0.881241921	0.028304605	0.695448544	0.175252696	0.695494729
0.872104235	0.875819119	0.075934918	0.165019926	0.169179183	0.650342387
0.866937627	0.104407749	0.866738268	0.162892842	0.615213036	0.159223511
0.445672334	0.448710944	0.87733114	0.608475152	0.578262741	0.170605898
0.027322762	0.876401922	0.882581209	0.695130756	0.170557295	0.175444321
0.071360354	0.855032791	0.068808494	0.629654606	0.149075331	0.649631894
0.463768986	0.877640222	0.450420239	0.530996131	0.170712329	0.560343977
0.013708068	0.875957032	0.88327605	0.697437593	0.170739507	0.175532296
0.072701852	0.069886108	0.074658486	0.649164003	0.649896701	0.649111048
0.846412812	0.847017818	0.846984025	0.257417563	0.256998446	0.25728049
0.432848628	0.877482258	0.447984823	0.558439577	0.170590884	0.59153141
0.877402287	0.461991348	0.421696825	0.170583381	0.608142993	0.571669062
0.09550876	0.866658741	0.866416173	0.617189685	0.158906626	0.16235669
0.866151008	0.087797423	0.867121866	0.161710599	0.619756891	0.159716588
0.028130467	0.882207653	0.028776129	0.69500329	0.175595989	0.695337267
0.874417524	0.873946769	0.873012825	0.188794682	0.188609755	0.188390454
0.027324157	0.875800042	0.883565235	0.695164727	0.170561752	0.175434847
0.480900424	0.401565956	0.877789528	0.590143368	0.548245346	0.170677708
0.842001338	0.103153375	0.099036081	0.134874494	0.627896276	0.602513956
0.450383718	0.426958024	0.877356283	0.626471436	0.593153083	0.170462925
0.874257346	0.055317016	0.871801162	0.168158063	0.654750887	0.1645839
0.028611277	0.02788784	0.882127087	0.69490114	0.695389132	0.175531114
0.862788063	0.844008017	0.133800325	0.155492927	0.148671065	0.567727654
0.878120125	0.459881963	0.429872105	0.170593001	0.559806377	0.524436771
0.014442908	0.881133653	0.014353069	0.69716249	0.175137963	0.697357348
0.435232855	0.877390327	0.455010501	0.576120613	0.170569318	0.609762376
0.041100413	0.040790409	0.881396152	0.69241499	0.692668616	0.175390464
0.084297075	0.075797958	0.855403979	0.647508566	0.628126917	0.148793108
0.100200202	0.081190038	0.868815779	0.665941629	0.655341684	0.162730001
0.855546171	0.07976082	0.071535991	0.149113582	0.648015244	0.627723316
0.028216292	0.881401186	0.028622214	0.69528643	0.17559577	0.695256315
0.456184596	0.435511519	0.877382713	0.60806864	0.574785383	0.170580534
0.881779009	0.027444533	0.027334631	0.175622898	0.694846663	0.695237108
0.06242764	0.06251999	0.062361275	0.638214852	0.638415673	0.638471463
0.877399356	0.480598184	0.405710575	0.17055744	0.575106911	0.532738502
0.877212459	0.437000409	0.446279959	0.17058163	0.575740805	0.546056088
0.075368028	0.076798634	0.856139226	0.649647175	0.629583945	0.149203099
0.438548138	0.438543366	0.877117286	0.626597121	0.596435599	0.170515454
0.099295435	0.840926671	0.103049886	0.602498046	0.135081018	0.627560182
0.877396933	0.459054624	0.425607721	0.170619761	0.575783554	0.539668802
0.870128232	0.873762559	0.06520623	0.164226163	0.168391209	0.652721093
0.883360102	0.013707849	0.876381194	0.175582889	0.697382074	0.171539747
0.855382404	0.116659412	0.864310568	0.155611968	0.590275617	0.15553259
0.047910555	0.871736638	0.874413668	0.658319131	0.164808683	0.168496047
0.84199128	0.103097846	0.099225075	0.134880238	0.627890116	0.602513651
0.103178378	0.099153613	0.841496851	0.627735748	0.602763706	0.135013258
0.865347135	0.077079962	0.86798377	0.161162511	0.623151348	0.160036698
0.874593035	0.055303319	0.871470107	0.168422407	0.654953247	0.164778086
0.470382399	0.419956687	0.877823376	0.559581481	0.521005926	0.170569069
0.884831601	5.49528E-06	0.876946229	0.175807347	0.699353621	0.170860086
0.067717007	0.067663745	0.067955151	0.636345789	0.636447828	0.636765237
0.415623651	0.87736955	0.469973127	0.535974378	0.170583737	0.575337014
0.06818291	0.080008276	0.855944769	0.652141418	0.632489102	0.149207716
0.877515593	0.450463818	0.427037011	0.170556802	0.62640863	0.593220075
0.080384065	0.211064702	0.215781022	0.620093746	0.621100178	0.622260256
0.475281615	0.414544963	0.877293594	0.608065066	0.568476931	0.170572253
0.480583466	0.401188987	0.877103859	0.589960303	0.548235496	0.170003528
0.874745138	0.065191467	0.871923372	0.168736717	0.652965003	0.164529054
0.054040596	0.051403753	0.05722817	0.65429939	0.654131598	0.654018069
0.432864564	0.87745448	0.448003701	0.558434643	0.170574498	0.591532579
0.444739228	0.87747356	0.438353453	0.561944921	0.170631616	0.591669125
0.027226321	0.074704128	0.075224331	0.679162226	0.680235739	0.679332247
0.083149978	0.869146474	0.079496667	0.664524792	0.162583892	0.677561661
0.106049566	0.082135006	0.854652049	0.642333854	0.623671439	0.149153794
0.028290161	0.881254166	0.028281411	0.69540479	0.175252812	0.695526285
0.862216337	0.843349637	0.133766933	0.155218024	0.148023452	0.567811719
0.063476563	0.059837348	0.065261935	0.652089225	0.651905671	0.651808392
0.486025492	0.402446262	0.877466449	0.607636878	0.564739507	0.170455773
0.44811659	0.436005364	0.877409957	0.575570337	0.542811738	0.170601119
0.100162194	0.082052617	0.868907664	0.668551639	0.656995373	0.162836427
0.871858343	0.874585806	0.047283384	0.164680149	0.168553222	0.65694786
0.123182201	0.864051076	0.856714094	0.5884852	0.155573888	0.156762284
0.846317071	0.846054521	0.845534808	0.256717823	0.256938308	0.256739208
0.857114839	0.123092918	0.863691639	0.156473667	0.588377078	0.155583031
0.072017428	0.066687308	0.08781108	0.670207114	0.669884163	0.671062651
0.859453138	0.846472999	0.153993386	0.152410685	0.151594694	0.56078622
0.081728157	0.867574298	0.865288142	0.62108546	0.159643609	0.161537913
0.877063165	0.883897604	0.0408509	0.170967856	0.175701692	0.692929764
0.40587274	0.877354525	0.480570988	0.533010166	0.170529421	0.575366233
0.133795787	0.861474009	0.842942263	0.567670099	0.154521749	0.147319539
0.825593464	0.137887691	0.129841218	0.118903935	0.604420427	0.575444119
0.047428399	0.872330667	0.87440299	0.658375999	0.164795728	0.168527683
0.432841536	0.877491062	0.448010028	0.558434307	0.170608744	0.591524134
0.111543957	0.864214581	0.855239198	0.592107776	0.156161728	0.155228314
0.841652622	0.083368915	0.102292157	0.134698687	0.631188987	0.605740817
0.868860937	0.077258249	0.080833036	0.162571682	0.676100111	0.664867068
0.877304521	0.461948269	0.415383415	0.170445498	0.626140872	0.589755412
0.081757822	0.867542076	0.865289557	0.621073014	0.159642412	0.161527823
0.846446372	0.846327311	0.845938152	0.256819771	0.256691499	0.256619802
0.842069397	0.125077577	0.103511058	0.135166197	0.623896435	0.598395172
0.877357255	0.473373764	0.410026751	0.170597622	0.608768805	0.56908878
0.041177803	0.040789105	0.881662922	0.692729613	0.692611623	0.175313953
0.877680168	0.459694801	0.429622819	0.170748733	0.559749024	0.524465898
0.145423272	0.12831087	0.826025957	0.603258342	0.57501098	0.119373327
0.863091742	0.864083694	0.862991898	0.219075806	0.219087006	0.219259581
0.86618746	0.866351386	0.103975902	0.159457815	0.162677153	0.615323703
0.392874948	0.877331061	0.484708728	0.582341289	0.170618989	0.625311019
0.437820356	0.445376344	0.877277787	0.591194286	0.561118747	0.170753392
0.862823141	0.843713548	0.133770096	0.155205383	0.148080151	0.567800197
0.083527909	0.0836631	0.083875099	0.632101405	0.632123033	0.632466611
0.214593576	0.206225331	0.825897207	0.607536742	0.579516512	0.118678586
0.882699322	0.040853678	0.875218927	0.175251879	0.692958898	0.170076198
0.048405678	0.87151761	0.874394364	0.658431977	0.164808303	0.168311606
0.877435569	0.459066692	0.42199292	0.170766239	0.591146375	0.554986009
0.845246786	0.133784839	0.862648687	0.148473494	0.56779729	0.155577183
0.040836638	0.875206614	0.884031718	0.692644881	0.170167402	0.175253379
0.427052408	0.877541909	0.450474544	0.592893749	0.170638869	0.62652579
0.429536496	0.87744219	0.459552108	0.524225137	0.17059896	0.559939039
0.10808273	0.865071537	0.854655752	0.59355724	0.156690002	0.154494622
0.869013264	0.077919299	0.081026272	0.162565617	0.677333437	0.665311886
0.865445805	0.077053944	0.868216964	0.1612526	0.623203204	0.159958026
0.876695529	0.480497147	0.40095856	0.170168777	0.589945262	0.548210823
0.071764397	0.855212733	0.079624954	0.627621331	0.149050292	0.647833758
0.100252536	0.082232961	0.868950734	0.668592264	0.657069615	0.162836035
0.825640703	0.204993234	0.219625651	0.118818874	0.609860684	0.583564511
0.014144664	0.881127965	0.014239134	0.6971843	0.1751725	0.696842326
0.878434964	0.878045885	0.877268827	0.17102316	0.170930575	0.170673794
0.439785574	0.877836972	0.448960529	0.527810065	0.17086255	0.559733039
0.092778317	0.099681571	0.841418207	0.629571674	0.604228136	0.134837385
0.13464521	0.129788593	0.098446095	0.610105443	0.610085635	0.614355756
0.450354312	0.426929731	0.877298809	0.626478234	0.59309353	0.170625177
0.868903138	0.082314512	0.073518095	0.162661486	0.673583699	0.660817492
0.459208322	0.425676339	0.877486865	0.575486947	0.539339279	0.170613117
0.450390824	0.426969099	0.87737451	0.626436646	0.59301839	0.17066172
0.877336822	0.447946158	0.432585429	0.170446907	0.591228473	0.5585237
0.882065126	0.054603108	0.054127214	0.175638877	0.690280625	0.69034884
0.861742568	0.861652236	0.863467104	0.218820065	0.218737761	0.219346043
5.49654E-06	0.875732904	0.882774853	0.699287119	0.171050255	0.175318119
0.42559411	0.877438565	0.459154895	0.539802293	0.170636954	0.575858903
0.459021676	0.4220161	0.877473638	0.590706258	0.555013375	0.170483739
0.883238517	0.01371073	0.875856282	0.175376653	0.697607157	0.170684419
0.847518201	0.846906588	0.848184623	0.257368845	0.256993502	0.257082744
0.113707404	0.099966612	0.841827079	0.626119434	0.600942749	0.13506789
0.083507049	0.076039936	0.855028478	0.648369101	0.627636348	0.1486483
0.054274886	0.876312989	0.883487957	0.690546506	0.17097211	0.175370878
0.134591996	0.124455422	0.825345721	0.605793647	0.57725049	0.118284396
0.116666033	0.86425198	0.856138579	0.590421191	0.155539982	0.155839828
0.448796742	0.87733911	0.444631826	0.578625111	0.170601551	0.608818123
0.422288908	0.877418965	0.459076857	0.554835423	0.170297772	0.590778116
0.877797041	0.473644504	0.404264364	0.170592625	0.625949384	0.586068181
0.846918251	0.15396426	0.859964682	0.151640349	0.560902525	0.152344531
0.882016597	0.027324853	0.874374975	0.175155215	0.695169601	0.170034772
0.877375604	0.448089763	0.43586376	0.170572958	0.575754059	0.542808064
0.054235794	0.881497708	0.054617201	0.691073724	0.175497045	0.690185786
0.141790282	0.861162203	0.844340923	0.56459674	0.153553213	0.14966442
0.873087379	0.875665193	0.06520458	0.165268221	0.168909746	0.652794915
0.856828143	0.123076598	0.864236849	0.15673335	0.588425559	0.155849234
0.82541124	0.146171068	0.128561763	0.118864633	0.603388579	0.574482849
0.87206863	0.875052121	0.046624574	0.165072339	0.168914741	0.659004666
0.4358804	0.877308607	0.448089508	0.542738318	0.17053285	0.575634719
0.43849418	0.877019124	0.438498973	0.59658685	0.170218747	0.626538029
0.137171423	0.861663915	0.845200472	0.566168932	0.154166031	0.148862578
0.841715688	0.103086774	0.099201408	0.134969159	0.627766553	0.602545749
0.415639833	0.877425224	0.47003643	0.536153715	0.170588301	0.575466328
0.071382217	0.856134228	0.068818524	0.629461938	0.149542954	0.650079167
0.8689111	0.099110786	0.082830653	0.162838634	0.667136163	0.654794195
0.845099701	0.141821963	0.860950587	0.149802541	0.564600645	0.153420712
0.855619129	0.07977355	0.071549877	0.149439673	0.648046335	0.627660863
0.10355478	0.841786773	0.1250688	0.598144321	0.135183273	0.623249599
0.068724948	0.080294819	0.855694015	0.652134762	0.632451897	0.148963339
0.459096824	0.422085775	0.877622636	0.590723134	0.555072863	0.170541855
0.881177127	4.95702E-06	4.78319E-06	0.175235044	0.699348923	0.698956336
0.447917131	0.432568622	0.877335653	0.591042563	0.558182228	0.170606506
0.42557561	0.877330858	0.46431777	0.572239431	0.170582165	0.608796284
0.074117368	0.856266051	0.091267839	0.625935	0.149277372	0.645777537
0.459265392	0.425449242	0.877339876	0.575617052	0.539514136	0.170555751
0.235183588	0.826111799	0.235947674	0.584470929	0.118520817	0.612703326
0.055307542	0.871463934	0.874705935	0.654964226	0.164133061	0.168232268
0.484711509	0.39285649	0.87731678	0.625281348	0.582509607	0.170406297
0.841878266	0.12506833	0.103241325	0.135158563	0.62366759	0.59847156
0.048494707	0.041480388	0.073551673	0.677391142	0.677764761	0.679728465
0.88256575	0.054266322	0.875442041	0.17462373	0.690386886	0.170448257
0.273007934	0.272015091	0.82619083	0.616625906	0.590810664	0.118772874
0.867455269	0.104112572	0.866348448	0.162963662	0.61531546	0.158893706
0.869155136	0.08312201	0.07485967	0.162580596	0.672477592	0.660468718
0.856054857	0.111540959	0.864597362	0.155365709	0.592181349	0.156259549
0.877752513	0.448030226	0.432899692	0.17072504	0.591252063	0.558626531
0.055317885	0.871820057	0.874727845	0.654538701	0.164332665	0.168683338
0.876686259	0.876786625	0.877431352	0.170666029	0.170636894	0.170604329
0.103621958	0.841855479	0.124994559	0.59816435	0.135201161	0.623381843
0.060008386	0.060026713	0.0600188	0.640053002	0.640233107	0.640154463
0.863879543	0.864628089	0.863397147	0.218911025	0.219033414	0.21925721
0.877281324	0.448028221	0.435858845	0.170637306	0.575654117	0.542737269
0.855901915	0.091254275	0.074307881	0.149300147	0.645668555	0.625835098
0.877348724	0.458990917	0.425621523	0.170566745	0.575596849	0.539533524
0.083385995	0.102225002	0.841761136	0.631216716	0.606106359	0.134711529
0.415138242	0.876813785	0.461702641	0.589649336	0.170565369	0.626279748
0.841959039	0.103169521	0.099251141	0.134923278	0.627878001	0.602548924
0.081128582	0.078716351	0.868878806	0.674300815	0.662228034	0.162508054
0.438631353	0.877293108	0.438635952	0.596589163	0.170413764	0.626470967
0.066212845	0.053068496	0.081536883	0.672968056	0.672622961	0.673772698
0.066096495	0.05196204	0.07930347	0.672806459	0.672981362	0.674291256
0.133767301	0.862277821	0.842834006	0.567772055	0.155487511	0.148291143
0.845582119	0.141810614	0.860276447	0.149975809	0.564529977	0.153701207
0.055330541	0.871765068	0.874589995	0.654691326	0.164420284	0.168665649
0.464399268	0.42565674	0.8772421	0.609569283	0.572672166	0.170547177
0.027330923	0.875450926	0.883938972	0.695388966	0.170708104	0.175877568
0.855396616	0.111520145	0.864103336	0.155555581	0.592276481	0.15667633
0.067727565	0.067653768	0.067947188	0.636349213	0.636419149	0.636775441
0.42700496	0.87745308	0.450433491	0.593124612	0.170480506	0.626611228
0.435928489	0.877474676	0.44820575	0.542798375	0.170584	0.575710594
0.873903826	0.05531166	0.8722366	0.16823369	0.654748159	0.164638609
0.855636397	0.103002266	0.078844032	0.149356851	0.643500084	0.623663709
0.869003666	0.0983315	0.08148332	0.162775026	0.667477687	0.655954276
0.841725552	0.092754286	0.09984969	0.134876166	0.629419722	0.604427042
0.060007667	0.06002288	0.060013999	0.640063319	0.640234497	0.640075821
0.40375971	0.876803809	0.473155364	0.586189759	0.170404166	0.62593202
0.884456526	0.027324144	0.875097769	0.175639787	0.69514811	0.170416922
0.414108972	0.877331052	0.474816162	0.568889251	0.170535651	0.608671423
0.455722782	0.435731691	0.877459469	0.608928949	0.575648588	0.17058721
0.028232766	0.882328469	0.028082169	0.694946368	0.175555818	0.695786864
0.84173033	0.113824002	0.100256708	0.13505383	0.625728433	0.600540878
0.866107202	0.087707389	0.867299696	0.161761128	0.619752342	0.159761175
0.882997622	0.013704386	0.876341789	0.175476272	0.697233564	0.171178719
0.862259531	0.842974141	0.137094757	0.154459539	0.148956776	0.566224687
0.09992784	0.081529631	0.868784917	0.665661761	0.655655336	0.162785029
0.076027236	0.871045929	0.875359083	0.650389582	0.164198805	0.168943414
0.877560983	0.876788736	0.877567161	0.170813167	0.170638468	0.170692621
0.876918538	0.483938154	0.494370586	0.169940877	0.5599136	0.530997015
0.876918448	0.483934289	0.494378487	0.169940896	0.559913493	0.530997482
0.047144194	0.871147823	0.875844237	0.65678558	0.164124789	0.168440587
0.864330615	0.854720928	0.107852003	0.156693024	0.154578264	0.593909274
0.027080611	0.075837869	0.075889812	0.678921181	0.680017109	0.678451769
0.041131934	0.04129816	0.041744905	0.692564112	0.692749539	0.692184558
0.871925335	0.874788088	0.047107526	0.164978712	0.168115369	0.657056249
0.469745102	0.411472554	0.877121223	0.590593145	0.551543675	0.170814281
0.846316344	0.846064672	0.845547806	0.256718763	0.25693885	0.256738904
0.116735779	0.864054134	0.856085808	0.590392709	0.155722404	0.155985647
0.108113044	0.865023475	0.855107209	0.593551726	0.156744386	0.154519336
0.87680188	0.48053911	0.409803686	0.170611401	0.559454359	0.517493398
0.425534642	0.877420358	0.464176352	0.573577366	0.170575297	0.609860544
0.081313653	0.855361809	0.067906826	0.631993447	0.148842375	0.653105485
0.078998331	0.855871222	0.102952378	0.623552178	0.149772982	0.643315856
0.43991026	0.877999687	0.448986509	0.527831065	0.170829904	0.559726793
0.211853905	0.209585909	0.825544576	0.609791558	0.582533426	0.118740033
0.10224221	0.841456332	0.083346115	0.605947061	0.134848296	0.631178238
0.874767586	0.874641365	0.873238806	0.188876152	0.189100514	0.188691874
0.867104925	0.865946648	0.081566685	0.159470044	0.161715212	0.621279865
0.861817661	0.846679343	0.14741439	0.153247467	0.150850208	0.562714015
0.040900627	0.880698348	0.041180871	0.692970117	0.175332109	0.692321231
0.047065325	0.04775669	0.052596861	0.656924707	0.658513026	0.658276225
0.028142248	0.882257365	0.02859595	0.694993505	0.175579698	0.695450327
0.411630892	0.877273653	0.470268946	0.551644506	0.170618299	0.590503743
0.06524374	0.871209068	0.875454035	0.652748548	0.164830761	0.16913744
0.826502597	0.193182387	0.198115947	0.118912852	0.611619766	0.580468401
0.841717832	0.092759578	0.09981963	0.134783333	0.629511675	0.603986065
0.027395223	0.076716521	0.076681882	0.678718332	0.680049693	0.678545543
0.252111387	0.825498611	0.245900608	0.58299028	0.118433742	0.612601168
0.8757542	0.076048096	0.871720435	0.16974971	0.650604338	0.164927994
0.883969819	0.013707127	0.876650192	0.175577228	0.697362541	0.171554481
0.154045276	0.858549969	0.847230317	0.56096781	0.152217019	0.151560457
0.860004649	0.843965169	0.141787487	0.153118848	0.149204701	0.564521481
0.062496897	0.062461199	0.06238388	0.638763428	0.638642313	0.638638203
0.86229255	0.843898011	0.137120901	0.154760297	0.149194599	0.566229535
0.063558347	0.060047336	0.065568009	0.652009423	0.6519716	0.651930584
0.855862813	0.107970186	0.864567638	0.15489325	0.593714461	0.156639013
0.040866651	0.875867572	0.882654452	0.693258277	0.170483924	0.17450742
0.877631492	0.470036913	0.411697123	0.170631318	0.590515384	0.551071564
0.865311413	0.853865194	0.107749633	0.157018652	0.154901715	0.593926333
0.882249143	0.041125404	0.040811355	0.175680106	0.692214144	0.692490359
0.877678814	0.480935356	0.410267932	0.170803432	0.559484348	0.51737425
0.413856119	0.877231823	0.475098531	0.568926125	0.170581281	0.608390467
0.877208948	0.44864808	0.439491688	0.17043667	0.559865503	0.527618987
0.877380715	0.437082496	0.446363545	0.170610732	0.575715184	0.546077781
0.100242069	0.841697334	0.113885867	0.600472542	0.134990762	0.625654793
0.405739876	0.877331418	0.480553878	0.532987808	0.170486037	0.575345015
0.480583147	0.40118849	0.877103028	0.589960468	0.548235142	0.170003668
0.877544291	0.484836569	0.39295703	0.170652287	0.625197728	0.582613191
0.027375257	0.07706891	0.076836725	0.678698324	0.680079738	0.678528877
0.845107544	0.141821602	0.860701855	0.149726121	0.564426247	0.153385421
0.884336452	5.49502E-06	0.87606898	0.175995611	0.699369826	0.170757471
0.438579004	0.438574301	0.877179148	0.62647059	0.596343887	0.17021445
0.048130898	0.045481925	0.05320789	0.656186348	0.656136893	0.65611737
0.856044211	0.079925503	0.071540443	0.149312047	0.647862682	0.627798808
0.071780704	0.065869182	0.085677058	0.670171427	0.670070427	0.670501012
0.111382641	0.865007589	0.856015028	0.592083798	0.156237907	0.155660972
2.77728E-06	3.13943E-06	2.99649E-06	0.69900109	0.69934096	0.699311798
0.040950931	0.041597065	0.04152491	0.692206901	0.692788732	0.692245417
4.94945E-06	4.85918E-06	0.881332564	0.699116704	0.699365667	0.175421897
0.027326881	0.875394776	0.882855253	0.695248349	0.170298138	0.175199648
0.459674918	0.42964247	0.87767179	0.55982884	0.524420663	0.170685562
0.856463689	0.123100672	0.863544295	0.156276623	0.588433031	0.155322816
0.866980845	0.866503197	0.095454266	0.159247786	0.162263419	0.617655702
0.845656751	0.14737991	0.860679665	0.150639602	0.56275081	0.152950785
0.845047292	0.133727275	0.862298902	0.148429018	0.567686678	0.155220464
0.104085658	0.866407867	0.867465177	0.615302496	0.158753849	0.162895528
0.448197697	0.432788813	0.877834664	0.591009949	0.558220124	0.170735696
0.863996927	0.856952056	0.130422853	0.154810387	0.156734386	0.586491488
0.100130754	0.841964895	0.1140773	0.600459357	0.135037179	0.625746893
0.041145923	0.04082253	0.881687151	0.69212477	0.692804409	0.175410792
0.873979313	0.873249432	0.87322761	0.188968001	0.188977969	0.188409966
0.419885973	0.877639746	0.470256094	0.521017317	0.170731558	0.559681045
0.120092276	0.12065012	0.190741645	0.617344091	0.619388773	0.618482955
0.147422203	0.860712152	0.845589441	0.562663024	0.153161534	0.150750525
0.448847015	0.439652124	0.877574485	0.559662444	0.527798489	0.170646043
0.877084234	0.469762721	0.411437749	0.170082108	0.590421876	0.551624482
0.055107548	0.054640966	0.055676056	0.690318344	0.69034559	0.690121551
0.129108491	0.825923399	0.145914186	0.574375161	0.118829347	0.603595464
0.054227909	0.881190946	0.054617061	0.690801896	0.175263375	0.690236998
0.864019782	0.856615788	0.130373807	0.154944591	0.156912569	0.586553304
0.128613172	0.125000801	0.098643892	0.612286018	0.610754955	0.615228026
0.066739227	0.053013599	0.082116954	0.672831265	0.67273239	0.673867891
0.422113016	0.877275184	0.459081744	0.555129539	0.170438772	0.590929901
0.4481671	0.435965494	0.877436883	0.575567488	0.542785009	0.170622314
0.881741047	0.014338701	0.014157978	0.175488314	0.697549265	0.697755087
0.874146784	0.04710936	0.871213958	0.167829866	0.656888764	0.16488471
0.481144486	0.410414913	0.878043157	0.559333668	0.517642607	0.17050416
0.877357098	0.473373823	0.410026417	0.170597522	0.608768786	0.569088793
0.027320287	0.076276821	0.075888065	0.679155951	0.68026326	0.67956906
0.065249485	0.871105064	0.87503927	0.652438721	0.164673265	0.168711942
0.865598817	0.076967932	0.867841431	0.161267211	0.623234279	0.160076301
0.461938517	0.415386198	0.877297383	0.626241703	0.589534503	0.170748274
0.060172918	0.042844294	0.077197123	0.675285083	0.674900894	0.676618859
0.092691563	0.09980461	0.841514121	0.629470164	0.604292581	0.134988406
0.877072909	0.438526023	0.438521408	0.170435504	0.626503963	0.596512408
0.085884427	0.868720594	0.082593053	0.663368055	0.162413233	0.675260424
0.123883272	0.12672902	0.203612861	0.617920583	0.61846547	0.617180514
0.877386679	0.48448447	0.399233953	0.170605049	0.607866797	0.565235217
0.438273682	0.876577854	0.438278337	0.596512628	0.169902543	0.626398711
0.059401278	0.042795478	0.076365074	0.674967277	0.674986718	0.676446631
0.874160862	0.874056361	0.873841015	0.188852679	0.189174072	0.188621388
0.450393074	0.426965561	0.877373279	0.626474238	0.593154974	0.170455399
0.100217284	0.84173169	0.113751812	0.600595392	0.135013696	0.62567095
0.877424531	0.448813747	0.439534681	0.170804291	0.559672688	0.527769081
0.477330539	0.412390236	0.877355669	0.609038506	0.569478327	0.170585033
0.446296326	0.877255462	0.43702735	0.546070611	0.170580844	0.575736396
0.131469735	0.826795073	0.140094847	0.577440916	0.11896511	0.606099312
0.877186047	0.87768497	0.877615601	0.170551039	0.17077151	0.17060563
0.845834528	0.147369422	0.860267241	0.150685881	0.562843119	0.153049851
0.047197783	0.871170772	0.875564002	0.656732679	0.164684394	0.168876911
0.865275235	0.855005574	0.107805238	0.156748738	0.154695911	0.593904027
0.866982115	0.866919098	0.104028932	0.159097362	0.163056042	0.615374281
0.13319377	0.825910566	0.136888244	0.576906927	0.118767508	0.605808967
0.438225592	0.445369226	0.877680907	0.593013325	0.563409042	0.170812691
0.048171719	0.045492466	0.053264286	0.656263029	0.656130301	0.6560229
0.116724385	0.864424083	0.855869251	0.590346208	0.155684222	0.155812055
0.437078375	0.446346004	0.87735776	0.575742764	0.546078772	0.17060173
0.085247534	0.868460059	0.081209986	0.664325163	0.162555638	0.675572962
0.067804115	0.067646819	0.067998616	0.636324818	0.636497704	0.636727433
0.867544757	0.866624199	0.087823997	0.159582117	0.162114598	0.619497291
0.314638383	0.825749834	0.304165169	0.581827462	0.118735512	0.612416637
0.866244403	0.087788189	0.866957719	0.161653164	0.619736512	0.15944025
0.861581271	0.844810648	0.137024678	0.154244557	0.149088001	0.566292291
0.014087302	0.881336214	0.014290255	0.697211923	0.175236982	0.696626743
0.8417962	0.103109839	0.099185294	0.134875164	0.627844866	0.602574565
0.877107482	0.480713229	0.40992459	0.17051078	0.55951409	0.517454682
0.872244869	0.875048551	0.065206412	0.165458127	0.168788859	0.652644588
0.096107451	0.328983837	0.275954461	0.622155636	0.624140788	0.62352983
0.040880973	0.881595181	0.041305534	0.692638098	0.17519645	0.692500942
0.843609438	0.13729666	0.861305376	0.148857936	0.566299435	0.154581792
0.875660966	0.883865638	0.013706304	0.170309941	0.175530071	0.697312753
0.15403393	0.859221789	0.847739454	0.560849569	0.152089944	0.151405073
0.844095545	0.133745904	0.861961468	0.148429027	0.567742471	0.155229236
0.401940153	0.877357131	0.487081395	0.564029122	0.170552232	0.606912453
0.459119905	0.425418059	0.877152842	0.575693963	0.539654282	0.17053662
0.476839506	0.412831671	0.877521483	0.608209519	0.568666796	0.170579638
0.082829673	0.869045016	0.093197066	0.65676939	0.162590157	0.670463349
0.040835063	0.875198866	0.884062184	0.692607995	0.170266163	0.175324066
0.133107324	0.826287282	0.142227719	0.57676278	0.118706886	0.60578105
0.048475228	0.041631864	0.073728595	0.67742392	0.677834186	0.679724101
0.403896719	0.877043559	0.473259398	0.586076309	0.170632505	0.625818345
0.480994158	0.410218709	0.877692518	0.559351195	0.517667105	0.170500056
0.856175248	0.11666015	0.863285278	0.155580694	0.590355493	0.155463269
0.132560252	0.827246644	0.139975134	0.576703834	0.119899726	0.6054746
0.082214926	0.855534951	0.066145491	0.631283481	0.149356191	0.653179044
0.154071789	0.85888136	0.846828136	0.560968863	0.152057925	0.151385966
0.866927282	0.087823614	0.86744872	0.161959775	0.619462937	0.159540146
0.014210204	0.014139788	0.881103676	0.696713382	0.697314756	0.175125882
0.079660659	0.869277832	0.082307359	0.663604661	0.162405432	0.675574
0.863140021	0.856567117	0.123122574	0.155284197	0.156487763	0.588598156
0.856434218	0.12310079	0.863541403	0.15627485	0.588439638	0.155321665
0.863767322	0.85658165	0.123129953	0.155386093	0.156353273	0.588335565
0.871825738	0.874856203	0.047275643	0.164691151	0.16855606	0.656940319
0.8773899	0.459052611	0.425610179	0.170620745	0.575756687	0.539658559
0.099782423	0.082081897	0.868742031	0.665630821	0.65582727	0.162843694
0.84158773	0.102995534	0.099299385	0.134946458	0.62789034	0.602908269
0.086368653	0.077110979	0.869145218	0.671815055	0.660664307	0.162640424
0.080142184	0.207238369	0.205330407	0.620418011	0.620934899	0.624553204
0.875289399	0.88261105	0.040856796	0.170111656	0.174588685	0.693072198
0.100379516	0.841618237	0.113908856	0.600766519	0.135030164	0.62580122
0.877549263	0.470196678	0.419876928	0.170882893	0.559650538	0.520841599
0.876449423	0.881904373	0.040857811	0.170532991	0.175161374	0.693066485
0.867469335	0.865557974	0.081543635	0.159806585	0.161747649	0.621490351
0.047201678	0.871367721	0.875434514	0.656731619	0.164656909	0.168850529
0.876593532	0.882502218	0.013706047	0.170630963	0.174831678	0.697276938
0.480684878	0.405952993	0.877446993	0.575168354	0.532703236	0.170587712
0.249721065	0.24541745	0.825140235	0.613959068	0.580609713	0.118701197
0.877345448	0.473418002	0.404039319	0.170380558	0.625940597	0.585982067
0.099966471	0.082061836	0.868788999	0.665649937	0.655698755	0.162791013
0.062498377	0.062454376	0.062344913	0.638591896	0.638734831	0.638510364
0.877402803	0.469897518	0.415508356	0.170533073	0.575551841	0.536244142
0.123176074	0.86349166	0.856677996	0.588502064	0.155609374	0.156844192
0.872077809	0.874313244	0.04673287	0.164696278	0.168410821	0.659024621
2.79819E-06	3.21758E-06	2.98628E-06	0.699277159	0.699445545	0.699070991
0.172677327	0.091824908	0.180100212	0.612606036	0.616028359	0.616794786
0.447937203	0.435981564	0.877241649	0.57547774	0.542736174	0.170585926
0.87496184	0.065197539	0.871373992	0.168769615	0.652968347	0.164556202
4.8973E-06	4.82824E-06	0.881010146	0.699024824	0.699364204	0.175433631
0.869130696	0.091551101	0.078749458	0.162549172	0.672583111	0.660065649
0.06657232	0.052252348	0.080319916	0.672942123	0.672934658	0.674406027
0.877196075	0.473346292	0.403961062	0.170635881	0.625935427	0.586077577
0.43994607	0.878174393	0.449138244	0.527549192	0.170923263	0.559901808
0.054228535	0.881145081	0.054611047	0.690412345	0.17542183	0.690101123
0.883488999	0.013711356	0.87663641	0.175652649	0.697644622	0.170708975
0.843770053	0.133746259	0.863827005	0.148578607	0.567837337	0.155681974
0.211972787	0.825716943	0.212956694	0.583450145	0.118916814	0.612762974
0.877397875	0.480769865	0.401397782	0.170348341	0.590223883	0.548033897
0.862514224	0.844550024	0.13711785	0.154947523	0.149304613	0.566183656
0.446108177	0.448645948	0.877361735	0.608481606	0.578279677	0.170595589
0.825933691	0.282013043	0.293296278	0.118717732	0.616378938	0.585709559
0.244957506	0.82526252	0.236537035	0.58346107	0.118475309	0.612865029
0.450243926	0.426822612	0.877080858	0.626353956	0.59313629	0.170599064
0.402517954	0.877317251	0.486376883	0.56468286	0.170535504	0.607751338
0.877678586	0.484903779	0.393024858	0.17055164	0.625247336	0.582633093
0.08073664	0.083649005	0.868855905	0.675444786	0.663572146	0.16269918
0.877381103	0.484253218	0.399564873	0.170630255	0.607601427	0.564895425
0.459034178	0.422032046	0.877499845	0.590706629	0.555007548	0.170757145
0.087961501	0.865894925	0.864943751	0.619297967	0.158973319	0.162002481
0.867399644	0.865935522	0.087806573	0.159427387	0.161873421	0.619520711
0.866786834	0.866700591	0.095464446	0.159513372	0.162314838	0.617566476
0.147419057	0.860678394	0.845665776	0.562715171	0.152772983	0.150353564
0.027325309	0.876466693	0.882813122	0.69519586	0.170346134	0.175155331
0.459790565	0.429723508	0.877873376	0.559704422	0.524385869	0.170613042
0.07883805	0.868996903	0.085941229	0.661194212	0.162484344	0.673460591
0.855472167	0.06899164	0.071350724	0.149099423	0.649664449	0.62948116
0.125088644	0.103220752	0.841551941	0.623744587	0.598563892	0.135341091
0.866021921	0.081573179	0.866808513	0.161607525	0.621466469	0.159441375
0.865750533	0.077003015	0.86761572	0.161236054	0.623269729	0.159952286
0.877345719	0.439428691	0.443847009	0.170585944	0.608389975	0.578252911
0.46220326	0.415645446	0.877821521	0.626260552	0.589643478	0.170670602
0.084125351	0.869137547	0.099623693	0.654457747	0.162595271	0.667841197
0.088044166	0.86629126	0.865766027	0.619533818	0.159014752	0.162039331
0.413554536	0.877277137	0.475412336	0.568986594	0.170568441	0.608447979
0.10786781	0.865095853	0.854285789	0.593642451	0.1568292	0.154763095
0.106348616	0.083143742	0.854350383	0.643299698	0.623568311	0.149087381
0.054027562	0.051525148	0.057504437	0.654274243	0.654032188	0.654018395
0.842792915	0.133744779	0.860135134	0.147946013	0.567807336	0.154963846
0.099187777	0.842108363	0.1031712	0.6027207	0.13500454	0.627971749
0.427045243	0.877531176	0.450471379	0.593079557	0.170668496	0.626533501
0.135718816	0.126613629	0.826708163	0.604169571	0.5756673	0.119189323
0.401699234	0.877727187	0.481092174	0.548320325	0.170610161	0.590298731
0.470172222	0.41180073	0.877888223	0.590748729	0.551625016	0.170746894
0.04720768	0.871023253	0.874031079	0.657128386	0.164643522	0.168095287
0.062489013	0.062501604	0.062384109	0.638773903	0.638594468	0.638688964
0.825903966	0.228190479	0.238097187	0.119326345	0.607738556	0.581428113
0.071452934	0.855534497	0.068793326	0.629392727	0.149275991	0.649843316
0.13051356	0.863005243	0.857173243	0.586554339	0.154909456	0.156991102
0.05533424	0.871327632	0.875477876	0.654556261	0.164818955	0.169034412
0.171673217	0.091476055	0.182080225	0.615542287	0.616588748	0.616310133
0.863841891	0.855199807	0.116715857	0.155819635	0.155604553	0.590390685
0.444967701	0.876554573	0.437946889	0.563001672	0.169974561	0.591884391
0.129289987	0.825882884	0.146089491	0.57426659	0.11869784	0.603632441
0.877384097	0.439529119	0.443527397	0.17056286	0.608416505	0.578230874
0.462224798	0.415662763	0.877860439	0.626290151	0.589638789	0.170653895
0.877907501	0.450657368	0.427235483	0.170747272	0.62649499	0.593066502
0.883819596	0.027327004	0.876767321	0.175492752	0.695237179	0.171329896
0.091317839	0.078485377	0.86916702	0.673683222	0.659348582	0.162738979
0.448474852	0.439457085	0.877022245	0.559729325	0.527716177	0.170343642
0.419788077	0.87765468	0.470363996	0.521064076	0.170722522	0.559601312
0.141785598	0.860928404	0.845784849	0.564507485	0.153634425	0.149917467
0.859907731	0.844248105	0.14741751	0.153015601	0.150692461	0.562877443
0.448119897	0.435859821	0.877285024	0.575605019	0.542755106	0.170614121
0.877782455	0.459216817	0.422168347	0.170334702	0.59087555	0.55521009
0.863889971	0.864883327	0.863295539	0.219077622	0.219162768	0.219255192
