Vam	Vbm	Vcm	Iam	Ibm	Icm
0.877331425	0.439381765	0.443725274	0.170581563	0.608468963	0.578290096
0.129316676	0.826128031	0.145582813	0.574483199	0.11944008	0.603413402
0.863669785	0.856294501	0.116667153	0.15574332	0.155900413	0.59027081
0.874450837	0.049568452	0.872083554	0.168395396	0.658448768	0.165188241
0.425565874	0.877323844	0.459077797	0.539561775	0.170560575	0.575618702
0.856644286	0.130473158	0.862439979	0.156549352	0.586469249	0.15438145
0.081542101	0.855855065	0.066077653	0.631308037	0.149336426	0.653233736
0.040987125	0.041278325	0.041158492	0.692496098	0.692185427	0.692352959
0.104093005	0.866168209	0.867226039	0.61513586	0.158722822	0.163189587
5.49578E-06	0.875781501	0.882681408	0.699132658	0.170385324	0.175135063
0.480879418	0.410104441	0.877449435	0.559288561	0.51760982	0.170531361
0.473342839	0.403941729	0.877174162	0.625739234	0.586273052	0.170699281
0.077269093	0.86753166	0.865299619	0.622995232	0.160004492	0.161574362
0.068825166	0.079208334	0.855072011	0.651966083	0.632277515	0.148897883
0.054566805	0.054226837	0.882208592	0.690057779	0.690739378	0.175463638
0.869055669	0.08337129	0.074924444	0.16253497	0.671067834	0.659044569
0.154040507	0.858064627	0.845390358	0.560898093	0.151907458	0.151048534
0.4698493	0.41573916	0.877369598	0.575362437	0.536096176	0.170516707
0.871295112	0.874413725	0.047110612	0.164957353	0.168049122	0.657080719
0.82573928	0.28545908	0.291880247	0.118818864	0.612101676	0.585939571
0.448115045	0.436003231	0.877404368	0.575572775	0.542805716	0.170607067
0.855530977	0.079794953	0.071536068	0.149080017	0.648012536	0.627719719
0.869090999	0.079681823	0.077380027	0.162577303	0.67489697	0.66250098
0.072127805	0.065778524	0.086151445	0.670468817	0.670021851	0.670700878
0.459987458	0.429931631	0.878287433	0.559950872	0.524343156	0.170750753
0.445373896	0.877001073	0.437832825	0.562681062	0.170078237	0.592036195
0.866884864	0.866643952	0.095447611	0.159357001	0.162392355	0.617410519
0.876794212	0.882798662	0.013705392	0.171261215	0.175493142	0.697240084
0.469902807	0.4155907	0.877321638	0.57536732	0.536112992	0.170525803
0.84161719	0.102998542	0.099244899	0.134937313	0.627943353	0.602855302
0.881091081	0.014282024	0.014180081	0.175279408	0.696447719	0.697296974
0.873902154	0.873730282	0.873927998	0.188607751	0.188749347	0.188823645
0.874425271	0.065219885	0.871707167	0.168791498	0.652809972	0.164934102
0.099287222	0.841099957	0.103028948	0.602545777	0.135009731	0.627654989
0.099786072	0.841577921	0.092776177	0.604211616	0.134894661	0.629566803
0.877640559	0.470336381	0.419822761	0.170768746	0.559679291	0.520995854
0.881354048	4.89277E-06	4.89645E-06	0.175211553	0.698989576	0.699275368
0.873814056	0.047176134	0.872368416	0.168332796	0.65683335	0.165482476
0.415610007	0.877756981	0.462173937	0.589642957	0.170568618	0.626278783
0.868929521	0.098657806	0.082962105	0.162810944	0.665006655	0.653491052
0.877484454	0.437472071	0.443991262	0.170440366	0.590793944	0.5611909
0.459653154	0.429658223	0.877664562	0.559822484	0.524414681	0.170691928
0.88277795	0.054260389	0.875834345	0.17503812	0.69035403	0.17048602
0.027449514	0.028334073	0.028137092	0.694907409	0.694873965	0.695051852
0.415241416	0.877017713	0.461803839	0.589760378	0.170515513	0.626213523
0.103350149	0.841890308	0.125200598	0.598163258	0.135206409	0.62337739
0.310018551	0.825848533	0.304336215	0.584655745	0.118732343	0.611043878
0.104056775	0.866262934	0.86719155	0.615058734	0.158524885	0.163008683
0.867400851	0.865573518	0.081536246	0.159791328	0.161652797	0.621507515
0.100171894	0.082365192	0.868887993	0.667830209	0.655929812	0.162763205
0.104097187	0.866192726	0.867234633	0.615145823	0.158727042	0.163187221
0.040949237	0.041568458	0.041528783	0.692294844	0.692735076	0.692245019
0.077700132	0.081285486	0.868648816	0.676064957	0.66551509	0.162443066
0.877330823	0.448059937	0.4359003	0.170591427	0.575688525	0.542846509
0.459745933	0.429693521	0.877807335	0.559884831	0.524471839	0.170785975
0.135207205	0.126753631	0.827324521	0.605425896	0.576624024	0.119352755
0.081849346	0.867113172	0.865101824	0.620932482	0.159175765	0.161572042
0.487253747	0.401694614	0.877528629	0.608502978	0.565497814	0.170503129
0.844291368	0.137279977	0.862222784	0.149053764	0.566381025	0.154672656
0.880797953	0.02763869	0.027616684	0.174951374	0.69488196	0.695109325
0.071407468	0.854790434	0.068788998	0.629423799	0.148346714	0.649700876
0.855201937	0.091436759	0.07433718	0.148954197	0.645653728	0.625615032
0.877348557	0.458990855	0.425621442	0.170566774	0.575596874	0.539533439
0.867698736	0.865607922	0.081607404	0.159975239	0.16181369	0.62119754
0.130502082	0.862919663	0.857022338	0.586313006	0.154820356	0.156966604
0.822593261	0.823243042	0.823109764	0.298264315	0.298655262	0.298395836
5.49502E-06	0.875594797	0.881982394	0.699185662	0.170791565	0.175305399
0.125858552	0.123348402	0.20165881	0.617535204	0.619308213	0.617853111
0.862496561	0.842608369	0.133793794	0.155555023	0.148405222	0.567747199
0.063822672	0.059896873	0.06576204	0.651870887	0.651965524	0.651686054
0.092685877	0.099699119	0.841545416	0.629560652	0.604330137	0.134913013
0.054281147	0.876251424	0.882952797	0.690647305	0.170945728	0.17536223
0.459714769	0.429733337	0.877811141	0.559781041	0.52438443	0.170642182
0.459073717	0.42560417	0.877307549	0.575592108	0.539496718	0.170530961
0.103485778	0.841731842	0.125019703	0.597872643	0.135293142	0.62328723
0.877329748	0.438892094	0.444137506	0.170582903	0.608451369	0.578278663
0.413889471	0.877289819	0.475052843	0.568895424	0.17058853	0.608371465
0.88344431	0.027327062	0.875645362	0.174991628	0.695283341	0.170280943
0.028255458	0.881831697	0.028543013	0.695117433	0.175571917	0.695144192
0.874021476	0.874372164	0.874108296	0.188806961	0.189286791	0.188764658
0.054272622	0.874995932	0.882267648	0.690456267	0.170654205	0.175292244
0.445119908	0.877516856	0.438381377	0.561953245	0.170516509	0.591656601
0.821227257	0.823266744	0.821640586	0.298363868	0.298661179	0.29863968
0.825595861	0.14622035	0.129329978	0.118906302	0.603170872	0.57439678
0.461969726	0.415407392	0.877349919	0.626272025	0.589672354	0.170689181
0.047201227	0.871351859	0.875444202	0.656711938	0.164605479	0.168820082
0.8466348	0.847224678	0.847048281	0.257122529	0.256718031	0.257201342
0.845268604	0.141828188	0.861507147	0.149886955	0.564608088	0.153472156
0.84165237	0.092804503	0.099879867	0.13487473	0.629484878	0.604512679
0.874233583	0.049790793	0.871729074	0.16836861	0.658534935	0.165076999
0.470378485	0.419938067	0.877800517	0.559575899	0.521003311	0.170614261
0.412607166	0.87733213	0.476093944	0.56880451	0.170547837	0.60860434
0.881519731	0.013951549	0.01413681	0.175489257	0.697018427	0.697324582
0.080327079	0.083581506	0.868878614	0.67557806	0.663586409	0.162678224
0.866670787	0.866547597	0.103978229	0.15949312	0.162852981	0.615417989
0.245424172	0.825171355	0.248146531	0.582104125	0.118594216	0.611774857
0.877372338	0.437077933	0.44636063	0.170612951	0.575710313	0.546074055
0.867406998	0.86616073	0.077201471	0.159803865	0.161682165	0.622916229
0.825784987	0.298166634	0.307620179	0.118610762	0.612725653	0.584731387
0.872239859	0.874515658	0.065213434	0.165153421	0.168815373	0.652691508
0.877390295	0.480615119	0.405662752	0.17057773	0.575064756	0.532688773
0.866019562	0.081800401	0.867756751	0.161999985	0.620864331	0.159837288
0.867712838	0.865810234	0.087816296	0.159738488	0.162150484	0.619339183
0.438536121	0.445026324	0.877618979	0.590782117	0.561231349	0.170674544
0.410506395	0.878040748	0.481059181	0.51772977	0.170647559	0.559364049
0.125213434	0.103192509	0.841574401	0.623732489	0.598550706	0.135340151
0.86900048	0.083576784	0.074359923	0.162557755	0.671955809	0.659615651
0.876512822	0.076050149	0.87312099	0.169423893	0.650535671	0.164966401
0.85542695	0.107977524	0.866023645	0.154924746	0.593889441	0.157190161
0.877400686	0.459055118	0.425607281	0.170615513	0.575789461	0.53967
0.439460936	0.877235065	0.448701305	0.527820053	0.170632969	0.559722027
0.454792321	0.436194492	0.877392616	0.60930777	0.57597653	0.170605692
0.855191652	0.06560022	0.078679245	0.148900899	0.65301404	0.632969156
0.447905421	0.877283734	0.445422349	0.579217518	0.170601442	0.60929264
0.108074609	0.865156163	0.854728641	0.593677738	0.156673732	0.154476268
0.877139847	0.46981975	0.411418609	0.17024164	0.590521344	0.551528912
0.867117399	0.865591411	0.081540829	0.159485963	0.161619988	0.621339435
0.103542917	0.841629916	0.124938142	0.598182337	0.135201946	0.62329671
0.147901164	0.131370345	0.825778055	0.604231796	0.575065464	0.119227618
0.874014952	0.055325539	0.871189183	0.167799309	0.654844199	0.164344893
0.470444224	0.419862375	0.877789987	0.559628184	0.52104864	0.170671863
0.863701999	0.857502783	0.130377574	0.155347051	0.157267638	0.586523345
0.846785103	0.846540204	0.846503696	0.256888404	0.256546606	0.256532197
0.877661915	0.462127971	0.415560539	0.170652998	0.626202721	0.589690496
0.875245435	0.882889659	0.054276936	0.170492986	0.174758406	0.690534154
0.054615465	0.054249297	0.881705485	0.69002624	0.690423019	0.175460695
0.067735814	0.079074749	0.855510506	0.651922147	0.632250614	0.14906023
0.86699274	0.86721601	0.104002122	0.159321421	0.163105476	0.615311301
0.013707572	0.875594432	0.8832048	0.697385275	0.170495706	0.175394243
0.103136128	0.099321513	0.84152808	0.627774572	0.602761356	0.135010711
0.028553338	0.027899005	0.882436552	0.695101604	0.695353183	0.175506857
0.84689549	0.847193336	0.847697904	0.257375866	0.256803965	0.257164085
0.87718927	0.437001147	0.446258928	0.170579409	0.575705937	0.546045246
0.072224382	0.070038707	0.07425254	0.649030869	0.649990914	0.64912966
0.104077068	0.866525149	0.867546885	0.615346509	0.158729023	0.162986044
0.068728279	0.0796873	0.855067787	0.652009678	0.632278474	0.148921357
0.856037445	0.103127448	0.078882384	0.149697742	0.643423271	0.62377368
0.883101606	0.04084983	0.876497013	0.175145683	0.692860967	0.170971213
0.083313503	0.083796088	0.083750852	0.632223487	0.63217653	0.632466124
0.874456535	0.874654563	0.873995255	0.188977913	0.189364873	0.188880234
0.11388296	0.100199557	0.841672745	0.625956342	0.600687792	0.135062057
0.877323686	0.451075122	0.432412015	0.17050395	0.608594052	0.575174677
0.083423056	0.869148127	0.079754082	0.664485865	0.162675259	0.677644297
0.141755979	0.86063424	0.846021083	0.564525776	0.153110227	0.149475859
0.099291054	0.840958465	0.103131419	0.602515511	0.135040622	0.627621044
0.100190322	0.08114713	0.868669586	0.66623931	0.655242168	0.162751659
0.877445174	0.459077732	0.425627231	0.170605531	0.575794593	0.539686545
0.133745296	0.862353987	0.843576358	0.567850348	0.155149875	0.148074923
0.099551143	0.081627782	0.868765441	0.66613307	0.655265646	0.162732065
0.855505526	0.111548082	0.864929004	0.15555526	0.592256621	0.156599675
0.091259057	0.074638671	0.85545282	0.645513722	0.625601239	0.149354348
0.877365682	0.448070569	0.435899059	0.170670258	0.575694078	0.542720363
0.013709253	0.876009553	0.884239375	0.697496097	0.170707035	0.175491549
0.085881619	0.868723207	0.08259021	0.663369854	0.162412766	0.675260612
0.324872542	0.337919317	0.824769461	0.61644412	0.589563151	0.118623471
0.445625294	0.448522186	0.877242673	0.608768824	0.578430656	0.170542346
0.87734242	0.437069828	0.446340319	0.170616728	0.575713536	0.546060109
0.06319393	0.060110221	0.065319361	0.651744282	0.651973551	0.651766916
0.860321636	0.847222	0.154007522	0.152533853	0.151658381	0.56089907
0.877359244	0.473373347	0.410030221	0.170601211	0.608770265	0.569087744
0.09552942	0.866824853	0.866451457	0.617365556	0.159217519	0.162601382
0.884647551	5.49502E-06	0.874759322	0.175508145	0.699235518	0.170297434
0.484971246	0.393124376	0.877843219	0.625529103	0.582272022	0.170563776
0.099790336	0.841621644	0.092802784	0.604204125	0.134889281	0.629593341
0.085217378	0.868779689	0.08186639	0.663172447	0.162428571	0.675274234
0.0993521	0.841193399	0.103014631	0.602443816	0.135080252	0.627511171
0.048197574	0.871718074	0.87364922	0.658767884	0.164944193	0.168190745
0.415722743	0.877417903	0.469965484	0.536135659	0.170585747	0.575463358
0.871977687	0.874307836	0.046708646	0.164696087	0.168394345	0.659013442
0.401385954	0.877360102	0.487319607	0.564718024	0.170535328	0.607785317
0.166082811	0.091299787	0.168302267	0.614744277	0.61565383	0.621097299
0.856192397	0.116667038	0.863228062	0.156033563	0.590362884	0.155781593
0.054473724	0.054801009	0.055107037	0.689961661	0.69077145	0.690903124
0.4198751	0.877564884	0.470208547	0.520992705	0.170768286	0.559648685
0.071546777	0.065700378	0.085039198	0.669728171	0.670096806	0.670495798
0.083003266	0.8691869	0.079868872	0.664504199	0.162562806	0.6775601
0.877368922	0.46161292	0.422160438	0.170576488	0.609516893	0.57313465
0.881359566	0.027468824	0.027481969	0.17569936	0.694821854	0.695088855
0.427125373	0.877693919	0.450553794	0.593095615	0.170383616	0.626496573
0.205742607	0.825357255	0.214740278	0.584697262	0.119035997	0.611832713
0.074239857	0.855617255	0.091135616	0.625906466	0.149204543	0.645898516
0.865163225	0.854386994	0.10774865	0.156770197	0.154702367	0.593914177
0.855317693	0.116662392	0.864561737	0.155887142	0.590295234	0.155951531
0.881867929	0.04108838	0.040856748	0.175345732	0.692540908	0.692435129
0.07714478	0.867913789	0.865039093	0.623263211	0.160010316	0.161473974
0.877565398	0.46998006	0.411681268	0.170452631	0.590397539	0.55174068
0.257538826	0.265611815	0.825848573	0.617274068	0.586622369	0.119007087
0.844911342	0.13375867	0.862601869	0.148407027	0.567859044	0.155499498
0.877364448	0.451227522	0.432145735	0.170568743	0.61006201	0.576499119
0.460331014	0.877588981	0.452950226	0.531673827	0.17075946	0.560961623
4.90014E-06	0.881477243	4.77506E-06	0.69895863	0.175222557	0.69925686
0.415494324	0.877528156	0.462060531	0.589559924	0.170651637	0.626213954
0.083074091	0.075872229	0.853539594	0.647801354	0.6276965	0.148707378
0.079098422	0.855873778	0.102960114	0.623592765	0.149731731	0.64331205
0.415506179	0.877559563	0.462080034	0.589768962	0.170548369	0.62619767
0.865150092	0.077071955	0.867673614	0.161145153	0.623364642	0.159920898
0.882174621	0.027723777	0.027566666	0.175491387	0.694489471	0.695276397
0.854705397	0.111497372	0.864010941	0.155083447	0.592132048	0.156245706
0.865391812	0.07705695	0.867639991	0.16134562	0.623175008	0.159975029
0.856007809	0.09147512	0.074260636	0.14929422	0.645675839	0.625847987
0.841632445	0.102997526	0.099231907	0.134939121	0.627941369	0.602876667
0.473132993	0.403757834	0.876778652	0.625813093	0.586109428	0.170651566
0.438425341	0.876881395	0.438430059	0.596532511	0.16998156	0.626452478
0.041055142	0.041236702	0.041316902	0.692688516	0.69280459	0.692508666
0.067748966	0.067658018	0.067954091	0.636434941	0.636521329	0.636696088
0.448463685	0.877282147	0.444767728	0.579351599	0.170601386	0.609414008
0.09265542	0.099695258	0.841491057	0.629587618	0.604191133	0.134856145
0.842857299	0.133741632	0.860298219	0.147887751	0.567801439	0.154942086
0.845205301	0.147400738	0.860728074	0.150842344	0.562728495	0.15323839
0.878021614	0.462306767	0.415741218	0.170677633	0.626233969	0.5896687
0.869266783	0.091623323	0.078593656	0.162665705	0.672557201	0.658849079
0.13719558	0.861036982	0.845180493	0.566264278	0.153821742	0.148644346
0.048381994	0.041736721	0.073705923	0.677432214	0.677901559	0.679853271
0.092922261	0.080736964	0.868811469	0.669987018	0.657455537	0.162697518
0.040833279	0.881576481	0.041068794	0.692492367	0.175209244	0.692636143
0.092656737	0.099704217	0.841479373	0.62959237	0.604164625	0.134855523
0.862339294	0.862535966	0.863438048	0.218985462	0.218725963	0.21931399
0.072213884	0.069912964	0.073867109	0.64964705	0.649800169	0.64971007
0.027479019	0.027789588	0.027569123	0.694925956	0.694938677	0.695071095
0.877362713	0.448074241	0.435880398	0.170604395	0.575721467	0.54279115
0.459676286	0.42964125	0.877672147	0.559826528	0.524420884	0.170685675
0.425534625	0.877420326	0.464176352	0.573577259	0.170575296	0.609860078
0.075033175	0.074894694	0.075281204	0.634257334	0.634479481	0.6344971
0.108134221	0.864452339	0.854497258	0.593675863	0.156670058	0.154489445
0.05533919	0.871742612	0.875075256	0.654615782	0.164239583	0.168618908
0.876285601	0.88240263	0.01370638	0.170365609	0.174467851	0.697294882
0.116752821	0.864068953	0.856653601	0.590343033	0.155759529	0.156041954
0.437772422	0.445767057	0.877751296	0.593068036	0.563455155	0.17067516
0.867226839	0.865943879	0.087816571	0.159450875	0.162066977	0.619479195
0.048806265	0.045574702	0.05379103	0.65610358	0.65609461	0.656095139
0.076007144	0.870994393	0.875798806	0.65038651	0.164599688	0.169447745
0.8773766	0.469908161	0.415441385	0.170541843	0.575366898	0.536093117
0.877400933	0.469897825	0.41550446	0.170533503	0.575552043	0.536243305
0.459735462	0.429573275	0.877671585	0.559860795	0.524427077	0.170799405
0.841787707	0.124964173	0.103193109	0.135186325	0.623639388	0.598499226
0.435420685	0.877276264	0.454850343	0.57642735	0.170549286	0.610055942
0.44564544	0.877529083	0.437866111	0.562638753	0.170368786	0.591797737
0.866351331	0.0955369	0.8665308	0.162170656	0.617482258	0.159000994
0.868823231	0.078018362	0.081230154	0.16246024	0.677693559	0.665796125
0.872810566	0.875104343	0.04643991	0.165137652	0.168475663	0.658985111
0.480836317	0.40568606	0.877400692	0.57517462	0.532637592	0.170566024
0.878434673	0.878048245	0.877319092	0.171051894	0.171020627	0.170665897
0.0600055	0.060019628	0.060000693	0.64012637	0.640102592	0.64021939
0.271280154	0.276950538	0.82553096	0.614474825	0.589175223	0.118631961
0.860924277	0.844530744	0.141699261	0.153939994	0.149892217	0.5646111
0.876818407	0.883784235	0.027325977	0.171045986	0.175732353	0.695177943
0.125127455	0.103206603	0.841860031	0.623675461	0.598380798	0.135326822
0.855787109	0.102923736	0.078903716	0.149729482	0.643419523	0.62377636
0.412067608	0.877590235	0.470100472	0.551840567	0.170598303	0.590701319
0.41423984	0.877315653	0.47468852	0.569036385	0.170520414	0.608763745
0.438422683	0.876876074	0.438427402	0.596533868	0.16998777	0.626459046
0.8774443	0.462018615	0.4154528	0.17050275	0.626158879	0.589752243
0.448695875	0.439483686	0.877258563	0.559765139	0.527698382	0.170544803
0.876799402	0.438389022	0.438384353	0.170228782	0.62667999	0.596391912
0.863701999	0.857502783	0.130377574	0.155347051	0.157267638	0.586523345
0.401943255	0.877353988	0.487080317	0.564029222	0.170553016	0.606913205
4.92584E-06	4.89702E-06	0.88128961	0.699306443	0.69944145	0.175274219
0.103042803	0.099226635	0.841542421	0.627758869	0.602563763	0.135029228
0.872171481	0.87295612	0.046705121	0.165272631	0.168213247	0.658827739
0.846861856	0.847152623	0.84723319	0.257533102	0.256995308	0.257481206
0.401651895	0.877338587	0.487238413	0.564588825	0.170537908	0.607670725
0.111543957	0.864214581	0.855239198	0.592107776	0.156161728	0.155228314
0.48482054	0.39296964	0.877537516	0.625526372	0.58241126	0.170850064
0.867003967	0.088015438	0.867037229	0.162454003	0.619668862	0.15941284
0.12318276	0.863246877	0.856373112	0.588383647	0.155102473	0.156425674
0.44803084	0.43258271	0.877457832	0.59087977	0.558301692	0.170517971
0.846299712	0.147386716	0.861163783	0.151024016	0.562787637	0.153417098
0.877940424	0.878005198	0.877236962	0.171045613	0.1710345	0.170676892
0.464410405	0.425442534	0.877443949	0.607824395	0.571163131	0.170514777
0.878379161	0.485245133	0.393384851	0.170720396	0.625328039	0.582568132
0.111479287	0.864965485	0.855194982	0.592240126	0.156128492	0.155143855
0.531120598	0.50637817	0.877621219	0.561651433	0.532878251	0.170361022
0.484478134	0.392657804	0.876881545	0.625364636	0.582419685	0.170691928
0.415505683	0.87740261	0.470122978	0.536060745	0.170579697	0.575418124
0.111537724	0.864595895	0.856233809	0.592177507	0.156300861	0.155310348
0.147687317	0.131052495	0.82575275	0.603768144	0.574112248	0.119323512
0.877437849	0.480806981	0.401379027	0.170358945	0.590075211	0.547622749
0.13049528	0.861830352	0.855684952	0.586495788	0.154758552	0.156704257
0.079284324	0.08235673	0.868897653	0.675191668	0.663757526	0.162634725
0.403933284	0.87712844	0.473307096	0.586072294	0.170663105	0.625855399
0.013747338	0.014127734	0.014286868	0.697130581	0.697310565	0.697217328
0.877334473	0.439294628	0.443881765	0.170587723	0.608379533	0.57824418
0.078055522	0.081114488	0.868836195	0.675098423	0.664154987	0.162562315
0.146968915	0.128677807	0.826164143	0.603444707	0.575287725	0.11940342
0.855905929	0.116631989	0.864872537	0.155991496	0.590344965	0.156135964
0.480542776	0.405858792	0.877280814	0.574930434	0.532464249	0.170563604
0.083297389	0.075857631	0.853646416	0.647893467	0.627668641	0.148697365
0.078949186	0.855974349	0.103014843	0.623764425	0.149827574	0.643505972
0.040908629	0.881055346	0.041326974	0.693022597	0.175451015	0.692379545
0.862378122	0.843499427	0.13376897	0.155230311	0.14808538	0.567709557
0.065241192	0.871725614	0.874944806	0.652498041	0.164637358	0.168689447
0.060754486	0.042630085	0.077443179	0.675689531	0.675188247	0.677387365
0.067693833	0.067668882	0.067977636	0.636497274	0.636436729	0.636826585
0.873017348	0.881317361	0.01370757	0.170189717	0.175016914	0.697359544
0.12708515	0.826048978	0.144735048	0.574620887	0.119389572	0.603588933
0.047201678	0.871367721	0.875434514	0.656731619	0.164656909	0.168850529
0.084851857	0.868404253	0.082593919	0.664267066	0.162552653	0.675488461
0.123449737	0.121654201	0.098734609	0.613002999	0.611233987	0.614596084
0.855367385	0.06895116	0.071402335	0.149189789	0.64958828	0.629363438
0.867005261	0.087899243	0.866913129	0.162239022	0.619505152	0.159760615
0.405842972	0.877225565	0.480391764	0.532910926	0.170498256	0.575215311
0.218875852	0.825966223	0.218164328	0.581810021	0.118887169	0.60942019
0.054927746	0.054672143	0.055646549	0.689950032	0.69019268	0.690163303
0.08257126	0.868926552	0.093008831	0.656858013	0.16261171	0.670198348
0.825767384	0.287951538	0.299077547	0.11861666	0.613136034	0.583057076
0.842114456	0.124983244	0.103634618	0.135174614	0.623511697	0.598078202
0.480742173	0.401275453	0.877328109	0.590398325	0.548046172	0.17057511
0.864278264	0.864113093	0.863099726	0.219053553	0.219046536	0.219083148
0.075456727	0.075901943	0.854505935	0.649514086	0.629866157	0.149004852
0.877741196	0.470310238	0.419954703	0.170817211	0.559768603	0.520891807
0.448010366	0.432644668	0.877507585	0.591023398	0.558275076	0.170523365
0.869096709	0.083793387	0.074592733	0.162537573	0.670703083	0.659068624
0.862272122	0.843472731	0.133773637	0.155203488	0.148074726	0.567805847
0.881473379	4.89645E-06	4.83054E-06	0.175189444	0.699228808	0.699151568
0.439241911	0.443858505	0.877149289	0.591118655	0.561120831	0.170745563
0.877394964	0.480590565	0.405684464	0.170587039	0.575063836	0.532685029
0.084808012	0.869014877	0.100227675	0.654398242	0.162666558	0.667685505
0.054287185	0.876654064	0.88282229	0.690739402	0.170885026	0.175056237
0.32816319	0.344668265	0.825994857	0.611160098	0.581596507	0.118689763
0.825145341	0.242357705	0.238717364	0.11902358	0.605954475	0.580055128
0.877319607	0.438779083	0.444600314	0.170562986	0.608986944	0.578745807
0.872700498	0.873659801	0.055310408	0.165112901	0.168790317	0.654922211
0.065242485	0.872047284	0.875559301	0.652795571	0.164997967	0.169421915
0.844628113	0.141789822	0.860707593	0.149732831	0.564477705	0.153417782
0.866090173	0.081781225	0.867426412	0.161783902	0.621031444	0.159647009
0.44876458	0.43966587	0.877514442	0.55990939	0.527603103	0.170573327
0.080172026	0.084116702	0.868842554	0.67549407	0.663567847	0.162694116
0.825663178	0.199724655	0.204344735	0.118674323	0.610328145	0.58489984
0.013709485	0.876019271	0.883265208	0.697524905	0.170636552	0.175483011
0.882350852	0.054272382	0.875203863	0.174572643	0.69046839	0.170441742
0.0551055	0.054435727	0.055065873	0.69025641	0.690329775	0.690841458
0.084107425	0.868809933	0.093869058	0.655264106	0.162775008	0.668583405
0.480655805	0.405889775	0.877403348	0.575180316	0.532646725	0.170564573
0.04833504	0.041754094	0.073701814	0.677437379	0.677925863	0.679901669
0.102282715	0.841734483	0.083358078	0.605969907	0.1347946	0.631461267
0.103106842	0.099229959	0.841503273	0.627738978	0.602583965	0.1350373
0.87740073	0.480577243	0.405771181	0.170589223	0.57504227	0.532683274
0.065247909	0.871195003	0.875353225	0.652789274	0.164391834	0.16875955
0.877479851	0.448823585	0.439579552	0.170558043	0.559646109	0.527739542
0.147440257	0.860521746	0.845282293	0.562622901	0.152857437	0.150510157
0.071311014	0.065670887	0.085283147	0.669791866	0.670074541	0.670476392
0.111281709	0.110835851	0.167005512	0.618093153	0.618518644	0.618820895
0.877832549	0.462215248	0.415644719	0.170575831	0.626212706	0.589810172
0.841855737	0.125015396	0.103298378	0.135163028	0.623653183	0.59845966
0.092763708	0.099685593	0.841666319	0.629565829	0.604501084	0.134899945
0.4115826	0.877426818	0.470490643	0.551243786	0.170716844	0.590351645
0.863592008	0.856860678	0.130375294	0.155130341	0.157092945	0.586522666
0.866480979	0.866828055	0.104029275	0.158960233	0.162846627	0.615277975
0.868850525	0.078282029	0.081475294	0.162443901	0.677871748	0.665839477
0.514865515	0.52989646	0.877306326	0.561881688	0.532691892	0.170557908
0.877499188	0.469948685	0.411657475	0.170471484	0.590407701	0.55170851
0.327672747	0.346675886	0.825954318	0.613562497	0.58248053	0.118725301
0.877409926	0.469960675	0.415455634	0.170558109	0.575447145	0.536152943
0.454900061	0.436030891	0.877322489	0.609849262	0.576384394	0.170605849
0.877759674	0.45970897	0.429689598	0.170564528	0.559835664	0.52439803
0.876593532	0.882502218	0.013706047	0.170630963	0.174831678	0.697276938
0.87570541	0.88412623	0.027325507	0.171045402	0.175773015	0.695164669
0.040838383	0.875193991	0.884344655	0.692681503	0.170104414	0.175216385
0.401441084	0.877459048	0.481061203	0.548125175	0.170581222	0.590063685
0.881414832	4.89872E-06	4.84574E-06	0.175301579	0.6990163	0.699384886
0.099252654	0.841356554	0.102973369	0.602629861	0.135192179	0.627666099
0.877525416	0.473507493	0.404129459	0.170363962	0.625885611	0.585998356
0.448492029	0.877347519	0.444825811	0.578605178	0.170606642	0.608865785
0.100264894	0.841906617	0.113967677	0.600441723	0.135036617	0.625731687
0.877310464	0.480578509	0.405622508	0.170572116	0.575183243	0.532847607
0.877387938	0.436981665	0.444626648	0.170346175	0.591961613	0.562371331
0.877482363	0.877804461	0.877502741	0.170684086	0.170705424	0.170639249
0.076058891	0.87130338	0.8747538	0.650431822	0.164583618	0.168704455
0.083482923	0.083648584	0.083991365	0.632384462	0.632079136	0.632484906
0.459137491	0.425667998	0.877427467	0.575413199	0.539296415	0.17062074
0.077015687	0.867640368	0.865714093	0.623177609	0.159995226	0.161957991
0.041110746	0.040767234	0.881395356	0.692397788	0.692699994	0.175404011
0.878816664	0.878167016	0.877407371	0.171101524	0.170666974	0.170652812
0.865622672	0.076976631	0.867987662	0.161247367	0.623304899	0.160009752
0.862406712	0.864743012	0.86363717	0.219016324	0.2193147	0.219379851
0.845303317	0.13375778	0.862710327	0.148621732	0.567797617	0.155762942
0.211853905	0.209585909	0.825544576	0.609791558	0.582533426	0.118740033
0.869110103	0.083965593	0.074995704	0.162529446	0.670826606	0.659025249
0.459230342	0.429241589	0.876817529	0.559845438	0.524350699	0.170657701
0.084554521	0.868523303	0.081839919	0.664432458	0.162557639	0.675655362
0.469890545	0.41566552	0.877398953	0.575360045	0.536111207	0.170507365
0.11676275	0.86403301	0.8564654	0.590405409	0.156121165	0.156326781
0.425639487	0.877431987	0.459127129	0.539796321	0.170629824	0.575847446
0.866728522	0.864930227	0.077242472	0.159718721	0.160946677	0.623106045
0.824877605	0.24897005	0.249184949	0.118728274	0.60571937	0.580234361
0.028033465	0.02792934	0.882096056	0.695188908	0.695718148	0.175338294
0.091340618	0.074535686	0.855764743	0.645652886	0.625827086	0.149131429
0.825509713	0.146550127	0.129864321	0.11911134	0.602665612	0.573980711
0.066590128	0.052556849	0.081212549	0.673119437	0.67235553	0.673902545
0.855137326	0.065615538	0.078756029	0.14869511	0.653145149	0.63282971
0.48070756	0.405812942	0.877457475	0.575114547	0.532665416	0.170571386
0.864978727	0.856030024	0.111442786	0.156308758	0.154970181	0.592068803
0.877206115	0.493015976	0.499269605	0.170430416	0.560692761	0.531603969
0.854384384	0.116657736	0.864418592	0.155721546	0.590288267	0.15570097
0.878286891	0.878054461	0.877310726	0.171023772	0.170883496	0.170642691
0.846122673	0.147395168	0.861207126	0.150989363	0.562773478	0.153490583
5.4973E-06	0.877976987	0.885092703	0.699501806	0.170768486	0.176002143
0.872215579	0.873393374	0.046683556	0.16539865	0.168305368	0.658826761
0.141756593	0.860640478	0.846080077	0.564528406	0.153117591	0.14948136
0.041026591	0.041416128	0.041668136	0.69230202	0.692415315	0.692281809
0.054286623	0.875916751	0.883064627	0.690732712	0.170941677	0.175171967
0.860613196	0.844854185	0.137070712	0.154449957	0.149293524	0.566212933
0.248789624	0.252148968	0.825926189	0.61771058	0.587955876	0.118733446
0.214846572	0.213367451	0.826060444	0.607597101	0.580520379	0.118875175
0.123174562	0.862860971	0.856661518	0.588411364	0.155136253	0.156460934
0.860048092	0.846430239	0.153993505	0.152410957	0.151597802	0.560791868
0.32448836	0.339209255	0.825498475	0.615722703	0.5851602	0.118662762
0.426473741	0.877384978	0.463940417	0.572632899	0.17058199	0.60922274
0.459017154	0.422012184	0.877462591	0.590704796	0.555013521	0.170480131
0.877597847	0.470034736	0.411672217	0.17017503	0.59045982	0.55159337
0.877723791	0.484916195	0.393059707	0.170729165	0.625234413	0.582621808
0.129520267	0.826438662	0.139806265	0.576929578	0.118841107	0.60575658
0.066814617	0.052089216	0.080516664	0.672952448	0.672942936	0.674407083
0.171673217	0.091476055	0.182080225	0.615542287	0.616588748	0.616310133
0.111528931	0.864548581	0.855785361	0.592122136	0.156124432	0.155231693
0.106299964	0.082933044	0.855540195	0.643262136	0.623725507	0.149767127
0.872319144	0.875312992	0.075930973	0.165028613	0.169185764	0.650350777
0.87727436	0.447856146	0.432654839	0.170399809	0.590883027	0.558314243
0.845838379	0.147394481	0.86067648	0.150685418	0.562761438	0.153003555
0.85514118	0.091378763	0.074332899	0.149091477	0.645667268	0.625560266
5.49629E-06	0.876567076	0.884129501	0.699324233	0.171050819	0.175316844
0.85509971	0.066118658	0.078880854	0.148892241	0.652279838	0.63238022
0.027037492	0.074958867	0.07487728	0.67916125	0.680275954	0.679392759
0.123200672	0.863147436	0.856930142	0.588490577	0.155390626	0.156560428
0.876114312	0.884199931	0.054272712	0.170880251	0.176018012	0.690483741
0.87447465	0.874259817	0.873507012	0.188851888	0.189170909	0.188741064
0.874193535	0.047120604	0.871969097	0.168127158	0.656984177	0.164892338
0.870448517	0.874011217	0.065215229	0.164289554	0.168349657	0.652715198
0.841430445	0.11359487	0.100523589	0.135094122	0.625745778	0.600564216
0.426511903	0.876464417	0.449938025	0.592945786	0.170403973	0.626608083
0.080462481	0.209791654	0.207231049	0.620176036	0.620948441	0.624069045
0.473519307	0.404134585	0.877542338	0.625749759	0.586208071	0.170529307
0.081632503	0.86898302	0.092873675	0.65674057	0.162612877	0.670502193
0.875466586	0.055396177	0.870973062	0.16897138	0.654811727	0.164734169
0.859017038	0.845594439	0.147523793	0.152434786	0.150270892	0.562720382
0.01409775	0.014245594	0.881481451	0.696965319	0.69734365	0.17559501
0.826804675	0.190278623	0.197397709	0.119065427	0.610923555	0.578640268
0.50856012	0.526825957	0.877318781	0.561911766	0.533229337	0.170469386
0.083402676	0.08371894	0.08408627	0.632343559	0.632051255	0.632509068
0.459604766	0.429618133	0.877578655	0.559974032	0.524185781	0.170684953
0.876818407	0.883784235	0.027325977	0.171045986	0.175732353	0.695177943
0.877471638	0.450442483	0.427014318	0.170528144	0.626390545	0.593221375
0.84668841	0.153958266	0.859928254	0.151399971	0.560899197	0.152267286
0.882278002	0.054612378	0.054212961	0.175446382	0.69013858	0.690386638
0.877304299	0.484008446	0.399520389	0.170574117	0.608679052	0.566038056
0.401434132	0.877358562	0.487291948	0.564716722	0.170535848	0.607786492
0.401647168	0.877496676	0.480857573	0.548343027	0.169974863	0.589904759
0.419851399	0.87777043	0.470425456	0.521110167	0.170647693	0.559553702
0.443847077	0.449893877	0.877244466	0.608934005	0.578585594	0.170539961
0.87371661	0.049220543	0.872382861	0.168386482	0.658236562	0.165204294
0.877710622	0.462151676	0.415585373	0.170672753	0.626237499	0.589678234
0.435932191	0.877442382	0.448170776	0.542787641	0.170580298	0.575690144
0.458979975	0.425645339	0.877275314	0.575883039	0.539912239	0.170489483
0.055298965	0.871152944	0.874279447	0.654953917	0.164140671	0.168228533
0.84160841	0.083368834	0.10223398	0.134721986	0.631075137	0.605763946
0.448107874	0.432721738	0.877679881	0.591136804	0.558151595	0.170641899
0.40561872	0.877154199	0.480647538	0.532839693	0.170524322	0.575167609
0.055346441	0.871631816	0.874168751	0.654819456	0.164625903	0.168639435
0.473614116	0.404230351	0.87773322	0.625870133	0.586084134	0.170686566
0.847468765	0.845718306	0.846617186	0.256822806	0.256949793	0.256657472
0.875258575	0.065206123	0.872176465	0.168962104	0.652730499	0.164809499
0.871703248	0.874214232	0.065194583	0.1644458	0.167779685	0.652760936
0.860657412	0.846185635	0.147459794	0.152741283	0.150716636	0.562818621
0.013709082	0.876415668	0.882941289	0.697505881	0.170730565	0.175556743
0.422139147	0.877301474	0.459037079	0.555138302	0.170501382	0.590883103
0.825661591	0.137337338	0.127493128	0.119103669	0.605760846	0.577240655
0.881451365	0.027468995	0.027482858	0.175696998	0.69484698	0.695097396
0.413916407	0.877231702	0.474658272	0.569074248	0.170542188	0.608535538
0.414236655	0.877332197	0.474690991	0.569117621	0.170508126	0.608797184
0.86173027	0.862111229	0.863454278	0.219319305	0.218581647	0.219323637
0.053534378	0.051440844	0.056739183	0.654276719	0.654102011	0.654081962
0.825785924	0.297605527	0.307027657	0.118609645	0.612919053	0.584069366
0.448603168	0.877350457	0.444605511	0.578603542	0.170600589	0.608885036
0.083870419	0.075574443	0.853776496	0.647362458	0.627909741	0.148680457
0.884313606	5.49578E-06	0.876407994	0.175712104	0.699336314	0.171075695
0.07709527	0.86763451	0.865756387	0.62317714	0.159993598	0.161954254
0.847472819	0.845715531	0.84661758	0.256823325	0.256949629	0.25665876
0.437612687	0.445374089	0.877394167	0.592886103	0.563107427	0.170584012
0.404048891	0.877361597	0.473424902	0.586084709	0.170448997	0.625825879
0.027510849	0.028378699	0.027887454	0.694971479	0.694913037	0.695328152
0.427102932	0.877652701	0.450534902	0.593098381	0.170584047	0.626604068
0.083594367	0.076062034	0.855679154	0.648264878	0.627660366	0.149004008
0.881576193	0.054648101	0.054175725	0.175297502	0.690173475	0.690560551
0.863553869	0.856917761	0.130415018	0.154755784	0.156668338	0.586522166
0.856357632	0.123175493	0.863478813	0.156219717	0.588510922	0.155322907
0.013709754	0.875353176	0.884263043	0.697499213	0.170721855	0.175925131
0.842103768	0.12492906	0.103807468	0.13514978	0.623498493	0.598050906
0.095480869	0.866838645	0.866468048	0.617364131	0.159123501	0.162471588
0.325682259	0.332392598	0.825217908	0.615112594	0.587215975	0.118519722
0.41560638	0.877369115	0.46998845	0.535935227	0.170574539	0.575273818
0.419836077	0.877564468	0.4702375	0.521035297	0.170738443	0.559517655
0.074964378	0.074903752	0.075153611	0.634128747	0.634337126	0.634775238
0.095438637	0.332985936	0.280875681	0.622581238	0.62554836	0.621707919
0.435718185	0.877345514	0.454135687	0.576790568	0.170515469	0.610266889
0.072628204	0.065813476	0.086795996	0.670255236	0.670030147	0.671094397
0.877338556	0.437067186	0.446338978	0.170619364	0.575710847	0.546056539
0.067804115	0.067646819	0.067998616	0.636324818	0.636497704	0.636727433
0.309660155	0.825803322	0.299919242	0.586874496	0.118648508	0.612946056
0.100076	0.841880999	0.114041624	0.600709307	0.13502009	0.625958137
0.872251176	0.87453542	0.065209794	0.165190058	0.168849532	0.652686404
0.880675294	0.027575949	0.027478968	0.17517724	0.69484352	0.695213116
0.841700088	0.102991425	0.099212551	0.134954661	0.627846287	0.602862696
0.425534361	0.877419876	0.464176347	0.573575802	0.17057528	0.609853752
0.448665705	0.439486204	0.877221999	0.559742636	0.527680761	0.170415783
0.825643055	0.230438438	0.246137852	0.119027031	0.606517008	0.580224526
0.444741718	0.877472587	0.438350362	0.561943984	0.170630769	0.591664271
0.480576258	0.40118939	0.87709056	0.589956551	0.548234579	0.169993798
0.877377237	0.439282996	0.444482094	0.17055051	0.609379514	0.579245828
0.866357393	0.087761606	0.866833288	0.161621107	0.619721141	0.15946337
2.76877E-06	3.02782E-06	2.92097E-06	0.698917906	0.699212838	0.699351995
0.04558783	0.049252418	0.052416876	0.657711883	0.658219837	0.659061863
0.403954824	0.877161562	0.473318616	0.585984427	0.170464979	0.625704947
0.872325508	0.874347236	0.055313296	0.164534036	0.168310456	0.654976746
0.083553261	0.869195615	0.099038768	0.654621126	0.162550742	0.667813633
0.841316088	0.113530598	0.100535967	0.13517757	0.625446407	0.600405344
0.866732588	0.087907717	0.867782643	0.162085641	0.619336879	0.159782168
0.87551892	0.076046084	0.871465914	0.169434825	0.650485284	0.164732908
0.877997303	0.877325681	0.877422813	0.171088713	0.170672747	0.170696516
0.076035841	0.871116244	0.874927554	0.650484815	0.164505525	0.168624444
2.76727E-06	3.0085E-06	2.90954E-06	0.698898939	0.698985262	0.69953611
0.45913751	0.425668118	0.877427594	0.57541313	0.539296472	0.17062071
0.092577057	0.08015774	0.869094031	0.669534873	0.656663064	0.162689811
2.79769E-06	3.14473E-06	2.93566E-06	0.699159877	0.699451001	0.699222936
0.823037834	0.823608449	0.826058054	0.298756924	0.298699974	0.29874979
0.079932114	0.083922857	0.868829395	0.675501415	0.663572767	0.162699969
4.86204E-06	0.881242279	4.86118E-06	0.699202631	0.175399499	0.698919979
0.108069715	0.864487765	0.854270533	0.59367399	0.156676286	0.154465646
0.873735553	0.050326842	0.872061658	0.16774405	0.658649365	0.164950958
0.13717728	0.860350382	0.843758652	0.566278352	0.153574788	0.14846974
0.877713259	0.450560587	0.427137905	0.170740874	0.626365847	0.593024511
0.047246065	0.872263763	0.874406595	0.657233379	0.164646044	0.16805063
0.869095927	0.084098647	0.074979418	0.162524321	0.670905432	0.659023115
0.072225915	0.069985669	0.074123195	0.649518699	0.64987066	0.649603292
0.013709556	0.87556289	0.884141555	0.697489701	0.170667204	0.175830417
0.825216687	0.214442461	0.206990254	0.118757949	0.609489327	0.58365888
0.4550263	0.436277292	0.877343802	0.610006325	0.576428097	0.170563662
0.881322548	4.8956E-06	0.00000478	0.175258938	0.698865959	0.699379243
0.210755047	0.20677066	0.824871979	0.60636833	0.578018082	0.118669413
0.040838408	0.875193432	0.88435222	0.692682136	0.170102929	0.175215528
0.874029039	0.873026794	0.873213095	0.18859848	0.18846191	0.188501579
0.876627711	0.8827933	0.027327353	0.170866113	0.175267878	0.69518361
0.130499433	0.86231275	0.856230045	0.586500457	0.154736959	0.15672181
0.841822638	0.113666481	0.100249679	0.13518569	0.625903555	0.600425832
0.842076441	0.125116666	0.103468124	0.135176946	0.623472015	0.598054143
0.072707727	0.070082506	0.075207298	0.649656829	0.65014804	0.649766296
0.860389805	0.845867926	0.147467031	0.152739561	0.150630104	0.562789649
0.427259861	0.877958699	0.45068376	0.592941637	0.170689548	0.626471446
0.843974021	0.133717425	0.863482153	0.148718808	0.567819342	0.15583216
0.866916697	0.866934687	0.09545048	0.159386477	0.162577572	0.617395609
0.116724385	0.864424083	0.855869251	0.590346208	0.155684222	0.155812055
0.09271428	0.099669275	0.841626217	0.629635112	0.604575583	0.134903929
0.877313663	0.43713229	0.444232469	0.170349506	0.592000538	0.56233868
0.425435397	0.877278139	0.459163487	0.539648995	0.170572021	0.575665847
0.877846579	0.473666505	0.404292554	0.170582744	0.625847878	0.586174403
0.875176769	0.882691763	0.02732822	0.170507876	0.174782129	0.695214894
0.875813358	0.883104707	0.027326642	0.170520521	0.174893463	0.695188296
0.874417524	0.873946769	0.873012825	0.188794682	0.188609755	0.188390454
0.066196143	0.053029316	0.081556527	0.672960409	0.672635036	0.673777573
0.464844125	0.4243839	0.877392978	0.608082917	0.571489367	0.170513861
0.427085388	0.877608179	0.45050789	0.592964144	0.170670305	0.626474663
0.106192131	0.082252538	0.854459328	0.642346862	0.623606716	0.149267526
0.445107331	0.877545107	0.438409003	0.561968703	0.170506794	0.591657285
0.869118245	0.091790503	0.078638863	0.162645897	0.672963577	0.659520006
0.054626479	0.054239333	0.881952156	0.690096101	0.690113456	0.175439928
0.099313078	0.841074028	0.103022272	0.602478139	0.135079542	0.627527606
0.253410713	0.260795613	0.825832453	0.617398912	0.586057888	0.118954832
0.480900549	0.40156601	0.877789773	0.590143349	0.548245356	0.170677667
0.85546758	0.068937554	0.071403523	0.149114309	0.649713629	0.629362607
0.859527358	0.846658779	0.154010806	0.152430011	0.151603179	0.560794924
0.403998962	0.877280138	0.473392172	0.586180649	0.170447218	0.625910006
0.866744049	0.087872158	0.867813648	0.162043609	0.619387122	0.159607578
0.884343137	0.013704689	0.875025915	0.175993964	0.697244693	0.170968941
0.825198486	0.203560906	0.198148197	0.118699829	0.610671637	0.584936412
0.014233965	0.881706234	0.01404422	0.697393436	0.175124156	0.697119979
0.404222127	0.877712041	0.473601747	0.586135139	0.170439305	0.62582075
0.427063353	0.877560416	0.450482195	0.592876795	0.170794213	0.626504197
0.041152328	0.040883486	0.881927292	0.692374037	0.692700712	0.175336529
0.444848228	0.877564967	0.438485009	0.561623766	0.170760372	0.591261197
0.877707574	0.448893033	0.439739721	0.170749022	0.55971179	0.527758217
0.06095108	0.042216368	0.076970175	0.675151165	0.675367414	0.67735523
0.843605125	0.133744138	0.861242249	0.148037238	0.567809727	0.154988636
0.883107221	0.04084971	0.876470288	0.175157703	0.69285791	0.170964012
0.405870647	0.877353251	0.480570297	0.533009726	0.17052851	0.575365438
0.86155194	0.843637739	0.137132377	0.153827377	0.1482817	0.566287403
0.013780427	0.014396801	0.014108105	0.697190076	0.697526686	0.697261565
0.877385506	0.480740069	0.401413036	0.170240584	0.590185681	0.548030568
0.090863977	0.07846423	0.869091554	0.671345527	0.657423592	0.162546446
0.410096093	0.877383132	0.480809698	0.517727575	0.17062133	0.559385603
0.103993071	0.866626365	0.866956464	0.615409437	0.158972824	0.16281373
0.110798779	0.11085379	0.166251262	0.617483223	0.618945583	0.618649956
0.327453349	0.33530519	0.825209016	0.611992149	0.586231859	0.118689879
0.861898308	0.843581471	0.133805678	0.155143324	0.147981704	0.567705875
0.45918509	0.425646338	0.877479709	0.575421064	0.539336474	0.170586307
0.175629331	0.091155845	0.181362554	0.61237771	0.616140161	0.617202493
0.413069016	0.877445423	0.475859136	0.568260767	0.170573689	0.608115828
0.437772245	0.445766899	0.877750967	0.593068065	0.563454979	0.170675243
0.470294972	0.419778817	0.877558324	0.559556171	0.520986391	0.170611259
0.080513179	0.208890496	0.207805001	0.620070611	0.622272076	0.622820894
0.863991329	0.856359158	0.123030459	0.155288034	0.156108641	0.588329201
0.872488271	0.875178174	0.055303494	0.165037119	0.169058269	0.654871182
0.077092436	0.867498378	0.865439569	0.623263612	0.15997689	0.161773019
0.877348159	0.439401543	0.443839425	0.170584308	0.608375551	0.578253981
0.865757064	0.081853609	0.86661936	0.161774203	0.621293665	0.159569788
0.847144976	0.153998126	0.859385366	0.15176368	0.560816673	0.152450535
0.877700375	0.448002605	0.432918344	0.170607449	0.590960053	0.55821471
0.469828908	0.411663638	0.877422895	0.590859181	0.551632406	0.170728454
0.054269946	0.881241897	0.054603885	0.690909209	0.17529204	0.69017911
0.100205932	0.841796941	0.1137273	0.600666339	0.135015168	0.625718663
0.063186449	0.060072576	0.06527412	0.651768219	0.652024557	0.651607311
0.877620041	0.470326119	0.419811578	0.170902293	0.559713303	0.521017957
0.028291752	0.02824191	0.881815819	0.694603845	0.695015313	0.175417438
0.085187081	0.86879112	0.08183228	0.66309041	0.162443391	0.67529422
0.883282228	0.013703305	0.875639107	0.175354125	0.69718233	0.170241258
0.86748064	0.866452266	0.081547513	0.159615501	0.161709754	0.621402041
0.459125606	0.425718272	0.877473114	0.575502189	0.539364897	0.170593657
0.426570817	0.876581127	0.449996084	0.593089215	0.170372313	0.626510647
0.868931841	0.078177209	0.081728477	0.162596957	0.676771455	0.665075085
0.875443192	0.047113748	0.872192462	0.168249271	0.657019596	0.16497828
0.107891434	0.864608538	0.854639167	0.59363868	0.156518981	0.154648801
0.103581833	0.841748873	0.125028039	0.597843443	0.13529787	0.623307107
0.080278425	0.218021213	0.221413812	0.620294582	0.623231914	0.62742034
0.065255138	0.871203964	0.875537309	0.652742372	0.164413078	0.168778974
0.405842432	0.87731815	0.480559448	0.532639698	0.170647947	0.575120666
0.863563673	0.856650571	0.123106657	0.155273323	0.1564985	0.588646852
0.080215311	0.216914092	0.219496011	0.620290427	0.622943125	0.627419731
0.04789217	0.042483932	0.074084683	0.678067348	0.677589776	0.680429814
0.878249786	0.448412488	0.433050786	0.170899915	0.591072107	0.558522525
0.071264783	0.854969947	0.068828916	0.629444732	0.148913011	0.649935575
0.847041056	0.153997786	0.859601736	0.151780874	0.560818208	0.152466882
0.276689699	0.280953353	0.825747676	0.613625097	0.585563682	0.118549674
0.87775075	0.484937705	0.393063947	0.170780956	0.625253553	0.58268785
0.469742365	0.411606306	0.877286764	0.590622482	0.551623551	0.170005218
0.470058688	0.415613953	0.877433862	0.575352004	0.536095028	0.170552246
0.871707925	0.874244119	0.055321768	0.164395533	0.168082191	0.654910999
0.877413156	0.480527566	0.405649616	0.170578476	0.575337015	0.532948889
0.09127441	0.074506389	0.855474068	0.645623041	0.62543437	0.149157807
0.074188949	0.855866268	0.091154622	0.625828909	0.149449863	0.645864976
0.31938565	0.825763897	0.308809423	0.582803877	0.118737916	0.61207792
0.855053754	0.091401815	0.074346199	0.148937764	0.645663098	0.625620529
0.422136571	0.877533882	0.459295046	0.554584085	0.170534004	0.590400838
0.083742276	0.869361001	0.100959373	0.655862969	0.16271866	0.667144992
0.875745314	0.88383235	0.013706853	0.170387944	0.175588679	0.697340034
0.211691419	0.20681562	0.827006769	0.609427254	0.580656981	0.119230141
0.884419995	0.040849105	0.877039585	0.175286081	0.692882802	0.170773787
0.11152998	0.865186539	0.855008048	0.5922049	0.156214915	0.155243533
0.846759351	0.847145993	0.847610572	0.257211554	0.257282604	0.257600852
0.432776399	0.877361254	0.448070396	0.557954113	0.170411746	0.590303339
0.875867651	0.883745099	0.013707048	0.170410531	0.175595399	0.697350068
0.08344556	0.102228055	0.841750231	0.631294985	0.605909017	0.13470635
0.847316188	0.153959295	0.860736765	0.15158997	0.560904436	0.152321684
0.439383805	0.876976364	0.448511949	0.527781025	0.170647567	0.559747506
0.013707905	0.875322227	0.882671145	0.697446603	0.170392975	0.17506262
0.077630872	0.869166359	0.085923895	0.661228867	0.162585384	0.673568946
0.855637592	0.079878742	0.071531889	0.149290498	0.647695495	0.62773243
0.410294771	0.87765759	0.48090005	0.517598006	0.170542697	0.559341868
0.866167866	0.095737723	0.866186709	0.162236868	0.617763027	0.158785103
0.426065071	0.877486429	0.463972254	0.573222495	0.170579649	0.609720889
0.134948252	0.125952814	0.826879805	0.604141923	0.576304251	0.11905292
0.106391498	0.082485637	0.856147144	0.643155516	0.623761158	0.149347336
0.412092553	0.87754147	0.470046596	0.551770447	0.170578345	0.59052764
0.881302558	0.014448914	0.01417337	0.175559708	0.697489579	0.697757059
0.094021078	0.337747343	0.288138869	0.622373891	0.625301738	0.621868056
0.027487964	0.076982621	0.077005588	0.678735502	0.680100002	0.678537432
0.444799766	0.876469402	0.438003736	0.562838536	0.170073667	0.591939219
0.880587345	0.014321805	0.014290943	0.17532786	0.696426239	0.697222715
0.269467382	0.27687729	0.825599712	0.613939865	0.587304823	0.118600343
0.841689982	0.113839367	0.100128876	0.135035117	0.625761758	0.600544198
0.085912656	0.077482112	0.869207369	0.67275548	0.660611282	0.162532819
0.873698124	0.873653164	0.873823261	0.188616515	0.188470226	0.188501102
0.86911306	0.098346488	0.080965938	0.162742526	0.667574868	0.656052387
0.877188717	0.480726908	0.409996839	0.170453361	0.559508795	0.517433419
0.864226018	0.864123662	0.863084691	0.219584355	0.219788905	0.219267004
