Va	Vb	Vc	Ia	Ib	Ic
0.449329486	0.877418069	0.443671555	0.580395079	0.170539378	0.610550821
0.124886599	0.103000145	0.841694684	0.623862335	0.598737059	0.135271893
0.869120187	0.083280204	0.074129055	0.162519526	0.672913455	0.66119211
0.059533263	0.051629447	0.077287645	0.677893635	0.678321928	0.679362323
0.05534757	0.871724054	0.874239792	0.654868448	0.164620288	0.16809858
0.874060514	0.076030601	0.872202218	0.168331007	0.650633588	0.164621524
0.877365523	0.439817708	0.443834675	0.170640136	0.608898938	0.578708658
0.855996708	0.116701172	0.863868515	0.155709853	0.590314943	0.155811254
0.874625008	0.047016771	0.871956149	0.168431591	0.65957321	0.164868386
0.055311089	0.871175321	0.874737757	0.654906196	0.164964851	0.168847099
0.097832941	0.081105947	0.868928718	0.668127225	0.655545777	0.162596186
0.869156088	0.082275985	0.073013664	0.162582839	0.673287061	0.661512319
0.465135675	0.425008908	0.877390416	0.607585819	0.571143689	0.170636512
0.083466279	0.868853546	0.079775568	0.664400444	0.162506443	0.677102207
0.87252184	0.873819886	0.045811434	0.165149899	0.167843708	0.659423343
0.874288116	0.047914579	0.872398493	0.16820377	0.658439368	0.165103007
0.435157001	0.87741533	0.454951783	0.576034959	0.170539947	0.609800541
0.405815921	0.877373744	0.480707261	0.532946246	0.17064404	0.575205172
0.447827211	0.877337442	0.445475447	0.576832546	0.170639939	0.607131627
0.092684037	0.09966175	0.841780798	0.629725805	0.604808197	0.134930503
0.868860091	0.079756196	0.078039532	0.162609973	0.675668232	0.662636779
0.124860204	0.102844582	0.841775086	0.62397355	0.598667975	0.135268003
0.872610051	0.873993368	0.055324517	0.165191428	0.168270742	0.654771016
0.872629023	0.874719153	0.055335618	0.16549476	0.168474298	0.654627496
0.877312072	0.448106121	0.435796064	0.170546252	0.575780555	0.542819677
0.857054868	0.111460718	0.864500764	0.155329891	0.592142648	0.156381055
0.877786103	0.877907061	0.878755413	0.171275804	0.170628256	0.171200998
0.083387253	0.102177621	0.841450364	0.630950434	0.605787421	0.134868765
0.856674581	0.130470614	0.8621649	0.15669987	0.586495531	0.15476795
0.874498317	0.047905903	0.872598396	0.168398606	0.658370611	0.165352184
0.48670085	0.401796755	0.877430669	0.608188051	0.564926957	0.170582414
0.841433926	0.083302543	0.102307051	0.134900716	0.631581569	0.606215674
0.081435831	0.868977645	0.082903183	0.661670811	0.162573697	0.674539335
0.056498001	0.039443268	0.080807202	0.678350136	0.679400879	0.679593807
0.873946047	0.047884279	0.872856438	0.168080946	0.65846205	0.165039899
0.107624724	0.864800165	0.854672226	0.594025247	0.156517212	0.154534675
0.841115976	0.083328162	0.102327308	0.134842547	0.631485049	0.605957575
0.080732425	0.868888015	0.082631918	0.661685537	0.162555839	0.674450287
0.480614057	0.405848274	0.877357921	0.575329704	0.532989484	0.170538165
0.864754971	0.855680733	0.111437332	0.156397185	0.155355681	0.592140697
0.855258497	0.10772529	0.864990478	0.154310175	0.593856713	0.156522587
0.083928958	0.869078831	0.099848225	0.655287668	0.162731019	0.667931697
0.87176153	0.874051773	0.055324632	0.16464217	0.16769828	0.654819217
0.099826608	0.841722665	0.09274665	0.604259891	0.134889675	0.629436538
0.060011747	0.059982102	0.059992012	0.640186243	0.64011477	0.64022624
0.868856498	0.080119974	0.078429979	0.162611146	0.675662005	0.662635866
0.083367124	0.869103297	0.084492596	0.66159305	0.162591729	0.675919169
0.098484721	0.079450525	0.869167301	0.668244182	0.657180761	0.162690732
0.049162235	0.043170701	0.07831646	0.677099465	0.677211699	0.678820105
0.856496541	0.130435914	0.86267928	0.156302996	0.586440817	0.154687751
0.060035675	0.059978319	0.059990764	0.640154802	0.640211563	0.640231297
0.486317277	0.403050708	0.877368706	0.606071774	0.56360401	0.170531129
0.07603605	0.871027179	0.874967602	0.650478853	0.164545746	0.168768914
0.082933137	0.869172407	0.099661878	0.656722889	0.162578535	0.668643874
0.405908469	0.877420444	0.480698089	0.533008772	0.170629047	0.575314277
0.099607294	0.841898774	0.092809524	0.604326156	0.134810947	0.629650729
0.092752424	0.099730234	0.841517329	0.629556307	0.604129599	0.134846841
0.056153337	0.038047726	0.078648794	0.679332521	0.678874381	0.68044908
0.0995368	0.841598551	0.102944794	0.602175574	0.135011497	0.627554171
0.062510971	0.062535624	0.062717053	0.638416079	0.638404367	0.638578997
0.465134595	0.425009007	0.877389867	0.607585932	0.571143369	0.170636589
0.08358564	0.869070166	0.079795145	0.665285979	0.162521819	0.678388309
0.854993654	0.111426897	0.863937477	0.154639767	0.592141547	0.155988662
0.443623304	0.447856902	0.877387684	0.606966952	0.576820656	0.170565268
0.877338279	0.44809886	0.435811442	0.170535358	0.575891204	0.542966159
0.877327335	0.451078459	0.432124694	0.170591794	0.608657677	0.575071955
0.099031768	0.081688786	0.868881738	0.664858514	0.655582525	0.162790523
0.870939913	0.874863537	0.075988063	0.164040195	0.168361411	0.650531664
0.079968996	0.868904394	0.08851583	0.661570467	0.162613702	0.673425519
0.103012294	0.098908677	0.841740871	0.627766324	0.602645959	0.134945702
0.459111418	0.425711749	0.87738125	0.575431277	0.539298278	0.170548672
0.875245329	0.055342661	0.872246875	0.168562144	0.654980992	0.164756739
0.067643904	0.067713463	0.067962115	0.636851734	0.636515374	0.636843214
0.062464648	0.062513308	0.062658293	0.638552555	0.638477894	0.63879639
0.099749253	0.841547899	0.092772697	0.604285501	0.134870494	0.629340152
0.097967935	0.081293827	0.869210532	0.668129863	0.655798922	0.16260511
0.465145126	0.424915676	0.877386608	0.607658579	0.571133382	0.170616032
0.448144501	0.435888715	0.877360473	0.575765733	0.542807043	0.170539753
0.099592568	0.841279776	0.10290184	0.60239124	0.135045018	0.627465126
0.444558223	0.449460628	0.8774024	0.610415688	0.58023666	0.17058015
0.402155215	0.877276569	0.485822867	0.566485369	0.170474809	0.609262874
0.480563585	0.406066825	0.877443896	0.575251326	0.532824462	0.170617296
0.841376037	0.083352845	0.102207851	0.134792713	0.630918687	0.606004789
0.877420431	0.480641634	0.405614251	0.170489702	0.575073836	0.532633922
0.085872374	0.089040848	0.869211879	0.677500181	0.666105279	0.162500292
0.079682027	0.083155988	0.868784127	0.676241665	0.665347128	0.162601705
0.864326481	0.855598375	0.111463692	0.156054918	0.155059688	0.592166524
0.060059806	0.059984247	0.059944111	0.640407315	0.640155865	0.640366964
0.877386804	0.48061153	0.405689018	0.170530304	0.57490467	0.532449782
0.873673813	0.047511239	0.871510882	0.168476439	0.659553368	0.164740917
0.057285135	0.043364796	0.075030592	0.675714593	0.675254642	0.67810597
0.085631497	0.088861842	0.868875616	0.676547876	0.664357426	0.162476658
0.083269967	0.869100721	0.09982621	0.655243597	0.162729446	0.667987048
0.864476639	0.855996637	0.116709937	0.156363274	0.156185705	0.590277082
0.07889901	0.076493984	0.86896474	0.67397913	0.662094239	0.162623087
0.459123967	0.425666124	0.877359617	0.575601676	0.539514195	0.170592505
0.060044091	0.060006371	0.059933562	0.64072022	0.640265578	0.64041598
0.047434129	0.041857737	0.075211635	0.677373189	0.67678476	0.679515806
0.056368712	0.044788865	0.076471917	0.676020273	0.675164645	0.676074908
0.048886913	0.043058181	0.077965474	0.677279425	0.677233528	0.679045405
0.863372218	0.856907062	0.13043602	0.154817424	0.156780769	0.586472935
0.435886672	0.877212395	0.448043166	0.542803717	0.170497252	0.575411607
0.09938234	0.841434058	0.102985434	0.602247301	0.135004275	0.627577207
0.841870459	0.12513817	0.103073694	0.135284041	0.623616371	0.598277736
0.083466507	0.083597669	0.083878852	0.632127303	0.632203158	0.632251734
0.076012862	0.870986277	0.874964994	0.65046771	0.164140972	0.168835598
0.057269998	0.043246742	0.074739131	0.67571983	0.675198403	0.678057594
0.40584062	0.877268681	0.480602283	0.532788361	0.170565881	0.575182055
0.053904241	0.048716753	0.078465097	0.674650391	0.675631704	0.677733947
0.077134658	0.868796701	0.085123375	0.66214318	0.162695007	0.67313493
0.877313263	0.451296403	0.431958758	0.170566719	0.609349367	0.576254496
0.448121393	0.435902131	0.877345097	0.575775425	0.542809188	0.170533663
0.083849817	0.86902625	0.080298803	0.665100839	0.162516476	0.678302489
0.103012441	0.09902454	0.841728907	0.627987936	0.602734968	0.134926986
0.103011585	0.098718155	0.841635322	0.627720186	0.602672845	0.134984415
0.855674304	0.107805687	0.864270567	0.155050898	0.59391022	0.156728085
0.425708397	0.877387416	0.459134823	0.539516555	0.170624293	0.575670902
0.877338032	0.448098768	0.435811509	0.170535398	0.575891272	0.542966032
0.107737854	0.865146568	0.854682447	0.594030875	0.156517441	0.154526852
0.081071713	0.077523679	0.868723881	0.671898386	0.659819883	0.162668336
0.841783367	0.092653311	0.099654354	0.134838025	0.629598177	0.604431114
0.098662023	0.081282247	0.868961539	0.664370896	0.653881405	0.162768257
0.874180919	0.055340815	0.871906622	0.167769536	0.654825177	0.164732672
0.877331406	0.45901083	0.4255841	0.170584939	0.575589638	0.539618897
0.103067088	0.098941226	0.841772382	0.627759339	0.602664855	0.134950884
0.446308009	0.877219986	0.436983378	0.546010303	0.170570835	0.575559036
0.877503841	0.462916772	0.42035761	0.170539476	0.609003558	0.57255197
0.075982909	0.872769213	0.876316352	0.650447322	0.165065085	0.168962477
0.877404976	0.484890801	0.398690337	0.170588555	0.608505767	0.565490186
0.075966843	0.87180523	0.874877605	0.650559839	0.164450997	0.168951438
0.062450997	0.062522456	0.062556706	0.638423155	0.638373949	0.638691189
0.868804983	0.07901603	0.081434692	0.162415393	0.67883641	0.66728776
0.842031574	0.125109824	0.10343634	0.13530471	0.623508906	0.598247075
0.855480118	0.107786102	0.865047076	0.155211438	0.59390207	0.157078216
0.085029995	0.088296951	0.869060477	0.676579503	0.663876527	0.162381187
0.865183797	0.854700089	0.107747826	0.156785546	0.154508097	0.593868877
0.464902574	0.425403167	0.877407469	0.609122743	0.572989492	0.170630917
0.854705156	0.116722397	0.864318739	0.155776797	0.5902736	0.15602717
0.871278518	0.873722193	0.046750831	0.164960685	0.168075704	0.658904532
0.102186443	0.841582127	0.083444192	0.605919226	0.134679859	0.631344269
0.878035017	0.877683649	0.87794805	0.171238892	0.170612098	0.171215089
0.877366138	0.448097401	0.435860591	0.17054831	0.575781203	0.542832497
0.045199849	0.872876588	0.874634788	0.658529309	0.165093484	0.168242763
0.877357838	0.437088994	0.446337792	0.170555123	0.575711745	0.545994889
0.857732749	0.130386715	0.862598233	0.15768926	0.586446806	0.155663315
0.874342396	0.045628073	0.872293639	0.16844695	0.659370847	0.165372239
0.099785342	0.842094387	0.092810153	0.604183197	0.134812855	0.629972856
0.116777204	0.864006386	0.855105329	0.590196778	0.155916596	0.155982599
0.85714545	0.116697144	0.865425076	0.156692157	0.590404238	0.156679169
0.083365771	0.10217525	0.841540693	0.630940786	0.605972902	0.134870833
0.060067203	0.059999924	0.059944816	0.640189033	0.640318928	0.639652382
0.054469705	0.047066754	0.077485752	0.6755635	0.674701288	0.677072834
0.069597453	0.06579532	0.084186748	0.670019461	0.671345878	0.672387596
0.079164887	0.081963559	0.869037843	0.677178486	0.665340428	0.162596229
0.869000694	0.079292833	0.082171834	0.162455975	0.678216673	0.667088514
0.085359682	0.075369201	0.868963534	0.673752522	0.662551351	0.162523808
0.877405475	0.483916615	0.399613461	0.170592647	0.608622228	0.565802917
0.060021951	0.059992826	0.059997027	0.640255401	0.640142983	0.640249343
0.062529432	0.062523894	0.062677878	0.638425868	0.638452952	0.638561283
0.067608909	0.06770741	0.067927066	0.636679784	0.636370756	0.636906497
0.871713137	0.874308273	0.046028041	0.165047316	0.168339339	0.658667262
0.869188637	0.098296907	0.081173386	0.162716452	0.667910258	0.654721892
0.871839827	0.874584919	0.055360197	0.164778287	0.16833313	0.654816807
0.047999322	0.040129306	0.073287416	0.677669129	0.677308861	0.679474983
0.124623943	0.103110266	0.841512932	0.623923833	0.598398126	0.135290076
0.875733091	0.047822721	0.873127104	0.168398705	0.658388809	0.165064779
0.877296312	0.45096577	0.432197019	0.170593502	0.608611305	0.575039215
0.485827367	0.403501558	0.877389772	0.608536245	0.566046959	0.170589488
0.877307018	0.462103193	0.421118017	0.170528852	0.609046827	0.572430526
0.055337739	0.870215361	0.873310426	0.654865947	0.164340198	0.168337454
0.086763676	0.868953166	0.083474627	0.664934188	0.162568487	0.677583595
0.877343485	0.451286239	0.432037815	0.170548281	0.60891322	0.575366953
0.877450623	0.448194724	0.435834265	0.170609339	0.575757388	0.542790295
0.841734515	0.102830501	0.099192395	0.134962331	0.627989489	0.602573097
0.062552124	0.062498789	0.062591922	0.638343479	0.638381368	0.638596841
0.060072607	0.059981566	0.059977749	0.640713224	0.640332973	0.640344139
0.083418397	0.083658795	0.083964731	0.63238024	0.632196352	0.632557133
0.87743798	0.451110305	0.432217567	0.170585254	0.608895899	0.575274188
0.080785111	0.078241741	0.868578121	0.672299606	0.662559807	0.162588538
0.877287493	0.440824403	0.443058786	0.170619514	0.609489048	0.579321452
0.871109276	0.874590049	0.055362186	0.164804885	0.16837334	0.654781346
0.049315318	0.04297375	0.078238465	0.67703971	0.677179009	0.678595505
0.081376	0.084466986	0.869049706	0.678963541	0.66633866	0.162563457
0.0760253	0.871125817	0.875160668	0.6504417	0.164520874	0.168761706
0.402822264	0.877424388	0.485912711	0.566065066	0.170592332	0.608766558
0.841374438	0.083341166	0.102222276	0.134796708	0.630904739	0.606010429
0.877294531	0.458978635	0.425584856	0.170601805	0.57541742	0.539394415
0.436002528	0.877410711	0.448106929	0.542480349	0.170576078	0.575303327
0.405635027	0.87723572	0.480755576	0.532975596	0.170591292	0.575291864
0.877391916	0.458992913	0.425656377	0.170547233	0.575637894	0.539393396
0.062535832	0.062529103	0.062573034	0.638328329	0.638383518	0.638603903
0.083498092	0.083605975	0.083941892	0.632039374	0.632239397	0.632136282
0.872644731	0.873816728	0.047314488	0.164946891	0.168624469	0.656973079
0.862626416	0.855884989	0.130434295	0.154761328	0.156780489	0.58646511
0.869200984	0.082124587	0.072707024	0.162628915	0.673394478	0.661427325
0.454894507	0.435831378	0.877397356	0.610543317	0.576996547	0.170623002
0.107729602	0.865100555	0.854686731	0.594053464	0.156507003	0.154520088
0.447823286	0.877337124	0.445478619	0.576832754	0.170640006	0.607131605
0.877483898	0.462418357	0.420857193	0.170608633	0.609136071	0.572377304
0.402284277	0.877318232	0.486006724	0.566495294	0.170528523	0.609227868
0.877266997	0.437050273	0.446286091	0.170552838	0.575738639	0.546046258
0.87403914	0.047636054	0.871552133	0.168508681	0.659498116	0.164817378
0.877351532	0.451310619	0.4320132	0.170548409	0.60891374	0.575370051
0.103051899	0.098885717	0.841858078	0.627891298	0.602601099	0.134922316
0.877372445	0.480501608	0.405787773	0.170536215	0.574881832	0.532418042
0.083899018	0.869096917	0.085027479	0.662335282	0.162494785	0.676028961
0.868730976	0.078288851	0.076365046	0.162634856	0.675292358	0.66263438
0.446404721	0.87748538	0.437145791	0.546079596	0.17056378	0.575792973
0.405841809	0.877365389	0.480653142	0.532641817	0.170558996	0.575090126
0.082403747	0.869128689	0.099520494	0.656617502	0.162521233	0.668738227
0.045888827	0.042686029	0.074582823	0.677466732	0.677733661	0.678732976
0.060026543	0.060026915	0.060001608	0.640289013	0.640334544	0.640462887
0.877466727	0.459078657	0.425658073	0.170588716	0.57566391	0.539503497
0.077702026	0.86907944	0.085524758	0.659250937	0.162688112	0.672145449
0.875726708	0.076035975	0.871182851	0.169211497	0.650408964	0.164458193
0.855280517	0.107849612	0.865723723	0.155341269	0.593925935	0.157132029
0.059766738	0.052117457	0.077771489	0.677812236	0.678538954	0.67911107
0.422917859	0.877437238	0.466993394	0.571144773	0.170577792	0.608173349
0.116719473	0.863693304	0.856393476	0.590351984	0.15556484	0.15560986
0.877493961	0.459083152	0.425669215	0.170552482	0.575686189	0.539482916
0.425603387	0.877426058	0.459234217	0.5395079	0.170587068	0.57572576
0.045102137	0.872197546	0.874669555	0.658462017	0.165162451	0.168299059
0.076016567	0.870955696	0.875256737	0.650458426	0.164124553	0.168824303
0.84154225	0.102790384	0.098839368	0.134969123	0.627784124	0.602559701
0.877351821	0.451314896	0.432010287	0.170548594	0.608914704	0.575370182
0.487361118	0.401248407	0.87742455	0.607645028	0.564544745	0.170513131
0.083029305	0.868990027	0.084684358	0.662446892	0.162505823	0.675477918
0.480604102	0.405874628	0.877382437	0.575382047	0.533014484	0.170549782
0.058644327	0.051685972	0.077190588	0.679241078	0.67875973	0.679614436
0.083509938	0.869152525	0.085134612	0.661233114	0.162586354	0.675602311
0.872250553	0.873868893	0.045856279	0.165207395	0.167949034	0.659400678
0.075972975	0.87231981	0.874815882	0.650406568	0.165295216	0.169007514
0.092702863	0.099765069	0.8413498	0.629482374	0.604096185	0.134907948
0.079311577	0.082430981	0.869032364	0.677168278	0.665342162	0.162594148
0.854740188	0.116736313	0.864182124	0.156077957	0.590284426	0.156567942
0.450362025	0.877351397	0.443208907	0.580710595	0.170547374	0.610350604
0.060071962	0.060015137	0.059940909	0.640306852	0.640360239	0.640721971
0.841659584	0.102874358	0.09893786	0.134955226	0.627834237	0.602573163
0.083389043	0.102168453	0.841449323	0.630938062	0.605809319	0.134866024
0.047125054	0.870953756	0.874183214	0.656890223	0.164816625	0.168422449
0.0717575	0.065174719	0.086718684	0.670995582	0.670462036	0.671345734
0.435978246	0.877365436	0.448085511	0.542445648	0.170548926	0.575224451
0.841720445	0.124939853	0.103073357	0.135355795	0.624029695	0.598950289
0.116739251	0.86418444	0.856015539	0.590366551	0.155908963	0.155875036
0.864738505	0.855438275	0.107920738	0.156827517	0.154916723	0.593977539
0.092672284	0.099704509	0.841384012	0.629561158	0.604174398	0.134922979
0.44448109	0.449570578	0.877383335	0.610364707	0.580230441	0.17058534
0.060058593	0.059959639	0.059976191	0.640045945	0.640063454	0.640215014
0.877362989	0.440631279	0.443568304	0.170586198	0.609920824	0.579503227
0.871945948	0.874809948	0.04696689	0.164933791	0.168087137	0.658841175
0.083716372	0.083643593	0.08410654	0.632132124	0.632263128	0.632303808
0.060020901	0.060021459	0.05997607	0.640325221	0.640321738	0.640517066
0.116748665	0.863907121	0.855579655	0.590373413	0.155968599	0.155844583
0.872498857	0.874567915	0.055366519	0.165428967	0.168446888	0.654738439
0.86311754	0.856604272	0.130421793	0.15464127	0.156730831	0.586511975
0.059709234	0.051897235	0.077393516	0.678401953	0.678214489	0.679403043
0.424055765	0.877312217	0.465834621	0.571923532	0.170508376	0.608764358
0.059789834	0.051951992	0.077620877	0.6786264	0.67823983	0.679497049
0.057373206	0.043383895	0.075092751	0.675718776	0.675215724	0.678121338
0.060076087	0.060012109	0.059941644	0.640303427	0.64036502	0.640723886
0.083350515	0.083734865	0.083926289	0.631919577	0.632106052	0.632418283
0.435981804	0.877377361	0.448097143	0.542470125	0.170586927	0.575300662
0.102307287	0.8418895	0.083385997	0.605972174	0.134740328	0.631458283
0.869225008	0.082606318	0.073316107	0.162586949	0.673043005	0.661101274
0.446326816	0.877379072	0.437118064	0.546063389	0.170520954	0.575762013
0.480706147	0.405776545	0.877377287	0.575261143	0.532862948	0.170584668
0.877405116	0.484877475	0.398790013	0.170577225	0.608610584	0.565583652
0.083723405	0.86910374	0.099999834	0.655258216	0.162728406	0.66798253
0.070148654	0.066192163	0.084871465	0.66998362	0.671132941	0.672139227
0.067627161	0.067706359	0.067970346	0.636795274	0.636433085	0.636901577
0.062493761	0.062537239	0.0626552	0.638410321	0.638415266	0.63874731
0.086351905	0.089921584	0.869337617	0.678430764	0.666804372	0.162501477
0.403098645	0.877355896	0.485299519	0.563959522	0.17055158	0.606536405
0.877427384	0.483615466	0.399999451	0.170574319	0.608758786	0.565929075
0.443956668	0.448095925	0.877411355	0.607093291	0.577131232	0.170568608
0.07990003	0.076709549	0.868798606	0.676268038	0.66495736	0.162552463
0.45415636	0.436643999	0.877395269	0.61005604	0.576729269	0.170557616
0.405871864	0.877399113	0.480699252	0.53299733	0.170645306	0.575315356
0.060085906	0.060007444	0.059943777	0.63942271	0.640250073	0.639638908
0.877438687	0.451532464	0.43212474	0.170580386	0.608931355	0.575372326
0.099511054	0.84172042	0.102959521	0.602247175	0.13503767	0.627561004
0.425730781	0.877407443	0.459132029	0.539528952	0.170616725	0.575694605
0.446348127	0.877387094	0.437104109	0.546121569	0.170553465	0.575790192
0.872638043	0.875415548	0.075955917	0.165061717	0.169195225	0.650592618
0.054618057	0.036933322	0.076065923	0.679708507	0.679457352	0.682504746
0.103005701	0.098978046	0.841773473	0.62800127	0.602739481	0.134930946
0.103878687	0.841603824	0.124981764	0.597997309	0.135380874	0.623053869
0.480552007	0.405926935	0.877353791	0.575274633	0.532981963	0.17056202
0.4451674	0.448309115	0.877384541	0.610368388	0.580058267	0.170549023
0.437062427	0.446317125	0.877309001	0.575731096	0.546081961	0.170611659
0.048086209	0.040289406	0.073564995	0.677608892	0.677237371	0.679527607
0.465952669	0.423963848	0.877272828	0.607006088	0.57056911	0.170550432
0.877399436	0.437116861	0.446349979	0.170596297	0.575756045	0.546060776
0.084514019	0.869117398	0.080603981	0.665628298	0.162475488	0.678209948
0.856320914	0.111448331	0.864406368	0.155138105	0.592181317	0.156110166
0.877318537	0.450783563	0.432537456	0.170531274	0.608468456	0.575175825
0.083379458	0.102219856	0.841454939	0.631083831	0.605775412	0.13474453
0.869115192	0.098678458	0.081231719	0.162636907	0.667320453	0.655529518
0.486687827	0.402384884	0.877502286	0.608543885	0.565792086	0.170608982
0.875122281	0.045994805	0.8721332	0.168489432	0.659577901	0.165059571
0.855753079	0.111459739	0.86543082	0.155602902	0.592208564	0.156686719
0.124869712	0.102973018	0.841704242	0.623690916	0.598752061	0.135274699
0.44808673	0.435848829	0.877309782	0.575936961	0.543043649	0.170512149
0.081069715	0.077884821	0.868509281	0.671443051	0.662105545	0.162595912
0.874067657	0.076028364	0.872220256	0.169109343	0.650554388	0.165562219
0.841582572	0.102981595	0.099040889	0.134968097	0.62813873	0.602692126
0.083549355	0.869052788	0.079509831	0.665177053	0.162514513	0.678357584
0.056017717	0.037514967	0.077959791	0.679774379	0.679115216	0.681872712
0.435610373	0.877329889	0.454796432	0.576936884	0.170555743	0.610558303
0.067713071	0.067703375	0.067949438	0.636399444	0.636477702	0.636444809
0.083623797	0.083847546	0.08409728	0.632170405	0.63236929	0.632702877
0.054397343	0.047381002	0.077862689	0.675111812	0.674198768	0.674805776
0.405878651	0.877310599	0.480608343	0.532986563	0.170584872	0.575348692
0.84163324	0.083404006	0.102261415	0.134765899	0.631111522	0.605856821
0.055334385	0.872239626	0.874312951	0.654901313	0.164570805	0.167983755
0.855579608	0.111448906	0.864503902	0.155299013	0.5921675	0.156470909
0.083112739	0.074353988	0.86908118	0.673217981	0.660802784	0.16254121
0.425677646	0.877404653	0.459150618	0.539526473	0.170619775	0.575679422
0.877292196	0.437074537	0.446286944	0.170561748	0.575714272	0.546051579
0.877404314	0.480530603	0.40573195	0.170485651	0.575172163	0.532785533
0.86473563	0.856278279	0.111459755	0.156111289	0.15497551	0.592079442
0.061084855	0.051975615	0.079008694	0.678588601	0.679898413	0.678615905
0.857721901	0.130397043	0.862628575	0.157638183	0.586420381	0.155634975
0.062528481	0.062488047	0.062637753	0.638371773	0.638415439	0.638550603
0.877355156	0.451178676	0.432150868	0.170571649	0.609638263	0.576522182
0.045003586	0.872151773	0.875141353	0.659003965	0.165024022	0.168763814
0.4233187	0.877358015	0.466416338	0.571058809	0.170572264	0.608079612
0.08574963	0.076094195	0.868828854	0.67377922	0.662262462	0.162550209
0.405865456	0.877436386	0.48073772	0.53300663	0.170608973	0.575326946
0.082755051	0.868992732	0.084447193	0.662424829	0.162516592	0.675370353
0.102915886	0.098794104	0.841712421	0.627976964	0.602757318	0.134904384
0.869213194	0.082218764	0.074019763	0.162597856	0.673348265	0.66091678
0.435979596	0.877375314	0.448083178	0.542450242	0.170538388	0.575227341
0.450031657	0.877433317	0.442922572	0.579739449	0.170546361	0.61006453
0.85626752	0.111450217	0.864378317	0.15516605	0.592216972	0.156167473
0.444553499	0.449725143	0.877434249	0.61039835	0.580108858	0.170554916
0.402144206	0.877269808	0.48596895	0.56648788	0.17047794	0.60924473
0.082522898	0.86900452	0.084329779	0.660683169	0.162521435	0.672674623
0.083537896	0.083682898	0.084025749	0.632304921	0.632301147	0.6326909
0.06249475	0.06251992	0.062609181	0.638682548	0.638420457	0.638856856
0.130413959	0.863541933	0.85777534	0.586499812	0.154905392	0.157009071
0.423926367	0.877308743	0.466048852	0.571952756	0.170490237	0.608766032
0.12475754	0.10273922	0.841712011	0.623906599	0.598734062	0.135251578
0.06253699	0.062520448	0.062753679	0.638645638	0.638104898	0.638484147
0.877400987	0.448115504	0.435878163	0.170539636	0.575800215	0.542843371
0.868654335	0.07451835	0.077045679	0.162488613	0.674393643	0.664051104
0.453851798	0.436917605	0.877390666	0.608872422	0.575778262	0.170573522
0.111450531	0.864567277	0.856208083	0.592106619	0.156403166	0.155581092
0.405872034	0.877399017	0.480699225	0.532997298	0.170645149	0.575315402
0.864126089	0.855957628	0.111385383	0.156226343	0.155420191	0.592156787
0.08187048	0.86903007	0.100047162	0.656703227	0.162570947	0.668611462
0.047928652	0.040330683	0.073446315	0.677594631	0.677188963	0.679529925
0.444594967	0.449301811	0.877310903	0.60985082	0.579931837	0.170606964
0.864297789	0.855470148	0.116707232	0.156475532	0.156244169	0.590292581
0.080782789	0.07764629	0.868665385	0.676369849	0.664109733	0.16258957
0.877430642	0.440883804	0.443505773	0.170616247	0.609816306	0.579495385
0.130443693	0.862649393	0.856712004	0.586482404	0.154700361	0.1568857
0.877399573	0.462253834	0.421114689	0.170538878	0.608438901	0.57183885
0.070097709	0.065008385	0.08441902	0.670700698	0.671065098	0.672553383
0.841659868	0.103046993	0.099006822	0.134964992	0.627686518	0.602557159
0.858173967	0.130474943	0.862962655	0.156795313	0.586507045	0.154678023
0.877421741	0.462437126	0.420884481	0.170655284	0.609009938	0.572317319
0.877391712	0.48373028	0.399714806	0.170597757	0.608675142	0.565825402
0.448167342	0.435814012	0.877311173	0.575671636	0.54275363	0.170569216
0.067571249	0.067666416	0.067827242	0.636425443	0.636415972	0.636710714
0.877327544	0.450826242	0.432474915	0.170545099	0.608391022	0.574993028
0.067575707	0.067717016	0.067744425	0.63652077	0.636761349	0.636839107
0.116732132	0.864041017	0.857122262	0.590214442	0.155921888	0.155935565
0.855219198	0.116674464	0.86279971	0.155315924	0.59036494	0.155400489
0.841658006	0.092631303	0.099730206	0.134882734	0.629792549	0.604407898
0.099321184	0.84170752	0.103105642	0.602462546	0.135066949	0.627837231
0.877345031	0.45128778	0.431946777	0.170540062	0.608889606	0.575367837
0.085511123	0.08877589	0.869015502	0.676568138	0.664123905	0.162418481
0.877440361	0.459055769	0.425595846	0.170601512	0.575666356	0.539493911
0.062495479	0.062487977	0.062604299	0.638431872	0.638377966	0.638635043
0.869140524	0.082043322	0.072598182	0.162541513	0.673296927	0.661513608
0.081992494	0.86901251	0.099275245	0.655365739	0.1627373	0.667824396
0.447959531	0.877315558	0.444277373	0.578513528	0.170563201	0.608838133
0.864463198	0.856021032	0.116710413	0.156389773	0.156203006	0.590263784
0.082896262	0.086376736	0.868974568	0.676930307	0.663649041	0.162435436
0.076031096	0.871495193	0.874797136	0.650516548	0.164518343	0.168670556
0.480790293	0.405694525	0.877398893	0.575307158	0.53291793	0.170513311
0.46504504	0.425245561	0.87724529	0.610267669	0.574017165	0.170595545
0.877401865	0.480603788	0.405643936	0.170539084	0.574786584	0.532392639
0.877361101	0.448094131	0.435873745	0.170567877	0.575585799	0.542727388
0.854584698	0.107727086	0.864990355	0.155109504	0.593850847	0.156730631
0.062476848	0.062486354	0.062618872	0.638428594	0.638375178	0.638630681
0.448105427	0.435852245	0.877340092	0.57598534	0.543084646	0.170516455
0.871647356	0.875347689	0.055357885	0.164825047	0.168414945	0.654847823
0.435637065	0.877328977	0.454775959	0.576934822	0.170555837	0.610559072
0.871848314	0.875892694	0.0553428	0.164603277	0.168254391	0.654941358
0.459147845	0.425675016	0.877359212	0.575601254	0.539513787	0.170593148
0.099814429	0.841736271	0.092745467	0.604261908	0.134900036	0.629469986
0.103713773	0.841609864	0.124985212	0.598130507	0.135356236	0.623023473
0.871771672	0.874875868	0.055383815	0.164961919	0.168641497	0.655015116
0.098342735	0.081592387	0.868722932	0.667314683	0.654353459	0.162696174
0.446370689	0.877418035	0.437114523	0.546126029	0.170571947	0.575800729
0.124986075	0.103363123	0.841553191	0.62327552	0.598442783	0.135366173
0.872317978	0.874375761	0.045846927	0.165666165	0.168311728	0.659104768
0.87175534	0.875464565	0.075959993	0.164960724	0.168947833	0.650652172
0.459143902	0.425646296	0.877353641	0.575446068	0.539286117	0.170534486
0.448099024	0.435863972	0.877350616	0.575773437	0.542800142	0.170577705
0.42332358	0.877357719	0.466416119	0.571058635	0.170571948	0.608079945
0.871964496	0.874449691	0.075944295	0.164617387	0.168512089	0.650454903
0.874059334	0.055344159	0.871082829	0.167892451	0.654874022	0.164725629
0.877712058	0.877478196	0.878024214	0.170917858	0.170748385	0.17099888
0.111404135	0.864863942	0.85513188	0.592141993	0.155954155	0.154938263
0.070770365	0.065496971	0.084756749	0.669781014	0.670747516	0.671450677
0.435993819	0.87742719	0.448134585	0.542518523	0.170586388	0.575368041
0.877420496	0.485437227	0.398236227	0.170578192	0.608573548	0.565560755
0.448108349	0.435830645	0.877334083	0.575970491	0.543079828	0.170507137
0.874365945	0.047132117	0.872073159	0.168134235	0.657121625	0.165002796
0.43701699	0.446298439	0.877246502	0.575731125	0.54606651	0.170600324
0.487119523	0.401511583	0.877397496	0.607637847	0.564512133	0.170566772
0.443622973	0.447732875	0.87729526	0.607156723	0.576805955	0.17058311
0.067682196	0.067705727	0.067984905	0.636567515	0.636453934	0.636911729
0.870891149	0.873250579	0.047226255	0.16469438	0.168243044	0.656931026
0.43594692	0.877356377	0.448098602	0.54270793	0.170571149	0.575486161
0.049374795	0.042948613	0.078282689	0.677039283	0.677171067	0.678563662
0.070515417	0.065985342	0.085396805	0.669248512	0.671207604	0.671722959
0.053493225	0.047525944	0.07678462	0.673802095	0.675295925	0.675341427
0.061814257	0.052440437	0.080029412	0.679406784	0.679097668	0.678397515
0.841407785	0.102917595	0.098942733	0.13499534	0.627743246	0.602475263
0.124547908	0.103292046	0.841396137	0.623748825	0.598411409	0.135370889
0.872438565	0.874091081	0.047245991	0.164720631	0.168182301	0.656993323
0.130467112	0.862714818	0.857261696	0.586407924	0.154718272	0.156950144
0.873686547	0.055342553	0.870430347	0.167782964	0.654865029	0.164716347
0.107529684	0.865463923	0.854954596	0.593841527	0.156683813	0.154747116
0.87069365	0.87413673	0.055371969	0.164614018	0.168789142	0.654868979
0.107574992	0.865684286	0.855724812	0.59395936	0.156890862	0.155005689
0.877299021	0.450874934	0.432302711	0.170584656	0.608518298	0.574992504
0.080163179	0.077628093	0.868754644	0.673469918	0.662733967	0.162620722
0.055800412	0.037263056	0.077512621	0.679786149	0.679249303	0.682303357
0.047336281	0.872503705	0.874159643	0.656822953	0.16488862	0.168194584
0.435968299	0.877353538	0.448057386	0.543035977	0.170637541	0.575648272
0.047271972	0.872387445	0.8749273	0.656851086	0.165403457	0.168609867
0.85556698	0.111426512	0.863921755	0.15505525	0.592113718	0.156198326
0.841766141	0.124989934	0.103191593	0.135272978	0.623799419	0.59897759
0.857758995	0.130477021	0.862947965	0.156928667	0.586573166	0.154895353
0.46602298	0.423749461	0.877421176	0.609261408	0.572317502	0.170628987
0.84174994	0.092637904	0.099750885	0.134874739	0.629726364	0.60432047
0.46513554	0.425008922	0.877390348	0.607585833	0.571143649	0.170636521
0.871241025	0.874699816	0.04715586	0.164731235	0.168359519	0.657091367
0.425170474	0.877425943	0.465501562	0.572607602	0.17062544	0.60920577
0.077981411	0.868822234	0.08529341	0.662250461	0.162698939	0.673420021
0.402428207	0.877396553	0.486270166	0.565970269	0.17057753	0.608750467
0.092684018	0.099685035	0.841452796	0.629517952	0.60473293	0.134978875
0.486873708	0.402308336	0.877330584	0.608792348	0.566010588	0.170615934
0.103829959	0.84180487	0.124941297	0.598149397	0.135400098	0.623122034
0.111438977	0.864682793	0.855861713	0.592117996	0.156308378	0.155250414
0.841751385	0.125217353	0.103306772	0.135303816	0.623726917	0.598467438
0.092768319	0.099776023	0.84146472	0.629499618	0.604325396	0.134925203
0.062572888	0.062512775	0.062581369	0.638705559	0.638731544	0.638517172
0.047428866	0.042981881	0.076445671	0.677452111	0.677258237	0.679016609
0.877508044	0.461729996	0.421576135	0.170548525	0.608540514	0.572065159
0.054781531	0.046794537	0.077474578	0.675557134	0.674568327	0.676997666
0.102262865	0.841732787	0.083390602	0.605943898	0.13470994	0.631429677
0.062445916	0.062520098	0.062535506	0.638535161	0.638529962	0.638619934
0.435932409	0.877254401	0.44803262	0.542616652	0.170485196	0.575291894
0.054902756	0.047026739	0.078005597	0.67558956	0.674317832	0.676451304
0.097619905	0.080320673	0.869150741	0.668200053	0.655792879	0.162607422
0.87741752	0.484103662	0.399487734	0.170571178	0.608656685	0.565810981
0.060075238	0.059979334	0.059977797	0.639712503	0.640459459	0.639825345
0.062504782	0.062546911	0.062667188	0.638936339	0.638592089	0.638675127
0.454837452	0.435574942	0.877340388	0.608423718	0.574722929	0.17060621
0.402615209	0.877384797	0.485911488	0.566048866	0.170601059	0.608763935
0.876149026	0.076037266	0.87112426	0.169159711	0.650399772	0.164349589
0.061530191	0.052312479	0.079486426	0.679416567	0.67918601	0.678461916
0.871640402	0.874957597	0.075993474	0.164501417	0.168811548	0.650366684
0.877407691	0.448102097	0.435876053	0.170591165	0.575792738	0.542853829
0.855673651	0.107805051	0.864271954	0.155050683	0.593910184	0.1567277
0.055180235	0.04664283	0.077529082	0.675551948	0.675003963	0.67716573
0.056777985	0.044919336	0.076981812	0.676141882	0.674896076	0.676241817
0.048079803	0.04063527	0.07399079	0.677550059	0.676904197	0.679373701
0.868828528	0.074244595	0.077416326	0.162642894	0.675465146	0.662717495
0.871998586	0.874993146	0.045762029	0.16537191	0.168711679	0.6587132
0.873510217	0.04716027	0.870713782	0.168238179	0.656975745	0.164542432
0.057673079	0.044277667	0.076913623	0.675375857	0.6747622	0.676620837
0.877304032	0.485035246	0.398336117	0.170586219	0.608614075	0.565584514
0.864274312	0.855784502	0.116650392	0.155494072	0.155516815	0.590354231
0.067560989	0.067642856	0.067830232	0.636860141	0.636427754	0.63706854
0.863829292	0.856041409	0.11667824	0.155463514	0.155551656	0.59027053
0.111484737	0.863833541	0.855824531	0.592143257	0.156418542	0.155479082
0.078801626	0.868912665	0.086566206	0.659563187	0.162697662	0.672309593
0.480427052	0.406047429	0.877407098	0.575015582	0.532490297	0.170611108
0.868607773	0.078157687	0.081669354	0.162428429	0.678865042	0.667235861
0.425660785	0.877441587	0.459244415	0.539457469	0.170597702	0.575541945
0.0442841	0.871767067	0.874490195	0.658873031	0.164777599	0.168548438
0.437057592	0.446341603	0.877331774	0.575737655	0.546073483	0.170631771
0.056146497	0.044523968	0.075683066	0.675779942	0.674525897	0.676363293
0.081538263	0.868928934	0.100124597	0.656602749	0.162561872	0.668566673
0.085786168	0.075986818	0.869036668	0.673753766	0.662640342	0.162539561
0.067744188	0.06770792	0.06799831	0.636735335	0.636348926	0.636556257
0.083441086	0.086781002	0.869064679	0.676725979	0.663697006	0.162383111
0.047402662	0.043179324	0.076646443	0.677306757	0.677278572	0.678893488
0.465285127	0.425066401	0.877475012	0.607853897	0.571653236	0.170639658
0.480695816	0.405726126	0.87731251	0.575286208	0.532888511	0.170521803
0.455204459	0.43551481	0.877445692	0.610129717	0.576763843	0.170594322
0.863657086	0.856293219	0.116675488	0.155244605	0.155407293	0.590278422
0.070399014	0.066349342	0.085761525	0.669270623	0.671123492	0.671509679
0.444299975	0.447257929	0.87730092	0.608005024	0.577342602	0.170599101
0.060271598	0.052001483	0.078412752	0.678033076	0.678831008	0.678792136
0.872758861	0.874352573	0.047288657	0.165207611	0.168760377	0.656973285
0.425662033	0.877387592	0.459135963	0.539374658	0.170563852	0.57546536
0.465650928	0.42478058	0.877502921	0.608266428	0.572109893	0.170625537
0.047237103	0.872459359	0.874437024	0.656817587	0.165363082	0.168582503
0.855802279	0.116670642	0.863599139	0.155296021	0.5903731	0.155401865
0.098571929	0.082171211	0.868692941	0.667904709	0.655125252	0.162662977
0.435611485	0.877329798	0.454795454	0.576936758	0.170555757	0.610558358
0.060092409	0.060001003	0.059951053	0.639351208	0.640281091	0.63980473
0.083381316	0.102159109	0.841339412	0.631215658	0.606040908	0.134831965
0.05531823	0.872761864	0.874260209	0.654920953	0.164859592	0.168464984
0.0793569	0.082083222	0.868809866	0.676346084	0.665391005	0.162604379
0.083377307	0.102206804	0.841363338	0.630975507	0.605773216	0.134762146
0.083245499	0.869075735	0.101149069	0.656667083	0.162555459	0.668516934
0.873528764	0.076019031	0.872150683	0.169053906	0.650553128	0.165428575
0.130394815	0.862780618	0.857013078	0.586458035	0.154904332	0.156974114
0.871997847	0.874717937	0.047474401	0.165064619	0.168172486	0.658611744
0.877357842	0.437088982	0.446337811	0.17055515	0.575711698	0.545994893
0.085194287	0.076461606	0.868902749	0.67364442	0.662740545	0.162595814
0.873290599	0.047155275	0.870727744	0.168068462	0.656985663	0.164625466
0.874596772	0.047622288	0.871984039	0.168410138	0.659380385	0.164928828
0.046966742	0.044613521	0.078060913	0.677200809	0.676853922	0.678156408
0.864714007	0.855724337	0.111413808	0.156282739	0.155458898	0.592160088
0.877436481	0.480628637	0.405674004	0.170534086	0.574915413	0.532489253
0.841712953	0.10288747	0.099246773	0.13500285	0.627906086	0.602521215
0.872598338	0.874615624	0.047324586	0.164900863	0.16896084	0.656873499
0.877367229	0.459049035	0.425560123	0.170557656	0.57561687	0.539469241
0.871241829	0.874699603	0.047155902	0.164731334	0.168359724	0.657091466
0.076032121	0.870471525	0.874236051	0.650524976	0.164503639	0.168756357
0.465110642	0.425011105	0.877381285	0.607586504	0.571137267	0.170637373
0.841684507	0.0927065	0.099726259	0.134795058	0.629515578	0.604297583
0.130393283	0.863671613	0.856959874	0.586381228	0.155389608	0.157225102
0.047847239	0.040978467	0.074165216	0.677539547	0.676845488	0.678942403
0.874787742	0.04706205	0.871652188	0.168431411	0.659573435	0.164861051
0.877363232	0.484700348	0.398881511	0.170553087	0.608539814	0.565637593
0.872705968	0.874545612	0.047325209	0.164889131	0.168960955	0.656872108
0.437066213	0.446358219	0.877356737	0.575741715	0.546084567	0.170606236
0.1114341	0.863992504	0.855674155	0.592118115	0.155712686	0.15505752
0.863294104	0.857132666	0.130349423	0.154569962	0.15676521	0.586343499
0.856326356	0.111373468	0.864334633	0.155943195	0.592195771	0.156770422
0.062599292	0.062486539	0.06257008	0.638215185	0.638606394	0.638491902
0.864584015	0.856822972	0.11669538	0.156376091	0.156429673	0.590391523
0.130464299	0.862671946	0.857440831	0.586392205	0.154693152	0.156939956
0.083765913	0.083639927	0.084036433	0.632093267	0.632301077	0.632502882
0.868793725	0.079153835	0.07757689	0.162612508	0.675477288	0.662824103
0.082028691	0.868995356	0.099323672	0.65545177	0.162721441	0.667771142
0.099711443	0.841559975	0.092708324	0.604219343	0.134814837	0.629343245
0.87286687	0.873874212	0.055325323	0.164721425	0.167827287	0.654829354
0.072400988	0.064889647	0.087272056	0.67078313	0.67023274	0.671815055
0.868994391	0.079119698	0.082084587	0.162452497	0.678287537	0.667132619
0.871960235	0.874186444	0.047725969	0.164938027	0.168191001	0.658354213
0.405817086	0.877422453	0.480799329	0.533044933	0.170650334	0.575468839
0.049459269	0.0395673	0.074178618	0.677648719	0.67687934	0.678674896
0.86358401	0.857195695	0.130389117	0.154875509	0.157129293	0.586360332
0.480501578	0.406012942	0.877417335	0.574878288	0.532496461	0.170497274
0.855318404	0.107728768	0.864986069	0.154302802	0.593835166	0.156490548
0.067708364	0.067623446	0.067835714	0.636084338	0.636472941	0.636454531
0.402021488	0.877277599	0.486039536	0.566487794	0.170475092	0.609248182
0.053696155	0.036165138	0.074183352	0.679555554	0.679487919	0.682592629
0.060038097	0.052405378	0.078528461	0.679091552	0.678331766	0.67966014
0.425322235	0.877518842	0.465382338	0.572340217	0.170569295	0.609127312
0.857322958	0.116713721	0.866049382	0.156153116	0.590338296	0.156691917
0.87735718	0.439759685	0.443889628	0.170641506	0.608895827	0.578707365
0.877357276	0.43708879	0.446337593	0.170556254	0.575711589	0.545994703
0.446344902	0.877383839	0.437103966	0.546119085	0.170562469	0.575795566
0.863865838	0.856320012	0.116662432	0.155683172	0.155741042	0.590274755
0.099392272	0.841681879	0.103181369	0.602485188	0.135077663	0.627809324
0.422806535	0.877475053	0.466672766	0.571208945	0.17055495	0.608197838
0.874838006	0.047866431	0.871695459	0.168446509	0.659461947	0.164921053
0.130412179	0.86362113	0.857690289	0.586588825	0.155383353	0.157526966
0.454681723	0.435654104	0.877361163	0.608296243	0.574659304	0.170591359
0.87538553	0.055310633	0.872174764	0.169064216	0.654970639	0.164988555
0.092674557	0.099704683	0.841414897	0.629582533	0.604162466	0.13491892
0.047722694	0.042843511	0.076555182	0.677686749	0.677336965	0.679708793
0.435984998	0.877371064	0.448085342	0.542444585	0.170527675	0.575193161
0.841651981	0.092785504	0.099683387	0.134795294	0.629549734	0.604328554
0.425063118	0.877440193	0.465625039	0.572597521	0.170622553	0.609216663
0.448733215	0.877413383	0.444057097	0.579095413	0.1705556	0.609502587
0.872153421	0.874634953	0.045709964	0.165078448	0.168510584	0.658765663
0.865019997	0.854147799	0.107677392	0.156365867	0.154154791	0.593852918
0.841673468	0.09261074	0.099710906	0.134850303	0.629874118	0.604516124
0.075976976	0.871787515	0.875587878	0.650518662	0.164703215	0.169188563
0.877410592	0.459088355	0.425572503	0.170545545	0.575651781	0.539406802
0.049476916	0.042771787	0.07813784	0.677037257	0.677157752	0.678476494
0.868752396	0.076143839	0.079511015	0.162605831	0.676088231	0.666360076
0.116718129	0.863981553	0.85628336	0.590288895	0.155783684	0.155820246
0.083825608	0.869149278	0.099478076	0.655316383	0.162685978	0.667805284
0.446318186	0.87734614	0.437093583	0.545942806	0.170478219	0.575669029
0.080250776	0.076976567	0.868621774	0.670735851	0.66057007	0.162646612
0.434914715	0.877377373	0.455649109	0.575973651	0.1705914	0.609683365
0.872333123	0.873658586	0.045872498	0.165532411	0.168252471	0.659278276
0.402962207	0.877306246	0.485708054	0.565112731	0.170566794	0.608018592
0.423992702	0.877311546	0.466023825	0.571953845	0.170488966	0.608763443
0.083782737	0.869024097	0.099957657	0.655294752	0.162742032	0.667904932
0.422911034	0.877419912	0.46683943	0.571143509	0.17056822	0.608166829
0.877255139	0.450935801	0.432323393	0.170563575	0.608954702	0.575839272
0.083424664	0.102192822	0.841550722	0.630980772	0.606018098	0.13486452
0.062514053	0.062505892	0.062657532	0.638492504	0.638516968	0.638517907
0.083513813	0.083667755	0.083935493	0.632399827	0.632293099	0.632606333
0.083634995	0.074796697	0.86918593	0.673625297	0.661429712	0.162581598
0.486093832	0.402982459	0.877489142	0.608533411	0.565782804	0.170609604
0.864029856	0.856791174	0.130432011	0.154659299	0.156590841	0.586640348
0.856290879	0.130388725	0.863519096	0.156923725	0.586440727	0.155278273
0.855861184	0.116673782	0.863946093	0.155365562	0.590449288	0.155375402
0.092657484	0.099739152	0.841439116	0.629598987	0.604181862	0.134977758
0.077443664	0.080324222	0.869004812	0.677048699	0.665648453	0.16256665
0.87491773	0.055353426	0.871457127	0.168598453	0.654847961	0.164600036
0.103672299	0.841410139	0.124905278	0.598080444	0.135316128	0.622987174
0.86531502	0.855053178	0.107695358	0.156828774	0.154476947	0.593863902
0.465629708	0.424287916	0.877423491	0.608609708	0.571923833	0.17061316
0.875075868	0.075999364	0.871635118	0.168459421	0.650328365	0.164638463
0.454938375	0.435832576	0.877398555	0.610498785	0.576991936	0.170631948
0.868827422	0.083155906	0.080949916	0.162632651	0.675246734	0.662262942
0.841405072	0.08332976	0.102288791	0.134852582	0.63161747	0.606183254
0.45913066	0.42564757	0.877358973	0.575600985	0.539514959	0.170593519
0.841686293	0.102948483	0.098944912	0.134994048	0.628240663	0.602951558
0.856211385	0.116700606	0.864836502	0.15617598	0.590307134	0.156548755
0.437065336	0.446331724	0.877328098	0.575735628	0.546091141	0.170634479
0.841694997	0.092620256	0.099692374	0.134823848	0.62986631	0.604597474
0.480621082	0.405990734	0.877435406	0.575274211	0.532869658	0.170603898
0.44632429	0.877303858	0.437046664	0.546033426	0.17056962	0.575680974
0.437093789	0.446340861	0.877368267	0.575801684	0.546097506	0.170610373
0.437098618	0.446335755	0.877369067	0.57578474	0.54602677	0.170570641
0.055116528	0.046697275	0.077612369	0.675543115	0.675201849	0.677131537
0.067740017	0.067711608	0.06799893	0.636531708	0.636407251	0.636545585
0.103140935	0.84179031	0.124909131	0.598561755	0.13522196	0.624026146
0.868633178	0.077836144	0.081108048	0.162439927	0.679075917	0.666911523
0.103621926	0.841610367	0.124947093	0.598104348	0.135365419	0.623037277
0.05550382	0.037690413	0.077502476	0.6795962	0.678946504	0.681075827
0.078473775	0.868978771	0.086214607	0.659408386	0.162689818	0.672243
0.425687215	0.87737256	0.45916054	0.539448855	0.170628812	0.575559275
0.841975498	0.125240563	0.103079719	0.135284261	0.623684465	0.598848061
0.4463956	0.877472203	0.437141618	0.546142038	0.170567442	0.575812966
0.103793188	0.841763029	0.125009719	0.598159816	0.135395412	0.623054984
0.103006964	0.099066087	0.841742028	0.627817699	0.602604608	0.134941518
0.877312408	0.462085233	0.421180106	0.170528182	0.609047691	0.572433865
0.07863043	0.076556375	0.868927689	0.673975753	0.662076208	0.162594003
0.0482108	0.040556266	0.074003022	0.677517487	0.677097281	0.679546161
0.874963388	0.045704506	0.872329425	0.168415091	0.659501779	0.165225008
0.872317702	0.874777232	0.047343716	0.164984467	0.169090137	0.656818056
0.080897765	0.078011728	0.868573543	0.672098997	0.662501111	0.162589712
0.057230888	0.044640746	0.077007481	0.675431119	0.674639728	0.676366321
0.067572541	0.067751359	0.067805883	0.636421913	0.636775314	0.6368755
0.863719106	0.855907839	0.116665579	0.155674718	0.155669506	0.590344058
0.874928491	0.046979187	0.871363439	0.168480573	0.659578241	0.164891891
0.458928099	0.425865069	0.877392905	0.575654162	0.539452829	0.170542251
0.116749866	0.863879154	0.855946723	0.590242155	0.15589927	0.155928707
0.079105689	0.076657774	0.868918826	0.673988273	0.662076147	0.162590793
0.86928517	0.097960238	0.081111233	0.162733395	0.669554758	0.65555058
0.099497862	0.841317147	0.102982837	0.602447831	0.13504268	0.627533475
0.107729414	0.865315668	0.85484811	0.594044566	0.156506044	0.154531612
0.857093371	0.11669935	0.864957779	0.156182353	0.590368603	0.156113348
0.402029641	0.87733068	0.486165972	0.566518155	0.170472688	0.609256455
0.435959072	0.87736294	0.448139814	0.543054893	0.170596545	0.575779702
0.874658817	0.047142658	0.871680894	0.168348587	0.65678027	0.164408131
0.085463253	0.868988286	0.082283944	0.664816371	0.162506679	0.677998121
0.437103978	0.446343844	0.87738272	0.57575999	0.546020276	0.170571264
0.078851483	0.076335015	0.868818078	0.673943178	0.662022946	0.162585549
0.841843667	0.125138496	0.103130049	0.135352138	0.623566631	0.598420192
0.083538535	0.083626145	0.083965457	0.63233809	0.632290856	0.632522408
0.062542571	0.062487304	0.062641303	0.638378026	0.638378128	0.638581956
0.874257503	0.076028726	0.87182935	0.168427564	0.650619966	0.164672184
0.067567104	0.067738059	0.067758883	0.636474521	0.636768685	0.636866332
0.08355199	0.083633918	0.08406435	0.632092618	0.632319286	0.632371596
0.437065367	0.446331315	0.877331843	0.575732731	0.546046256	0.170547366
0.443678536	0.447666066	0.877363401	0.607006631	0.576785744	0.170568341
0.075965723	0.87175888	0.875320195	0.650590808	0.164507054	0.168999287
0.102947956	0.098873172	0.841711725	0.627984234	0.602737592	0.134907225
0.87744082	0.459085716	0.425608604	0.170601985	0.575665534	0.5394944
0.092656961	0.099732159	0.841443554	0.629603971	0.60416578	0.134972995
0.871126882	0.875797297	0.076031997	0.164828178	0.169460011	0.650623233
