Va	Vb	Vc	Ia	Ib	Ic
0.058711274	0.051627157	0.077287797	0.6792419	0.678773313	0.679604701
0.863704935	0.855771593	0.111441887	0.156334399	0.155463258	0.592144941
0.877262154	0.450743092	0.432534097	0.170551426	0.608730579	0.575549388
0.444283199	0.447243951	0.877309246	0.608075317	0.577396231	0.170601216
0.4548796	0.435488413	0.877387095	0.608804979	0.575008648	0.170611214
0.054147265	0.047263888	0.077395052	0.675029348	0.674703025	0.674872535
0.869087971	0.099305264	0.081410614	0.162601473	0.667148124	0.656258102
0.459079809	0.425637562	0.877340284	0.575526493	0.53934523	0.170551501
0.083377458	0.102200759	0.841341275	0.630942792	0.605768819	0.134767349
0.874705471	0.055339129	0.871536022	0.168528038	0.654992927	0.16474437
0.857973648	0.130382847	0.864070433	0.157860241	0.586449381	0.155785907
0.069536561	0.065669674	0.083622436	0.66993033	0.670996173	0.672320949
0.056147698	0.044763474	0.076216684	0.675719193	0.675251404	0.676143774
0.099336488	0.841704269	0.10312515	0.602498675	0.135073607	0.62782019
0.099237042	0.841670734	0.103078906	0.602503055	0.13494545	0.627829178
0.877381886	0.459065563	0.425554419	0.170588853	0.575634119	0.539462772
0.855350743	0.111412259	0.864604443	0.155206303	0.592118895	0.156357996
0.111442523	0.864706463	0.855854805	0.592130831	0.156372457	0.155287939
0.868967077	0.079196165	0.08236459	0.162396599	0.678931442	0.667301984
0.130432367	0.864177858	0.857923085	0.58648161	0.155518743	0.157295508
0.09801612	0.08023625	0.868877717	0.6677284	0.656833306	0.162754551
0.111443661	0.864221678	0.855264902	0.592140084	0.156382808	0.155279663
0.446340734	0.877368648	0.437093941	0.54595625	0.170565711	0.575721265
0.877336824	0.483389733	0.400004049	0.170532999	0.608283276	0.565470815
0.874204579	0.047640647	0.872388422	0.167866259	0.658492048	0.16498847
0.084648286	0.08788479	0.869065941	0.676619812	0.663811326	0.162378584
0.103672728	0.841708296	0.125058996	0.598195065	0.135387355	0.623408207
0.060177875	0.05171509	0.077755651	0.678284881	0.678967941	0.678726853
0.877445948	0.459075156	0.425611014	0.170599786	0.575652434	0.539494783
0.130426368	0.862993037	0.856974913	0.586522222	0.154751959	0.156931313
0.436101392	0.877461646	0.448056749	0.543004554	0.170657508	0.575667897
0.099544814	0.841715423	0.102913996	0.602283685	0.135010099	0.627526855
0.877350218	0.439840373	0.443681551	0.170641864	0.60889857	0.578708431
0.854755339	0.107663857	0.864404744	0.15428062	0.593798051	0.156348309
0.086168593	0.868893694	0.081684709	0.664112444	0.162645777	0.677211237
0.877360419	0.440643362	0.443496559	0.170589704	0.609925718	0.579499513
0.448076482	0.435839409	0.87729642	0.575912068	0.542985651	0.170531965
0.448105414	0.435852245	0.87734008	0.57598531	0.543084641	0.170516445
0.877364549	0.480560809	0.405637408	0.170503726	0.575046893	0.532583081
0.869034145	0.076166041	0.079295881	0.162597964	0.676933665	0.663285069
0.44456988	0.449512888	0.877394533	0.610390352	0.580237291	0.170581721
0.454165099	0.43663594	0.877390943	0.610058494	0.576728563	0.17055512
0.099401361	0.841310232	0.102937647	0.602224333	0.135008163	0.627522037
0.060032017	0.059997398	0.060012935	0.640200643	0.640013453	0.640113314
0.875100335	0.076026287	0.870998908	0.169104746	0.650556384	0.164295244
0.869299646	0.097700528	0.080132406	0.162641921	0.667219537	0.655448465
0.447951107	0.877325995	0.445291084	0.576809249	0.170640985	0.607194626
0.098539911	0.081986258	0.868928143	0.666338606	0.653601699	0.162691952
0.878465596	0.877480886	0.877700696	0.171044924	0.170601182	0.170993856
0.857785751	0.130458683	0.862981344	0.156991026	0.586367756	0.155116795
0.444562349	0.449457329	0.877402277	0.610415602	0.580236711	0.170580181
0.452698536	0.438218036	0.877448716	0.608893027	0.57579104	0.170567716
0.116746106	0.864830567	0.856723623	0.590370745	0.155930745	0.155861584
0.12501783	0.102971902	0.841609342	0.62354481	0.598682042	0.13528993
0.868868	0.080005046	0.07830633	0.162608892	0.675665373	0.662650308
0.856571663	0.111428914	0.865219656	0.155408215	0.592164309	0.156421543
0.046212542	0.043314981	0.075741406	0.677193016	0.677936151	0.679162724
0.437102895	0.446340258	0.87737798	0.575785168	0.546029062	0.170569741
0.084755867	0.076875215	0.868950769	0.672859385	0.660876234	0.162545399
0.877441956	0.480442128	0.405898444	0.170568105	0.574977997	0.532669309
0.864071619	0.855939691	0.130427118	0.155007674	0.156823953	0.586372712
0.874375738	0.047139317	0.872067502	0.168118666	0.657124988	0.165009076
0.877386898	0.437099594	0.446354741	0.170613957	0.575759238	0.546101524
0.402550853	0.877327571	0.48564575	0.566431882	0.170530665	0.609170019
0.871340807	0.875873599	0.055340521	0.164363237	0.168786066	0.654933246
0.099758611	0.841617678	0.092785789	0.604257071	0.134898964	0.629425171
0.125048059	0.103379307	0.841562287	0.623312639	0.598428421	0.135367273
0.869080464	0.084730595	0.082098085	0.162637853	0.673774149	0.661497994
0.057380762	0.043355076	0.075047219	0.675720463	0.675210521	0.678115836
0.047241656	0.044628203	0.078366551	0.677388249	0.676881825	0.678482077
0.443623209	0.447856885	0.877387624	0.606966972	0.576820615	0.170565279
0.855480009	0.107777632	0.864810942	0.155134024	0.593909723	0.156794724
0.874305509	0.076024117	0.870172257	0.167924025	0.650521609	0.164209562
0.067750413	0.067750805	0.06807965	0.636750318	0.636368042	0.636784474
0.10388256	0.841554464	0.124942208	0.597980892	0.135382522	0.623053348
0.124802316	0.102682653	0.841754013	0.624022053	0.598775118	0.135211796
0.841818272	0.125267074	0.103296304	0.135307062	0.623617763	0.598407168
0.871478088	0.874557358	0.047145749	0.164690606	0.168350941	0.657084449
0.87425814	0.076021831	0.869862099	0.167867257	0.650511036	0.164179407
0.42567465	0.877302886	0.459042762	0.539336995	0.170526808	0.575413357
0.855654414	0.111418047	0.864492959	0.155318792	0.592198298	0.156364534
0.06769929	0.067699062	0.06791569	0.636400166	0.636458389	0.636438847
0.080895707	0.868803809	0.082921864	0.661774797	0.162558905	0.674478833
0.045142115	0.872401777	0.874238974	0.658446175	0.165134821	0.168267728
0.048119153	0.039877883	0.073125222	0.677706473	0.677318605	0.679386913
0.85445241	0.10779183	0.864595728	0.154378145	0.593659521	0.156416174
0.423930911	0.877309083	0.466047197	0.571952889	0.170490121	0.608765784
0.062526542	0.062516158	0.062594995	0.638343928	0.638389341	0.6385922
0.060066717	0.059995196	0.059982574	0.639963459	0.640575186	0.640552406
0.055327698	0.872574822	0.874738709	0.654924752	0.165414761	0.168917129
0.124779428	0.103320123	0.841497953	0.623672987	0.598517384	0.135369952
0.102173112	0.841658095	0.083445882	0.605976952	0.134672143	0.631352559
0.869178631	0.098869841	0.081766963	0.162587525	0.668035608	0.656564307
0.459177622	0.425679616	0.877360913	0.575601351	0.539513686	0.170592841
0.854551521	0.111435675	0.862817637	0.15483265	0.592185444	0.156030596
0.865263197	0.854822583	0.107719643	0.156829722	0.154732845	0.593810866
0.102192857	0.841757504	0.083396985	0.605947207	0.13474624	0.631413636
0.079139675	0.868846571	0.086725527	0.65976947	0.162697586	0.672433604
0.081105264	0.084120934	0.869057095	0.679008212	0.66594285	0.162594466
0.060079567	0.060003404	0.059927138	0.640371481	0.640293812	0.63987155
0.877278409	0.437048687	0.446299855	0.170611486	0.575756397	0.546038131
0.875482498	0.047050761	0.871434829	0.168609882	0.656815272	0.164497425
0.454710832	0.435906847	0.877398971	0.60814656	0.574647136	0.170547001
0.425164935	0.877369917	0.465568567	0.572522111	0.170619619	0.609002119
0.437065592	0.446306777	0.877306374	0.575761947	0.546016088	0.170576452
0.863713484	0.855550319	0.111466211	0.156058728	0.15506181	0.592162606
0.868928176	0.081332838	0.084545086	0.162630356	0.676432514	0.664073881
0.877308196	0.484446882	0.39899248	0.170544424	0.608490621	0.565597927
0.45916232	0.425641956	0.877352879	0.575253618	0.539234037	0.170534246
0.871815688	0.874936395	0.046045799	0.16522935	0.168512704	0.658619086
0.116695146	0.863947857	0.856013695	0.590404883	0.155573839	0.155636122
0.877337222	0.484388756	0.39902375	0.170536548	0.608235694	0.565429337
0.841684563	0.092599941	0.099703237	0.134827399	0.629768076	0.604621172
0.876650698	0.076022457	0.873370133	0.16988065	0.650519459	0.165069591
0.86932627	0.082067508	0.073281911	0.162659303	0.672952622	0.661197521
0.09925738	0.841708224	0.103070735	0.602554251	0.135069542	0.627791488
0.130413497	0.863569512	0.857712087	0.586603961	0.155384699	0.157529067
0.056744413	0.039142741	0.080595535	0.678394478	0.679290769	0.679434865
0.459130369	0.425654491	0.877359728	0.575600291	0.539515021	0.170593162
0.841715166	0.125003933	0.10344054	0.13541848	0.624019595	0.59897568
0.864500677	0.854831587	0.111435992	0.156504413	0.155329633	0.592040595
0.084502836	0.075931985	0.869176685	0.673479466	0.661716204	0.162596255
0.083444006	0.083566666	0.083812892	0.631988145	0.631995856	0.632338416
0.86885742	0.07931846	0.077203283	0.162602557	0.675438196	0.662843101
0.060031844	0.06001181	0.059988091	0.63999096	0.640205868	0.640464048
0.863047487	0.854703946	0.111408769	0.155861748	0.155028391	0.592150417
0.107498141	0.864840389	0.855284221	0.593940821	0.156509643	0.154674334
0.124860913	0.102770087	0.841753656	0.623958994	0.598683802	0.13527257
0.841297335	0.083307282	0.102212286	0.134943499	0.631309184	0.606243086
0.874812612	0.048108592	0.872550116	0.168432544	0.659359497	0.164932377
0.062421927	0.06253894	0.062568881	0.63877222	0.638402519	0.638734797
0.877399867	0.484220111	0.399282032	0.170531547	0.608606802	0.565709348
0.854270696	0.111425317	0.864768413	0.155351271	0.592097713	0.156532092
0.048895233	0.039474627	0.073424348	0.67766439	0.676912303	0.678696543
0.877268536	0.877215592	0.876067472	0.170541459	0.170684613	0.170655396
0.102261389	0.841710968	0.083381806	0.606028756	0.134818975	0.631375199
0.877366437	0.437090724	0.446344219	0.170530267	0.575719267	0.546018472
0.841760735	0.102908771	0.099065286	0.134966801	0.627961351	0.602550878
0.446328611	0.877384494	0.437121923	0.546063995	0.170523773	0.57576486
0.877362415	0.440648646	0.443487721	0.170589381	0.609924699	0.579500618
0.448154907	0.435878914	0.877356004	0.575765517	0.542800859	0.170565998
0.854321733	0.107775025	0.863945533	0.154392282	0.593668436	0.156431363
0.872716047	0.87536827	0.075947598	0.16507144	0.16924936	0.650582918
0.083385044	0.102195521	0.841490006	0.630999082	0.60577518	0.134860344
0.04524361	0.872250437	0.874191241	0.658528236	0.165096662	0.168238052
0.877318121	0.448105622	0.435814786	0.17059512	0.575781404	0.542859389
0.111434814	0.864739761	0.855448251	0.592100516	0.156323843	0.155274252
0.060068033	0.059970407	0.059970958	0.640360447	0.640144799	0.640382912
0.060039465	0.059989661	0.060003851	0.640052006	0.640570427	0.640578409
0.425726192	0.877404384	0.4591319	0.539527468	0.17061739	0.575694613
0.06769898	0.067641131	0.067795635	0.63608889	0.636279794	0.636708905
0.856006738	0.116682721	0.862876162	0.155822163	0.590346716	0.155891214
0.092758901	0.099789714	0.841555332	0.629505017	0.604405452	0.134922345
0.085572689	0.076378892	0.869072923	0.672952061	0.66084961	0.162528501
0.871465288	0.875204191	0.05538197	0.16490552	0.168608934	0.654998905
0.130421465	0.862717481	0.857602932	0.586552697	0.155320807	0.157438514
0.841650357	0.103050422	0.09904086	0.134967087	0.627622092	0.602592065
0.877406814	0.480587234	0.405736661	0.170544889	0.574894699	0.5324733
0.083638834	0.869013082	0.085018445	0.662462614	0.16249245	0.675618146
0.072200427	0.065061516	0.087188502	0.670700386	0.67010491	0.671419068
0.080249795	0.083691552	0.869262371	0.678643599	0.6649227	0.162543859
0.054767851	0.037183707	0.076323905	0.679745866	0.679435144	0.682438916
0.070628414	0.065627782	0.084883757	0.670030708	0.67056718	0.671468123
0.06775661	0.067583652	0.067746775	0.636110579	0.636268437	0.636711799
0.44632308	0.8773516	0.437092775	0.54594466	0.170479274	0.575663104
0.858344777	0.13048925	0.86306375	0.157094602	0.586497273	0.155090367
0.8773634	0.440624	0.443572135	0.17058614	0.609920481	0.579503404
0.875499553	0.075990863	0.871649798	0.168955338	0.650413901	0.164838428
0.06772168	0.067585661	0.067792984	0.636408432	0.636299655	0.636553746
0.059906525	0.051988127	0.077846024	0.677854905	0.67863103	0.67894098
0.075957565	0.871220256	0.875498115	0.650596251	0.164529724	0.169051054
0.480538304	0.40594489	0.877365666	0.575254635	0.532975766	0.170548552
0.425091158	0.877422225	0.465565042	0.572610036	0.170626314	0.609199453
0.102211866	0.841585904	0.083442073	0.605890886	0.134765346	0.630793693
0.855719868	0.107822326	0.865595187	0.155155454	0.593941517	0.156768499
0.099774161	0.841595458	0.0927151	0.604214526	0.134842875	0.629445878
0.869013035	0.099532566	0.081273101	0.162606865	0.667400413	0.656425624
0.080296959	0.077073179	0.868632113	0.670759486	0.660483955	0.162649037
0.437064102	0.446316418	0.877315556	0.575754659	0.546022936	0.170574614
0.079203599	0.082253046	0.869022759	0.677175639	0.665336115	0.162600306
0.856496458	0.130435939	0.86267941	0.156302992	0.586440801	0.154687771
0.877289604	0.450871275	0.432366448	0.170539485	0.608540711	0.575290389
0.877426903	0.484205744	0.39932265	0.170565647	0.608651746	0.565815205
0.876763045	0.877450903	0.876278121	0.170294783	0.170748279	0.1707819
0.40282048	0.877422256	0.485908779	0.566064289	0.170592869	0.608765647
0.877301272	0.437058629	0.446312556	0.170610102	0.575757314	0.546036779
0.877336412	0.44809121	0.435860967	0.170556799	0.575590246	0.542717051
0.877350988	0.43987125	0.443611196	0.170641132	0.608897019	0.578708233
0.402021841	0.877277336	0.486039055	0.566487649	0.170475123	0.609248445
0.055327047	0.872530854	0.874340351	0.654893768	0.165368538	0.168898723
0.455424576	0.435821921	0.877373143	0.609458782	0.576188315	0.170575618
0.057256934	0.043966767	0.075818762	0.675367535	0.67500838	0.676761102
0.055308802	0.872749888	0.874295946	0.654892031	0.165238016	0.168817681
0.081144877	0.078051396	0.868539883	0.671244063	0.661966149	0.162594511
0.067580983	0.067594753	0.067609849	0.636551593	0.636467701	0.636518096
0.099651752	0.841559356	0.092659129	0.604242616	0.134808265	0.629327266
0.877503369	0.462241721	0.421028365	0.17053869	0.608959074	0.572504215
0.868913256	0.079214396	0.077282362	0.162588124	0.67561318	0.662776789
0.872362155	0.873893634	0.045873721	0.165171008	0.167867258	0.659425934
0.437061496	0.446301397	0.877296768	0.575761901	0.54601267	0.170577659
0.075973547	0.871622948	0.875526336	0.650532306	0.164657332	0.169173828
0.864120681	0.8565441	0.11665879	0.155639094	0.155674842	0.590321021
0.877362989	0.440631279	0.443568304	0.170586198	0.609920824	0.579503227
0.454733662	0.435713685	0.877379727	0.60815397	0.574628102	0.17056137
0.116710804	0.864162705	0.856396598	0.590329603	0.156032272	0.156144958
0.423378087	0.877403898	0.465895838	0.571071782	0.170591247	0.608092711
0.857158036	0.130385554	0.863868461	0.156927908	0.58644092	0.155288446
0.067615335	0.067633435	0.067779711	0.636439841	0.636630862	0.636644947
0.877474958	0.448172942	0.435897866	0.170581457	0.575668944	0.542797778
0.102304418	0.841676573	0.083335761	0.605856287	0.134831869	0.631457776
0.12453299	0.103419603	0.841593415	0.623661837	0.598552005	0.13535986
0.080936287	0.077698619	0.868706832	0.671765378	0.659823429	0.162669894
0.047236757	0.04303251	0.076306052	0.677306642	0.677300598	0.678852951
0.459126628	0.425691166	0.877346184	0.575268492	0.539244793	0.170546518
0.082191286	0.869143013	0.099978556	0.656622392	0.162518694	0.668727392
0.435584233	0.877334218	0.454843902	0.576949961	0.170556805	0.610422177
0.425758412	0.877419018	0.459108943	0.539466905	0.170609271	0.575567034
0.869153686	0.098034246	0.080820762	0.162597753	0.669937247	0.656648482
0.448567617	0.877251848	0.445194986	0.577384611	0.170528129	0.608005118
0.103024092	0.841795713	0.124884447	0.598551994	0.135148172	0.624089643
0.060015994	0.060035375	0.059984175	0.640525259	0.640262879	0.640411545
0.130442398	0.862888064	0.857392597	0.586446773	0.15486877	0.157089765
0.486932957	0.401569581	0.877457641	0.608058208	0.564815079	0.170583433
0.855439041	0.107800879	0.865040511	0.15512572	0.593897147	0.156802573
0.083594325	0.083598622	0.084076335	0.632257398	0.632241226	0.632634308
0.082133604	0.869139765	0.084021466	0.660147094	0.162576936	0.673804202
0.448160274	0.435873326	0.87741647	0.575848988	0.54284042	0.170595796
0.868785786	0.08388932	0.082125396	0.162596478	0.674935291	0.66213299
0.870345858	0.873785323	0.047157067	0.164656556	0.168525976	0.65695082
0.871379866	0.876127481	0.055381028	0.164447003	0.168829314	0.654930176
0.070183786	0.066515236	0.085930135	0.669349041	0.671251485	0.671535651
0.877301077	0.437070844	0.446298544	0.170546656	0.575728734	0.546027607
0.841306243	0.083281435	0.102295026	0.13484769	0.631173103	0.605921098
0.877337647	0.480620513	0.405656035	0.170535837	0.574806197	0.53237761
0.099285232	0.841709519	0.103062152	0.602595045	0.13500227	0.627785316
0.107597084	0.86511534	0.854878397	0.594005162	0.156490506	0.154476817
0.107729742	0.865101186	0.854686688	0.594053237	0.156507104	0.154520154
0.107469588	0.865160652	0.855237025	0.593964818	0.156632309	0.154865303
0.04413602	0.87148968	0.874122691	0.65892164	0.164846824	0.168468083
0.130486121	0.863197861	0.857261312	0.586398411	0.154924217	0.157118642
0.870919253	0.874510468	0.055364025	0.164812792	0.168539653	0.654875163
0.446317682	0.877346677	0.437092993	0.545942095	0.170481064	0.575670724
0.87733615	0.437093005	0.446311981	0.170563174	0.575718369	0.546055067
0.107644509	0.865247237	0.854310878	0.594000646	0.156826201	0.154858393
0.874619986	0.047149375	0.87086256	0.16818715	0.657101236	0.165041197
0.107730043	0.865102527	0.854686612	0.59405282	0.156507289	0.154520277
0.48664339	0.402072763	0.877378684	0.609582464	0.566612489	0.170533744
0.047404036	0.872053581	0.874308514	0.656830631	0.164757693	0.167985892
0.405749937	0.877382974	0.480793241	0.532996584	0.170581053	0.575347843
0.083478402	0.083550341	0.083868547	0.631956553	0.632056042	0.632395486
0.047122761	0.871338883	0.874564558	0.656878914	0.164799891	0.168441869
0.877394806	0.480615965	0.405701129	0.170575098	0.575180877	0.532852684
0.877462094	0.480502921	0.405893784	0.170527035	0.574922617	0.532486433
0.092656862	0.09976504	0.841492943	0.629501261	0.604210312	0.134855941
0.863015127	0.856535401	0.130444265	0.15482377	0.156779364	0.586471467
0.107496198	0.865612427	0.855210728	0.594005744	0.156704052	0.155042677
0.480648027	0.405999609	0.877483102	0.575244319	0.532802352	0.170609487
0.062503285	0.062502698	0.062565035	0.638610329	0.638461532	0.638854913
0.435041029	0.877384525	0.455272969	0.576028593	0.170569469	0.609768383
0.841687066	0.125153421	0.103101854	0.135235133	0.623547257	0.598274861
0.423515064	0.877426501	0.466072785	0.571156579	0.170564857	0.608175817
0.877278833	0.437056384	0.446291458	0.17054921	0.57573506	0.546037965
0.130410999	0.863106183	0.857629185	0.586522288	0.154955262	0.157094351
0.092683178	0.099720942	0.841469538	0.629596875	0.604147094	0.134922706
0.083861365	0.868923658	0.079545239	0.665341444	0.162478741	0.677596837
0.487509459	0.401789674	0.877316126	0.606164159	0.563730495	0.170542246
0.102226724	0.841570253	0.083353174	0.605692739	0.134682951	0.630814599
0.863214947	0.857176062	0.130417695	0.154647815	0.156731694	0.586527713
0.446306668	0.877286799	0.437047923	0.545906062	0.170540196	0.575617212
0.116725751	0.864988736	0.856299996	0.590335039	0.155909076	0.156007447
0.081953038	0.869160306	0.099243748	0.656057868	0.162580893	0.667831574
0.87173903	0.874901553	0.045552102	0.164932688	0.168373953	0.658681048
0.443691419	0.447720291	0.877345209	0.607045608	0.576773262	0.170569857
0.875019976	0.055333771	0.872044228	0.168633398	0.654997279	0.164770395
0.869096183	0.082890413	0.073369275	0.162596507	0.673190837	0.661364328
0.079904274	0.077306957	0.868816958	0.673950599	0.662136198	0.162691752
0.854641953	0.107748613	0.864718622	0.154323502	0.593821747	0.156563887
0.067611756	0.06764199	0.067917322	0.636528027	0.636500836	0.636895981
0.083393977	0.102190932	0.841447514	0.631154334	0.60606117	0.134873769
0.124769736	0.102961483	0.841682042	0.623644428	0.598709081	0.135278068
0.841674844	0.125285505	0.103379501	0.1352123	0.623887799	0.598792373
0.045507205	0.042513254	0.073938348	0.677443558	0.677908862	0.67885395
0.06247654	0.062511714	0.062579725	0.638788839	0.63844052	0.638645708
0.877298121	0.448093324	0.435805994	0.170599965	0.575786678	0.542863479
0.877382806	0.459019595	0.425624551	0.170627113	0.575579892	0.539611698
0.067583471	0.067641433	0.06785971	0.636813218	0.636371778	0.637092156
0.083641508	0.074816242	0.869152601	0.673619129	0.661419145	0.162591381
0.075970379	0.87254193	0.87410672	0.650348676	0.164898679	0.16873934
0.07885863	0.868913814	0.087734162	0.661538472	0.162604745	0.673240932
0.079348191	0.868975932	0.08811182	0.661620414	0.162621436	0.673134982
0.046078367	0.043304077	0.075599245	0.677149261	0.677895242	0.679183846
0.077737729	0.079957872	0.868828937	0.677274754	0.666339945	0.162461635
0.437062546	0.446359042	0.877353337	0.57573225	0.546078512	0.170618642
0.871970959	0.874232413	0.047565834	0.165065942	0.168201186	0.658495119
0.111430885	0.864661157	0.855698513	0.59212143	0.156307134	0.155247149
0.454756398	0.435986791	0.877383974	0.608192975	0.574749137	0.170532401
0.459111475	0.425711815	0.877381403	0.575431215	0.53929835	0.170548642
0.863239174	0.857149671	0.130420113	0.154698146	0.156774886	0.586467539
0.841844776	0.12512285	0.103075212	0.135330745	0.623582085	0.59834308
0.403603815	0.877311059	0.48486682	0.564325862	0.170550276	0.607122608
0.444430026	0.449707505	0.877419575	0.610423753	0.580229319	0.17057539
0.062233727	0.053023257	0.080703275	0.678999778	0.680048044	0.678460211
0.060071661	0.060001065	0.059944615	0.640175073	0.640436842	0.640636597
0.070011282	0.066132452	0.085200225	0.669800327	0.670719886	0.671544946
0.877365336	0.459043216	0.425563453	0.170559251	0.575601633	0.539465684
0.097953616	0.081645726	0.868894425	0.666256811	0.656884829	0.162773582
0.857108539	0.130513923	0.863493823	0.156635223	0.586568788	0.1549936
0.444448675	0.44971597	0.877428711	0.61042431	0.580230883	0.170573215
0.067710034	0.067685344	0.06792073	0.636368202	0.636574411	0.636532347
0.070573316	0.065270226	0.084178514	0.669789586	0.670790412	0.671467203
0.04755552	0.871052469	0.874420365	0.656946247	0.164473848	0.168351436
0.083382766	0.102196952	0.841548907	0.631072635	0.605794564	0.134823378
0.44814523	0.435907746	0.877362562	0.575763325	0.542804828	0.170548104
0.449066347	0.877393466	0.444518133	0.577399816	0.170610881	0.607326916
0.062581635	0.062470038	0.062528766	0.638568955	0.638743827	0.638510652
0.872461643	0.873641891	0.055328246	0.165389737	0.168383145	0.654798946
0.056239268	0.044216484	0.075519898	0.675973202	0.674683829	0.676343087
0.877348667	0.461517588	0.421767441	0.170555756	0.609519193	0.57301881
0.841339088	0.083310576	0.102233738	0.134938411	0.631308915	0.60625324
0.054922053	0.046544062	0.077107493	0.675549185	0.674903209	0.677157714
0.877261801	0.440609559	0.44340827	0.170615586	0.609716383	0.579512484
0.446347787	0.877383711	0.437102112	0.546119817	0.170549723	0.575784668
0.877420476	0.46238093	0.421079954	0.17052558	0.609137963	0.572323238
0.864371844	0.855135092	0.107600444	0.156617377	0.154402474	0.593681538
0.877432564	0.480603593	0.405732727	0.170543359	0.574904143	0.53248419
0.076033527	0.87092854	0.874601719	0.650519819	0.164521785	0.168717818
0.448089307	0.435834605	0.87731025	0.575967847	0.543065301	0.170505444
0.877263024	0.450599384	0.432601781	0.170560586	0.608853459	0.575714385
0.078786484	0.868907606	0.087555605	0.662275609	0.162694589	0.673700349
0.055316494	0.871194106	0.874715351	0.654903614	0.164947505	0.168790812
0.402473817	0.877303961	0.485823578	0.566502992	0.170472875	0.609238384
0.072219263	0.064537447	0.086241653	0.670609211	0.670061324	0.67116305
0.111448123	0.864381265	0.855794973	0.592142067	0.156172328	0.155182763
0.874816942	0.04705266	0.87159261	0.168437083	0.659573466	0.164863361
0.107501959	0.865251282	0.855195914	0.593922179	0.156558492	0.154606155
0.877411871	0.45146014	0.431945242	0.170573565	0.608929639	0.575376272
0.062482653	0.062522856	0.06263392	0.638368122	0.638442738	0.638580438
0.877378943	0.43709301	0.446354608	0.170626145	0.575726544	0.546038188
0.455208118	0.435516563	0.87741393	0.610188368	0.576801918	0.170602609
0.856931559	0.116667061	0.863969313	0.155710128	0.590313751	0.155701205
0.865060937	0.854232595	0.107731309	0.156392465	0.15404292	0.593744848
0.459111418	0.425711749	0.87738125	0.575431277	0.539298278	0.170548672
0.855924266	0.111455433	0.865085686	0.155523792	0.592231599	0.156601013
0.048016231	0.04082181	0.074119326	0.677500552	0.676948511	0.679528612
0.083490463	0.083794699	0.084030641	0.632488368	0.632158812	0.632664902
0.875073032	0.076040997	0.872355869	0.169113329	0.650572161	0.165603862
0.083574092	0.08366728	0.084010224	0.63230011	0.632268795	0.632630309
0.067743318	0.067706042	0.067973719	0.636448611	0.636464583	0.636430039
0.87733129	0.459010803	0.425584002	0.170584951	0.575589666	0.539618843
0.87544405	0.075999513	0.872557371	0.169061393	0.65033065	0.164894252
0.083484821	0.08362827	0.083969364	0.632110042	0.632224599	0.632162028
0.437079029	0.446335329	0.877346531	0.575773837	0.546081055	0.170625482
0.841538282	0.083369805	0.102282779	0.13475794	0.631171308	0.605991331
0.874200326	0.055295639	0.87225716	0.168635859	0.654865006	0.165129989
0.083131862	0.868775985	0.098950902	0.655144895	0.162669688	0.667450736
0.877272025	0.450980894	0.432303915	0.170545595	0.609533846	0.576131721
0.06763594	0.067625858	0.067886487	0.636835821	0.636443127	0.63708442
0.099797415	0.842098914	0.092787004	0.60417419	0.134804103	0.629953192
0.877337962	0.440292805	0.443663698	0.170607882	0.609900196	0.579635247
0.444451314	0.449715897	0.877429433	0.610424461	0.580230817	0.170573022
0.85436403	0.11142219	0.862670874	0.154714426	0.592160318	0.156010359
0.045130847	0.872474613	0.874377231	0.658508945	0.165093785	0.168277991
0.107511088	0.864707035	0.854932593	0.59396413	0.15655997	0.154645377
0.874588127	0.055291903	0.871862802	0.168289568	0.654964468	0.164653338
0.875713003	0.07600554	0.871469496	0.169206228	0.650268091	0.165017534
0.454148925	0.436680464	0.877350112	0.609873405	0.576658394	0.170552253
0.864300522	0.85613255	0.116678806	0.155799046	0.155872077	0.590259835
0.049223768	0.043022613	0.07818401	0.677064898	0.677190378	0.678716946
0.116708546	0.863290347	0.855330078	0.590328289	0.155675545	0.155612847
0.455367117	0.435628264	0.877319139	0.60840501	0.575057507	0.170557735
0.43708385	0.446321939	0.877340174	0.575771186	0.546029753	0.170570521
0.865189571	0.854235681	0.107697641	0.156388041	0.154059061	0.593781617
0.855707727	0.111445154	0.864516695	0.155292428	0.592202985	0.156470799
0.055310149	0.872587119	0.874354761	0.654920718	0.164883544	0.168489174
0.868821431	0.077376458	0.079933859	0.162606453	0.678217079	0.664520412
0.877250175	0.437025343	0.446294998	0.170608551	0.575739918	0.546048378
0.083408466	0.102174365	0.841325254	0.631176108	0.605898733	0.134814901
0.401678201	0.877242451	0.486135984	0.566113662	0.170582802	0.608802694
0.856147806	0.116714924	0.863315226	0.155608905	0.590305358	0.155731893
0.046909364	0.044568974	0.077960674	0.677348451	0.676829538	0.678202615
0.055366031	0.871288521	0.875716431	0.654931701	0.164237172	0.168408214
0.047398403	0.043241964	0.076723132	0.677324052	0.677316887	0.678848104
0.855126009	0.111446644	0.863655821	0.155043381	0.592146729	0.155925394
0.083648528	0.083636795	0.084078021	0.632099073	0.632299888	0.632352995
0.435251161	0.877300614	0.454511794	0.57468349	0.170548777	0.608449926
0.076001636	0.871019166	0.874409653	0.650396557	0.164493838	0.168230791
0.076019687	0.871012552	0.875432522	0.650528661	0.164473532	0.16914119
0.080505151	0.077271543	0.868645777	0.670706284	0.660788754	0.162633982
0.841644627	0.092639035	0.099723334	0.134868748	0.62985059	0.604462598
0.876917551	0.076005796	0.871568363	0.168878936	0.650377002	0.164638718
0.876081739	0.07602224	0.871166062	0.169637499	0.650407226	0.164921886
0.102965497	0.09892705	0.841892644	0.627922947	0.60272354	0.13493832
0.405855637	0.877281156	0.480598872	0.532977174	0.170587094	0.575338638
0.877446885	0.451616427	0.432025953	0.170577556	0.608952292	0.575381023
0.856496248	0.130435972	0.862679763	0.156302985	0.586440762	0.154687789
0.425711537	0.877435368	0.459178483	0.539463762	0.170600585	0.575553197
0.863897495	0.855968859	0.116669572	0.155617647	0.155581257	0.590329294
0.865602855	0.855425302	0.107721501	0.156709944	0.1545598	0.593851824
0.047351447	0.872250085	0.874313269	0.656758793	0.165269929	0.16855297
0.869005654	0.081862081	0.072708201	0.162516121	0.673184946	0.661333301
0.877364679	0.480739526	0.405561257	0.170534377	0.574848265	0.532409049
0.856509549	0.130457542	0.863416083	0.156313064	0.586406166	0.154708164
0.067774025	0.067693686	0.067916297	0.636380448	0.636611954	0.636587297
0.070290422	0.065996814	0.085027972	0.66926502	0.671121138	0.671483903
0.056390719	0.039221607	0.080397952	0.678404148	0.679344383	0.679632213
0.875746015	0.075994605	0.871541679	0.168995826	0.650290538	0.164821687
0.874050826	0.047070493	0.871312905	0.168273866	0.656941017	0.164696085
0.099419324	0.84173029	0.103008795	0.602257829	0.135031174	0.627526091
0.084931357	0.869040256	0.081128831	0.665094817	0.16251093	0.678333319
0.855802903	0.116670681	0.864623729	0.15553887	0.590329656	0.155594329
0.877417636	0.484104899	0.399485755	0.17057113	0.60865664	0.565811019
0.869465374	0.097989678	0.081323042	0.162705362	0.66885835	0.655029829
0.078345105	0.868674271	0.086276003	0.660739798	0.162701133	0.671821784
0.877452834	0.480634459	0.405726571	0.170524469	0.574932472	0.532475446
0.841879915	0.125150426	0.103258142	0.135225008	0.623637626	0.598261416
0.877357515	0.440268137	0.444085309	0.170624571	0.609749354	0.579410169
0.0592262	0.051370432	0.077156152	0.678133714	0.678212606	0.679373275
0.049413446	0.042990542	0.078312332	0.677038485	0.677157459	0.67854873
0.854400733	0.107781298	0.863907894	0.154508361	0.59376394	0.156515003
0.487126055	0.402194262	0.877313861	0.607682648	0.565367635	0.170553339
0.87054562	0.874333575	0.075940104	0.16429369	0.168169084	0.650451017
0.877413356	0.483856022	0.399730799	0.170570433	0.608688665	0.565857439
0.069386568	0.065157183	0.084147622	0.67057458	0.670894252	0.672850771
0.402155215	0.877276571	0.485822869	0.566485377	0.170474809	0.609262899
0.877452058	0.462461124	0.420881157	0.170644658	0.609071451	0.572351179
0.43569665	0.877329421	0.454743653	0.576931324	0.170555618	0.61056138
0.459130665	0.425647699	0.877358959	0.575601012	0.539514952	0.170593516
0.086008507	0.075388318	0.868924791	0.673643809	0.662729453	0.162583617
0.869364647	0.082804586	0.074219979	0.162625939	0.672888762	0.661112039
0.083436957	0.083747572	0.083984744	0.632260977	0.632144514	0.632748714
0.086737032	0.089838408	0.869332697	0.678514652	0.666840447	0.162504033
0.425650807	0.877344804	0.459102386	0.539357015	0.170555611	0.575481179
0.863749346	0.856758089	0.11668628	0.156080365	0.156131412	0.59033323
0.864984631	0.854910264	0.107708042	0.156660918	0.154476786	0.593954551
0.876467241	0.877461349	0.877897391	0.170427091	0.170805307	0.171169432
0.054480346	0.046778866	0.077071172	0.675573278	0.674933899	0.67715915
0.446331036	0.877369469	0.437102083	0.546080294	0.170533815	0.575790447
0.877427088	0.437115621	0.446378606	0.17061786	0.575770814	0.546121506
0.854405956	0.107823106	0.865161066	0.154375565	0.593694604	0.156426608
0.87137248	0.876172722	0.055372146	0.16442431	0.168817949	0.654926648
0.085018738	0.869029651	0.080927365	0.665006889	0.162508094	0.678309218
0.877383864	0.440670769	0.44336703	0.170587398	0.60992614	0.579520582
0.868815152	0.079037	0.077038137	0.162614035	0.675264917	0.662715493
0.047963815	0.040747832	0.074123766	0.677553011	0.676917938	0.679316991
0.437060568	0.446315811	0.877306379	0.575727446	0.546077245	0.1706209
0.071754966	0.065059064	0.086760228	0.670655733	0.670561931	0.671245891
0.077642049	0.868752323	0.085422711	0.659651907	0.162689577	0.671469184
0.046382469	0.042735718	0.075059587	0.677387015	0.677300593	0.67891984
0.405656968	0.877293976	0.480777677	0.532709269	0.17054817	0.575139943
0.874858142	0.046880149	0.871748416	0.16844685	0.659586427	0.164780954
0.40583005	0.87737443	0.480704066	0.5329463	0.170643007	0.575204799
0.079016481	0.076200538	0.868827258	0.673942999	0.662051566	0.162586188
0.423939947	0.877309697	0.46604388	0.571953129	0.170489902	0.608765321
0.855270452	0.111405931	0.86466053	0.15518686	0.592121351	0.156339817
0.459135452	0.425659805	0.87732671	0.575255507	0.539209085	0.170536173
0.103688168	0.841285786	0.124976896	0.598174152	0.135337629	0.62303875
0.061769947	0.052489835	0.079784286	0.679379856	0.678999255	0.678362104
0.863395485	0.855860552	0.116640899	0.155292533	0.155302047	0.590403419
0.87733499	0.450963063	0.432227716	0.170593556	0.608681438	0.575086128
0.841496189	0.125148594	0.103070307	0.135254876	0.623623348	0.598294837
0.872672949	0.874872373	0.047307394	0.164976951	0.16908879	0.656900752
0.045041866	0.87226379	0.874462531	0.658464788	0.165170441	0.168287266
0.102315401	0.841721406	0.083323061	0.605910323	0.134825942	0.631456559
0.103597127	0.841548294	0.12513271	0.598206069	0.13533658	0.623236808
0.116717238	0.863992073	0.85631613	0.590333006	0.156035635	0.156060662
0.877367405	0.439786271	0.44387568	0.170639644	0.608895702	0.578711364
0.877401778	0.459071923	0.425567554	0.170545869	0.57564198	0.539497693
0.480681177	0.405678186	0.877307129	0.574955639	0.532613227	0.170517199
0.874064565	0.047102907	0.872441103	0.168533706	0.657003221	0.165362295
0.072405305	0.064894162	0.087094913	0.670846503	0.669923063	0.670970642
0.877351808	0.451314371	0.43201064	0.170548567	0.608914567	0.575370175
0.067667257	0.067706703	0.067998587	0.636608769	0.636426759	0.636911999
0.424538046	0.877325435	0.465993789	0.572100451	0.170560565	0.608986706
0.099530648	0.841596178	0.102936509	0.602175089	0.135011091	0.627552633
0.877383641	0.450965292	0.432303527	0.170626581	0.610598193	0.577220191
0.868902966	0.081797277	0.073037709	0.162597551	0.673184679	0.661315942
0.078686137	0.868904447	0.086492027	0.659115459	0.16271966	0.671624675
0.877421646	0.480565572	0.405767102	0.170537365	0.574909144	0.532473259
0.874351824	0.055284995	0.871355308	0.168198571	0.654983013	0.164641254
0.856758575	0.130383145	0.863570457	0.156840425	0.586420485	0.155113431
0.869214333	0.082323369	0.074343349	0.162596005	0.673330293	0.660951494
0.102967186	0.098963254	0.841746512	0.627796862	0.602643459	0.134942353
0.067558234	0.067727749	0.067721384	0.636402405	0.636764149	0.636894952
0.084258371	0.076209707	0.868762545	0.671987588	0.660536386	0.162630331
0.08339763	0.10218484	0.841470175	0.630951576	0.605912458	0.134804851
0.448100942	0.4358819	0.877369783	0.575805388	0.542814351	0.170597042
0.099385442	0.841575655	0.103061251	0.602508528	0.135042076	0.627678594
0.459127671	0.42569335	0.877396756	0.575436117	0.539311366	0.170552956
0.877421519	0.448100924	0.435920374	0.170580782	0.575683583	0.542804322
0.877355427	0.459058262	0.425543033	0.170562558	0.575663828	0.539494374
0.864589034	0.856201222	0.111460535	0.156218196	0.154980482	0.592037885
0.045181803	0.872708847	0.874312523	0.658467127	0.165136952	0.168302675
0.43705487	0.446322574	0.877312193	0.575732634	0.546021348	0.170575241
0.085481416	0.07642382	0.868991082	0.673735579	0.662636151	0.162542737
0.841679995	0.102971027	0.099133048	0.134955033	0.627798618	0.602519381
0.446396114	0.877468081	0.43713727	0.546074173	0.170569092	0.575779366
0.082561941	0.869172137	0.099543131	0.655318607	0.162678753	0.667766811
0.057378227	0.04337297	0.075076453	0.675719554	0.675211661	0.678120349
0.061226082	0.052074159	0.078972891	0.679372541	0.678501085	0.678237927
0.107617554	0.865157414	0.854500952	0.593928143	0.156974408	0.155015352
0.056613276	0.044647204	0.076496556	0.676119001	0.675043449	0.676167245
0.103226939	0.841925988	0.124847042	0.598497283	0.13528035	0.623532606
0.454201681	0.436937356	0.877307325	0.609031127	0.575946261	0.1705758
0.87741461	0.448158351	0.435854713	0.17059129	0.575746358	0.542829571
0.082713599	0.869014035	0.099180495	0.65531907	0.162671086	0.667743022
0.060073698	0.060006756	0.059937016	0.640351492	0.640299145	0.639800771
0.877340052	0.484195086	0.399366962	0.170561462	0.608205683	0.565403999
0.869098669	0.081944595	0.073454315	0.162561431	0.673122295	0.66108091
0.877380903	0.480515735	0.405744295	0.170491075	0.575177141	0.532776225
0.08335589	0.083689317	0.083672082	0.63224131	0.632379408	0.632866922
0.446356025	0.877401198	0.437110011	0.546129052	0.17056054	0.575797403
0.436037186	0.877408513	0.448064667	0.543025763	0.17066476	0.575666256
0.877318128	0.450826119	0.432447378	0.170547784	0.608391912	0.574986048
0.049116508	0.042333056	0.07720864	0.67717649	0.677109947	0.678431141
0.855960036	0.11670697	0.864785375	0.156180883	0.590312945	0.156550667
0.083370829	0.102195286	0.8413296	0.631220415	0.606030242	0.134806058
0.874743257	0.055366092	0.871415845	0.168572252	0.654880857	0.164756649
0.111459179	0.86449968	0.85530543	0.592156744	0.156279947	0.15523925
0.116764848	0.864219231	0.855934883	0.590211807	0.155915518	0.155926772
0.871808943	0.87458425	0.055380406	0.164842713	0.16856323	0.654956847
0.062447321	0.062526509	0.062544631	0.638485678	0.638422255	0.638675403
0.42318105	0.877366494	0.466336253	0.57106743	0.170589181	0.608097151
0.057607666	0.044106916	0.076391916	0.67516882	0.675069081	0.676640683
0.044880367	0.872072558	0.874433789	0.658949572	0.165092283	0.168802999
0.854745301	0.111428936	0.864809183	0.155483481	0.59208296	0.156709948
0.060024578	0.06001705	0.059998882	0.640053497	0.640202285	0.640449352
0.062445143	0.062520396	0.062517965	0.638463849	0.638231561	0.638606675
0.44367921	0.447673554	0.87736523	0.60700184	0.576787789	0.170568243
0.092685865	0.099715596	0.841506629	0.629550093	0.604786966	0.134989234
0.425171124	0.877425765	0.465500747	0.572607479	0.170625475	0.609205932
0.877336349	0.448098185	0.435805681	0.170535951	0.575891178	0.542964894
0.092732775	0.099765219	0.841684682	0.62951693	0.604587926	0.13491626
0.874044236	0.047813303	0.871735059	0.168166916	0.658707008	0.164915821
0.053817983	0.048094461	0.077715771	0.673637198	0.675600822	0.676379103
0.877260857	0.437039184	0.446291981	0.170612162	0.575753616	0.546037476
0.099790536	0.841547858	0.092768988	0.604222846	0.13480514	0.629329417
0.877486208	0.46181444	0.421425253	0.170540651	0.609125223	0.572671914
0.877279071	0.448077807	0.435774474	0.170577986	0.575871962	0.542933888
0.875170257	0.055336139	0.872678576	0.168563724	0.654996953	0.164751628
0.423922947	0.877308473	0.466050092	0.571952651	0.170490328	0.608766224
0.072377862	0.064751479	0.087003868	0.670744796	0.670234147	0.671896643
0.459150825	0.425673558	0.877330417	0.57550982	0.539456469	0.170590451
0.044977913	0.872227701	0.874199719	0.65839672	0.165190729	0.168308352
0.425666141	0.87730061	0.459039213	0.53936169	0.170543337	0.575509284
0.083656824	0.083715026	0.084276268	0.632259308	0.632367012	0.632855298
0.083367044	0.083810025	0.084046175	0.632362051	0.632189433	0.632717297
0.070158851	0.065880894	0.084882335	0.66978029	0.670737707	0.671436225
0.841676828	0.102991924	0.099045836	0.134986217	0.628234235	0.602950897
0.083790655	0.0750132	0.869049536	0.673611739	0.661395234	0.162620999
0.047128328	0.871299089	0.87476127	0.656837181	0.164577539	0.168492512
0.854571897	0.107860049	0.865090327	0.154442703	0.593693265	0.156563251
0.079852889	0.082827327	0.868941277	0.678245542	0.666718143	0.162430228
0.107609969	0.864639667	0.855278788	0.593889081	0.156785323	0.155102171
0.870990857	0.874963508	0.076001578	0.164494556	0.169143593	0.65047349
0.877164148	0.450874487	0.432200454	0.170566892	0.609951026	0.576451809
0.130467574	0.862590597	0.857854009	0.586384669	0.154630135	0.156900249
0.044349144	0.871522572	0.874211324	0.658865869	0.164768612	0.16854617
0.869075342	0.083152409	0.074271215	0.162691349	0.672891194	0.661110789
0.877386497	0.437116222	0.446338854	0.170591012	0.575729611	0.546039553
0.876151921	0.055328256	0.873290238	0.168729704	0.654906531	0.165261393
0.062631729	0.062492903	0.062654695	0.638918714	0.638639272	0.638625013
0.86357102	0.856135285	0.116705319	0.155673032	0.155630653	0.590295525
0.070006667	0.065020175	0.084356862	0.670653105	0.671094789	0.67271857
0.437072197	0.446342106	0.877350021	0.575732183	0.54605093	0.170545889
0.868972803	0.084601747	0.082482082	0.162624391	0.673910209	0.661370712
0.855622418	0.111451882	0.864014166	0.155045078	0.592157168	0.15593376
0.877344932	0.451284821	0.432018797	0.170545928	0.608908035	0.575368741
0.09915841	0.841766749	0.103157895	0.602670238	0.134962356	0.627767319
0.874363944	0.055280286	0.87133888	0.168225771	0.654976655	0.164651375
0.465172875	0.424844862	0.877315536	0.610817755	0.57422379	0.170555216
0.44367921	0.447673523	0.877365224	0.607001857	0.576787782	0.170568243
0.871166741	0.873599646	0.046531232	0.164990247	0.168059262	0.658949913
0.877479665	0.448155914	0.435921732	0.170582244	0.575687423	0.542803164
0.868880335	0.078512046	0.076416299	0.162609319	0.675384299	0.662692108
0.047481643	0.043014001	0.076563574	0.677465599	0.677256535	0.679019072
0.078939088	0.076858021	0.868725648	0.673915116	0.661982196	0.162576708
0.841763262	0.09259589	0.099672745	0.134838212	0.629600008	0.604493499
0.841396345	0.083338193	0.102287929	0.134927504	0.631204269	0.606234504
0.871640402	0.874957597	0.075993474	0.164501417	0.168811548	0.650366684
0.877385796	0.451061038	0.432191331	0.170592993	0.608777726	0.575159106
0.872301686	0.874565353	0.055353669	0.164782586	0.168357159	0.654840152
0.877432957	0.480655951	0.405676301	0.170567073	0.57495446	0.532642283
0.103075878	0.841812509	0.124882853	0.598518507	0.135134567	0.624104986
0.877439098	0.484194195	0.399459768	0.170575243	0.608744083	0.565911937
0.869031692	0.076489629	0.079001936	0.162593438	0.677371345	0.663637058
0.40587724	0.877395492	0.480696029	0.532997072	0.170636599	0.575316637
0.098557151	0.081544246	0.868858675	0.667438968	0.657117252	0.162753173
0.435638205	0.87739712	0.454405463	0.574401377	0.170554293	0.607782521
0.874026531	0.055343595	0.871529168	0.167694374	0.654855777	0.164700377
0.048148452	0.04053704	0.073894387	0.677521571	0.677120028	0.679545427
0.085652899	0.869017209	0.082295304	0.665010947	0.16251043	0.677722104
0.079505004	0.869081234	0.088236256	0.662145578	0.162702126	0.673981847
0.855468525	0.107887524	0.864825454	0.155111775	0.593950067	0.156770321
0.086319596	0.07733019	0.869088336	0.672976437	0.661972174	0.162613915
0.130470343	0.862462392	0.857708607	0.586386774	0.154834474	0.157048688
0.871948367	0.874204838	0.047693892	0.16493256	0.168191408	0.658352969
0.4591852	0.425662152	0.8773473	0.575510324	0.539455368	0.170588201
0.435679182	0.877286134	0.45404996	0.574781293	0.17055036	0.60857499
0.045051116	0.871608464	0.874317861	0.658685472	0.165063775	0.168724845
0.869164787	0.097990057	0.080390883	0.162565924	0.669928102	0.656711426
0.865023855	0.854670415	0.107716473	0.156539036	0.154447882	0.593642217
0.111423163	0.863170928	0.854696516	0.592143525	0.155787779	0.155046156
0.085541989	0.869022133	0.082142015	0.66485635	0.162501534	0.678181126
0.044755751	0.872085329	0.874418809	0.65891031	0.16506033	0.168761547
0.841300973	0.083369723	0.102271374	0.134918905	0.63097574	0.606101689
0.103023257	0.099010523	0.841712389	0.627984736	0.602737037	0.134908691
0.868868217	0.098194663	0.08094952	0.16259906	0.667265429	0.655489794
0.103233954	0.841624473	0.124800968	0.59856723	0.135235337	0.623774416
0.099205985	0.841639929	0.103074316	0.602517626	0.134952431	0.627795163
0.11671283	0.863727206	0.856084307	0.590351441	0.155621562	0.155617354
0.841373299	0.083345569	0.102217031	0.134795533	0.630907641	0.606009607
0.098275779	0.08177829	0.86895718	0.665918473	0.653383764	0.162699317
0.868721205	0.084790809	0.082839783	0.162646659	0.674416389	0.661607324
0.857713386	0.13040083	0.862876114	0.157592978	0.586412299	0.15560459
0.856560244	0.111452673	0.86515313	0.155427737	0.592107258	0.156553922
0.874085083	0.076023219	0.869786867	0.168042789	0.650502954	0.164262213
0.107644173	0.865024978	0.854804501	0.594042688	0.156589511	0.154596976
0.12499547	0.103121875	0.841489486	0.623470342	0.598422533	0.135336482
0.062516388	0.062517167	0.062763008	0.638571462	0.638587256	0.638722256
0.047169814	0.87229137	0.874012072	0.656780894	0.165479282	0.168669702
0.085338739	0.088606573	0.869032892	0.676588747	0.663899598	0.16239553
0.116729563	0.86434587	0.856441364	0.590268061	0.156067639	0.156157087
0.072124458	0.064801698	0.086868816	0.671539813	0.670347068	0.672124195
0.04733377	0.043278665	0.076672354	0.677278197	0.677319288	0.678878408
0.868859407	0.078499892	0.07642819	0.162612382	0.675369105	0.662649609
0.402947633	0.87736017	0.485919851	0.565431895	0.170566643	0.608323741
0.841684392	0.102953703	0.099068986	0.134958547	0.627743212	0.60256015
0.446320741	0.877350425	0.437095355	0.545945783	0.170477078	0.575669979
0.87744917	0.480555866	0.405796672	0.170567992	0.574984395	0.532679046
0.102184871	0.841789495	0.08340432	0.605946345	0.134757187	0.631388231
0.083015157	0.869012439	0.084372858	0.662444023	0.162511421	0.675430185
0.057181452	0.044358472	0.076604843	0.675380553	0.674670967	0.676440766
0.111412995	0.864485562	0.855358642	0.592149646	0.155889617	0.154874498
0.487053702	0.401592533	0.877432283	0.607635171	0.56453899	0.170527014
0.874605653	0.048152152	0.871758679	0.168441493	0.659422146	0.164930752
0.841645184	0.083371972	0.102263535	0.134742832	0.631169568	0.605965601
0.078820847	0.868957826	0.085702792	0.659487649	0.162693718	0.672278245
0.841666506	0.092602095	0.099708691	0.134854509	0.629870792	0.60450448
0.459116482	0.425673951	0.877319097	0.575260647	0.539206643	0.170533182
0.864243226	0.855479428	0.111465618	0.156206057	0.154928525	0.59195143
0.102274324	0.84186327	0.083308375	0.605793374	0.134699124	0.631366391
0.08025369	0.077699212	0.868714613	0.673930124	0.662299346	0.162703361
0.080106882	0.076808801	0.868780819	0.676314121	0.664790788	0.162555602
0.116703537	0.863428139	0.856007253	0.590426592	0.155606223	0.155662781
0.075974978	0.871269534	0.87544973	0.650566799	0.164671397	0.169205478
0.874996322	0.055343992	0.871920992	0.168524343	0.654955976	0.164776468
0.125193816	0.103368867	0.841587297	0.623333785	0.598403359	0.135364362
0.480651939	0.405820733	0.877344706	0.575209013	0.532856069	0.170523487
0.871759129	0.874653492	0.055353482	0.164733758	0.168343093	0.654840132
0.874376988	0.047139823	0.872066098	0.168117564	0.657125226	0.165009632
0.055322904	0.872263025	0.874203686	0.654889832	0.164639971	0.168141119
0.075993042	0.871644182	0.87453404	0.65034953	0.164510829	0.168199952
0.099157898	0.841769399	0.103163366	0.602616162	0.134965117	0.627766292
0.841649039	0.102890774	0.098919833	0.134954634	0.627824816	0.602582795
0.877395109	0.448089585	0.435913844	0.17058832	0.575611832	0.542752881
0.877381143	0.441097007	0.443266699	0.170620365	0.609773636	0.579437068
0.856009846	0.116667856	0.864594057	0.155427335	0.59036424	0.155489974
0.48064083	0.406056016	0.877540991	0.575235003	0.532767821	0.170602257
0.856523011	0.111384114	0.86551193	0.155978304	0.592201274	0.156792285
0.876114023	0.07601711	0.87230279	0.169915215	0.650501371	0.165070428
0.425676708	0.877307567	0.459044407	0.539339284	0.170526003	0.575411744
0.062558019	0.062528737	0.06262931	0.638732051	0.638727095	0.638509975
0.435678039	0.877359944	0.454300049	0.574332375	0.170557206	0.607778121
0.107491538	0.864795718	0.855295075	0.593930972	0.156820145	0.155128842
0.067606367	0.06760881	0.067883951	0.636505284	0.636500883	0.636867401
0.044191301	0.871088873	0.873810805	0.658907611	0.164832511	0.168490693
0.125024971	0.102832511	0.84173372	0.623763849	0.598756591	0.135268412
0.864587876	0.854073081	0.107723523	0.156450481	0.154288482	0.593898309
0.865578809	0.857477064	0.116706403	0.156399522	0.156414517	0.590389151
0.437064896	0.446316433	0.877311859	0.575741767	0.546081523	0.170626465
0.102323121	0.841568421	0.083365056	0.605630787	0.134661719	0.630999268
