Va	Vb	Vc	Ia	Ib	Ic
0.102154588	0.841714911	0.083419452	0.606122219	0.134768976	0.63099027
0.877391064	0.483663285	0.40018937	0.170603842	0.60863717	0.566064467
0.091697359	0.074520074	0.856193347	0.645545411	0.625857749	0.14940073
0.8746123	0.076021334	0.871630659	0.168537232	0.650475334	0.164566558
0.028346669	0.028225783	0.880949805	0.694713649	0.695134485	0.174893707
0.041224768	0.882576355	0.041460359	0.692723008	0.175860041	0.692280912
0.113765527	0.100334493	0.841754276	0.626232935	0.600739639	0.134961332
0.869086712	0.090241862	0.076393023	0.162664389	0.672149868	0.659829017
0.843960984	0.846114771	0.84639924	0.256169385	0.256724876	0.256882533
0.877448868	0.473491762	0.410125639	0.170616293	0.60929579	0.569487747
0.867754621	0.865294178	0.077721857	0.159930591	0.161513764	0.623444045
0.848824737	0.846252811	0.848911787	0.25784765	0.257089335	0.25736496
0.86340914	0.857035718	0.130373088	0.155076557	0.156914121	0.586478437
0.877290424	0.46247664	0.421002693	0.170588835	0.608620467	0.572159125
0.439778807	0.877793835	0.44892763	0.527506595	0.170700308	0.559896278
0.881426236	4.95029E-06	4.78957E-06	0.175340586	0.699492261	0.699683422
0.40562235	0.877296355	0.48079762	0.532759225	0.17055759	0.575063821
0.85813661	0.130489791	0.862801566	0.156670611	0.586494194	0.154492092
0.092801265	0.099651236	0.841685767	0.629312212	0.604404858	0.134969273
0.027708028	0.027482065	0.027714794	0.694846577	0.694468013	0.695082925
0.102984224	0.09925722	0.841508523	0.62770842	0.602603981	0.134968381
0.139903483	0.131044004	0.825583879	0.606060472	0.577500522	0.119205739
0.041138336	0.040918869	0.881809262	0.692696691	0.692906807	0.175296336
0.87760777	0.43879333	0.438788593	0.170857981	0.626589391	0.596438717
0.459548161	0.429562619	0.877469925	0.559865188	0.524447172	0.17076108
0.083402462	0.102205431	0.841811534	0.631217585	0.605895374	0.134727099
0.14745069	0.860292387	0.845919546	0.562692799	0.153126735	0.150829197
0.566611918	0.877261132	0.553533756	0.537119138	0.170485892	0.565720866
0.083917193	0.080550244	0.868999217	0.675636348	0.663006316	0.162520551
0.424655913	0.87741522	0.46466237	0.572973523	0.170563245	0.609736812
0.447953769	0.432609924	0.877430704	0.590835837	0.558532084	0.170254595
0.060064878	0.060034813	0.059937828	0.639800599	0.640184168	0.640011446
0.068899585	0.07126926	0.855541528	0.650039039	0.629470779	0.148957588
0.028063502	0.028114394	0.881416522	0.694764515	0.695193233	0.17484116
0.84180193	0.11383258	0.100430357	0.135159709	0.626203363	0.600839364
0.874285967	0.051566217	0.872055839	0.168374683	0.65910505	0.165022875
0.077054044	0.868331364	0.865892611	0.62329273	0.160280607	0.161694867
0.877034532	0.480627284	0.401410404	0.170692379	0.590345161	0.548130889
0.866615684	0.866433338	0.095430796	0.159157348	0.162673927	0.617720119
0.881163639	4.85032E-06	4.84717E-06	0.175388215	0.699095249	0.699441193
0.841651173	0.124738299	0.10363745	0.135286516	0.623367215	0.598041615
0.872548447	0.875867197	0.065199803	0.165476591	0.169040877	0.652820836
0.40583561	0.877358903	0.480691272	0.532733546	0.170611505	0.575036466
0.475779387	0.41363794	0.877354014	0.609023376	0.569717902	0.170621953
0.864169504	0.857048641	0.13035453	0.155160675	0.156937501	0.586542765
0.458811335	0.421788273	0.877036065	0.590590708	0.554948638	0.170341332
0.825650687	0.277022116	0.27910302	0.118331902	0.611747609	0.584009173
0.877326068	0.450367992	0.426943288	0.170668737	0.626540385	0.593040214
0.415489427	0.877355364	0.469998433	0.536016028	0.170533909	0.575267536
0.48057844	0.401238604	0.877132742	0.590079874	0.548141683	0.170151235
0.856967288	0.079600206	0.071810633	0.14924232	0.647907955	0.627510871
0.082924036	0.868935755	0.08475331	0.660094463	0.162670918	0.673287596
0.843180729	0.133722139	0.861614229	0.147530103	0.567810929	0.154533636
0.041131678	0.040953956	0.880745813	0.692520718	0.693133545	0.175004405
0.876823995	0.884253654	0.013707146	0.170866281	0.176141592	0.697382699
0.825902611	0.135952115	0.128736824	0.119116797	0.605963367	0.577934546
0.027325688	0.876170373	0.88353271	0.695219107	0.170896896	0.175670989
0.86039485	0.845221751	0.147459299	0.153105199	0.150732036	0.562517804
0.883936318	0.040851984	0.876782964	0.175134901	0.692948519	0.170668889
0.429581051	0.877508543	0.45956905	0.524392486	0.17065443	0.559895154
0.425648101	0.877330928	0.459091356	0.539482032	0.170477174	0.575608737
0.014112464	0.881454565	0.014303757	0.697226084	0.175423081	0.697106427
0.429671133	0.877740388	0.45970745	0.524414513	0.170737115	0.559754494
0.826145645	0.179932578	0.195011905	0.118915679	0.610275795	0.579800784
0.874731968	0.065226742	0.871203411	0.168678213	0.652763205	0.164262879
0.047161714	0.871828189	0.87416013	0.656851283	0.16469251	0.168297208
0.855629289	0.116707952	0.864432069	0.155901063	0.590235217	0.156219185
0.85599942	0.11676567	0.863502225	0.155601618	0.590291935	0.155508477
4.81961E-06	0.881564383	4.87857E-06	0.699343829	0.175330295	0.699195893
0.415732732	0.878006238	0.462300683	0.589936127	0.170688802	0.626072829
0.43708247	0.446339627	0.877354731	0.575723974	0.546006175	0.17062359
0.883219241	0.040854121	0.875978647	0.175083237	0.692981345	0.170680345
0.846889991	0.153922436	0.859186476	0.151482996	0.560953894	0.152108199
0.860127437	0.847119991	0.153997089	0.152370198	0.151447754	0.560905907
0.825664566	0.136967816	0.126435131	0.119174424	0.604082136	0.577124794
0.877365843	0.448089897	0.435851905	0.170628167	0.57577194	0.54288296
0.141782447	0.862647972	0.846861766	0.564525629	0.154168035	0.150313665
0.881765508	0.041271606	0.04086874	0.175496773	0.692748012	0.692939084
0.415434571	0.877397444	0.461990165	0.589649746	0.170812181	0.626204605
0.144483062	0.131485322	0.097399744	0.618893211	0.617828742	0.61528688
0.877356596	0.45898386	0.425623718	0.170578107	0.575655226	0.539633302
0.32912591	0.825990555	0.32070726	0.58689552	0.118645605	0.613241988
0.073314398	0.855293192	0.071761889	0.62934743	0.149419373	0.649553264
0.841594587	0.102895911	0.098946377	0.134988383	0.627635775	0.602544935
0.877326554	0.437126087	0.444128603	0.170400766	0.591491891	0.56194585
0.446382462	0.877437787	0.437121201	0.546076016	0.170607308	0.575759097
0.473524546	0.404148509	0.877562067	0.625696903	0.585996687	0.170421679
0.072949277	0.855036189	0.071470324	0.629604046	0.148972566	0.649840207
0.884179316	0.013709242	0.876429137	0.175856252	0.697525119	0.170889527
0.059628975	0.063943474	0.062271202	0.652111879	0.651787825	0.652080458
0.86486754	0.854638556	0.107788133	0.156323235	0.154273441	0.593666059
0.45955348	0.429626058	0.87753804	0.559796043	0.52427683	0.170794465
0.09735482	0.142856017	0.182135241	0.618471536	0.618609575	0.620776728
0.486894078	0.401406945	0.877450387	0.609395973	0.566038534	0.170502026
0.86898181	0.083253347	0.075654334	0.162676577	0.674410979	0.660972986
0.8558285	0.123099939	0.862984914	0.155710626	0.588421289	0.154961347
0.442949323	0.448245454	0.877347343	0.606570189	0.576604476	0.170603107
0.079588412	0.082694115	0.868941191	0.679007971	0.666108581	0.162490591
0.269947196	0.825581486	0.276039791	0.581894083	0.118597039	0.611513673
0.462134317	0.415571425	0.877678554	0.626259466	0.589627942	0.170761707
0.869189095	0.098301686	0.080937359	0.162678944	0.669698975	0.657318898
4.83944E-06	0.88236729	4.93513E-06	0.699256978	0.175356664	0.699318144
0.12866345	0.108850682	0.145330356	0.615753821	0.613035967	0.615798668
0.132970422	0.825429339	0.149543984	0.574289235	0.119089573	0.603567948
0.028035451	0.027607098	0.02848737	0.695282965	0.695572222	0.69532816
0.073811834	0.855595996	0.08247575	0.628090739	0.149430756	0.648173527
0.434940445	0.877527436	0.454865946	0.574536723	0.170565397	0.607935303
0.411505422	0.877195947	0.469751084	0.551563425	0.170466464	0.59057831
0.083407172	0.102227294	0.841797093	0.631244093	0.605960796	0.134733094
0.092679742	0.099552242	0.841437818	0.6295577	0.604517066	0.134825409
0.876957111	0.470093335	0.411822387	0.170271908	0.589810266	0.551213739
0.826167495	0.234049918	0.247995756	0.118934156	0.612965352	0.583638938
0.48063781	0.405846752	0.87743281	0.574753923	0.532328238	0.170557387
0.103344411	0.841897303	0.125031709	0.598738522	0.135352994	0.623564955
0.073674385	0.855069573	0.082547052	0.627565331	0.149371622	0.647485062
0.233711466	0.245996543	0.826092443	0.607080719	0.580825943	0.119073197
0.070473482	0.051687114	0.08324785	0.67348482	0.672547932	0.674855895
0.868941311	0.090475111	0.076600095	0.162708794	0.671518859	0.65927392
0.4595565	0.42965656	0.877573228	0.55978211	0.524382526	0.170645846
0.438698275	0.438693544	0.877418093	0.626721553	0.596336822	0.170520874
0.054301534	0.881877204	0.054629193	0.690941647	0.175432879	0.690487465
0.85553507	0.102841139	0.079019628	0.149241269	0.643383296	0.623653574
0.070266217	0.071585504	0.074054147	0.649796727	0.650253381	0.65050503
0.877599797	0.474000506	0.482761818	0.17071283	0.561869206	0.532167739
0.079594022	0.86904256	0.089014797	0.664318187	0.162636215	0.673954714
0.877179968	0.462077713	0.421023151	0.170602587	0.609070752	0.572467178
0.058580619	0.037926785	0.076481111	0.679461938	0.678826601	0.680176674
0.099000273	0.08027163	0.869076623	0.667279902	0.656801489	0.162562467
0.841716819	0.092719564	0.099613681	0.134801247	0.629540785	0.604351935
0.877448411	0.473464776	0.410142881	0.170624543	0.60925999	0.569482681
0.825529636	0.136976233	0.128241694	0.118596833	0.606641597	0.577314377
0.013890227	0.014530476	0.014015099	0.696765844	0.697382336	0.696179187
0.081795386	0.867727875	0.866205633	0.62133926	0.160015531	0.16158098
0.080988459	0.855688817	0.067677413	0.631483487	0.149041501	0.652235989
0.473501941	0.404117215	0.877508859	0.625710434	0.586005193	0.170457594
0.059981266	0.060040119	0.059964406	0.640245138	0.640106157	0.639934966
0.041152503	0.040949064	0.881219973	0.692397222	0.693077446	0.175149587
0.1018802	0.13432709	0.181034608	0.618230327	0.618967546	0.620496634
0.862218288	0.842699352	0.133731926	0.154695663	0.147438454	0.567697006
0.877190558	0.459072948	0.422037017	0.170312622	0.590448994	0.554556124
0.013708979	0.876281912	0.883154315	0.697452731	0.171035857	0.175241004
0.877237127	0.470118697	0.419640111	0.170665303	0.559654726	0.520953566
0.866574602	0.104100869	0.866513736	0.162606544	0.615122749	0.159200306
0.877635544	0.448032772	0.433113153	0.170646335	0.591230094	0.558677356
0.855483482	0.079640594	0.071929681	0.148874031	0.648051866	0.627795698
0.040859842	0.876583779	0.883299522	0.693135029	0.170553132	0.175794312
0.871456701	0.876051645	0.065191238	0.164534917	0.168869645	0.652701727
0.113763405	0.100310158	0.841616694	0.626042674	0.600627879	0.135021989
0.051749197	0.053921556	0.058263732	0.654332046	0.654331315	0.654500351
0.458767274	0.421767522	0.876973604	0.590763334	0.555004967	0.170328112
0.882731347	0.054278734	0.875641614	0.174739514	0.690561153	0.170811893
0.091101474	0.07746576	0.868828599	0.667915054	0.657598112	0.162573957
0.864884963	0.077028331	0.867306928	0.160968915	0.622745531	0.159839139
0.848922868	0.846279346	0.848778213	0.257745227	0.256935841	0.257590356
0.068855684	0.071355662	0.855121813	0.649826366	0.629705866	0.148950578
0.147429029	0.86027834	0.845798876	0.562688678	0.153116519	0.150824625
0.062532117	0.06248079	0.062468378	0.63840403	0.638420859	0.638521312
0.46986197	0.41569038	0.877384986	0.575499975	0.536278918	0.170607069
0.075992852	0.871616196	0.874944014	0.650503285	0.164430343	0.168736462
0.413951645	0.877441748	0.475801157	0.566133848	0.170662607	0.605486248
0.139394781	0.131537715	0.82635725	0.605817103	0.577306345	0.119252052
0.874292032	0.055394077	0.872365955	0.168591669	0.655142753	0.164751901
0.099611151	0.080998409	0.869069089	0.668654343	0.656669233	0.162624345
0.841653763	0.113708216	0.100409829	0.135158696	0.625843853	0.600904155
0.059425176	0.064086175	0.063396235	0.652073628	0.651565436	0.651139872
0.040478034	0.046504336	0.074376752	0.677735335	0.677110882	0.679703635
0.843427413	0.137178829	0.860747236	0.148408324	0.566200001	0.154164283
0.48090037	0.405770857	0.877521678	0.574780473	0.532328637	0.17056226
0.080315727	0.869049358	0.092997098	0.658313271	0.162579648	0.67029894
0.443364855	0.447991165	0.877374139	0.606602776	0.576872486	0.170590077
0.459073728	0.425727447	0.877390834	0.575491008	0.539380915	0.170570521
0.067540067	0.06770954	0.067725789	0.636364193	0.63659785	0.636772668
0.078987079	0.868804937	0.087704117	0.662176473	0.162687931	0.674404542
0.86689621	0.866532548	0.081771519	0.159616197	0.161928313	0.621154912
0.045560887	0.047934592	0.053490719	0.655755899	0.656777874	0.656805799
0.508630837	0.500322222	0.877503459	0.560867243	0.532591187	0.170828778
4.82968E-06	0.881305293	4.88198E-06	0.699154651	0.175304153	0.698918695
0.757994278	0.761359816	0.759411643	0.384092359	0.383967792	0.384676007
0.340878802	0.82524975	0.340083106	0.58250294	0.118605955	0.611679855
0.410290202	0.877824686	0.481052898	0.517510975	0.170891761	0.559493257
0.102328731	0.13430989	0.180331463	0.618210442	0.619587338	0.621349002
0.045572549	0.048403389	0.051831586	0.657699971	0.65820891	0.659120235
0.092015803	0.074310815	0.855855946	0.645418691	0.625737377	0.149521801
0.876398562	0.882611598	5.49654E-06	0.171438167	0.175590277	0.699236645
0.419901222	0.877651004	0.470266613	0.520887282	0.170583309	0.559677338
0.877489689	0.480524953	0.405814989	0.170524833	0.575011011	0.532651457
0.213168166	0.825993036	0.214513415	0.581286457	0.119375501	0.608881013
0.01440819	0.881133279	0.014465709	0.69717503	0.175236802	0.697678662
0.415514924	0.87755594	0.462068633	0.589680218	0.170726295	0.626198447
0.279706549	0.300222686	0.8258897	0.61304127	0.583832117	0.118714431
0.876716725	0.438347549	0.438342837	0.170268499	0.626581712	0.596402525
0.47023789	0.419804047	0.877524835	0.55965011	0.520988289	0.170616359
0.874483012	0.055444735	0.871826157	0.168544528	0.655052687	0.164613427
0.847128243	0.846371435	0.847829848	0.257753969	0.256750638	0.258045151
0.014150955	0.014064337	0.882479742	0.697510305	0.697094104	0.175416775
0.070992685	0.051388123	0.083179262	0.673468855	0.672526336	0.674684037
0.090954814	0.078719824	0.868993965	0.668400831	0.657123295	0.162645041
0.866688778	0.866395515	0.095508328	0.159222341	0.162316926	0.617240794
0.470041325	0.411723934	0.877680345	0.590651674	0.551446896	0.170630713
0.013808958	0.014118116	0.013914627	0.697263193	0.696798016	0.696286386
0.068843197	0.071381122	0.855064913	0.649827098	0.629637607	0.148989762
0.141782576	0.85998567	0.845767678	0.564466574	0.15412742	0.150358877
0.876017674	0.882549432	0.027317448	0.17051984	0.175796707	0.694993505
0.045950307	0.048399162	0.053090755	0.657844182	0.658910966	0.659897533
0.085606721	0.868987029	0.082355676	0.665333034	0.162507637	0.677374672
0.014272959	0.881626734	0.014248861	0.697196711	0.175470997	0.697067617
0.841750791	0.092700209	0.099704356	0.134799662	0.629650204	0.604242294
0.264418163	0.270669164	0.82627245	0.609253693	0.580230657	0.118642198
0.206202069	0.825915475	0.204547537	0.577407835	0.119365194	0.606541584
0.130425894	0.863396177	0.857187149	0.586543857	0.155210488	0.157323753
0.476465752	0.413295535	0.877408381	0.610481881	0.570396481	0.170558054
0.091807387	0.074279017	0.855244894	0.645421524	0.625792184	0.148967709
0.140168924	0.130775849	0.824636354	0.604614078	0.577537625	0.118823475
0.091648697	0.074366993	0.856339238	0.645408057	0.625767571	0.14988408
0.066914596	0.078715448	0.854950161	0.654002505	0.634106645	0.148735021
0.411618098	0.877629302	0.470087606	0.551689392	0.170340998	0.590525399
0.066219649	0.078888547	0.854464382	0.653822131	0.634235712	0.148930818
0.843578889	0.13718763	0.861167642	0.14845229	0.56618992	0.154192986
0.013703661	0.876067248	0.883586381	0.697117402	0.170710268	0.175533331
0.103436674	0.841713592	0.125059518	0.598518482	0.135319662	0.623479528
0.476208816	0.412994798	0.877341836	0.610620529	0.570863768	0.170533682
0.392803529	0.877220829	0.484668523	0.582682545	0.170794013	0.625225227
0.102973574	0.078810773	0.855347642	0.643476562	0.623627208	0.149247855
2.77128E-06	2.92192E-06	2.8454E-06	0.69913568	0.69954724	0.698809679
0.884676325	0.040851403	0.875643854	0.175405399	0.69296371	0.170209138
5.49174E-06	0.873650383	0.881901842	0.69934513	0.170131642	0.17529425
0.123108685	0.863348804	0.856416161	0.588687059	0.155161354	0.156295511
0.103086086	0.099087657	0.841644797	0.627742798	0.602599766	0.134987782
0.847926321	0.846348774	0.848414062	0.257739204	0.25676589	0.257977538
0.876800116	0.884252694	0.013707148	0.170866075	0.176142576	0.69738256
0.404216697	0.87769531	0.473590124	0.586191982	0.170707206	0.625717217
0.084952813	0.868985941	0.081628098	0.665400375	0.162544263	0.67736532
0.85679528	0.123042795	0.863918913	0.156484519	0.588469804	0.155491669
0.137206076	0.861777303	0.843480178	0.56613419	0.153986922	0.148452979
0.070550302	0.051623974	0.082962342	0.673346298	0.672541115	0.674503538
0.445695849	0.877482603	0.437823624	0.563007519	0.170531272	0.592670229
0.869078248	0.097184154	0.080089153	0.162775672	0.669610555	0.656106377
0.861043427	0.845279442	0.141773353	0.153817143	0.14993955	0.564509526
0.445270692	0.877365807	0.438023727	0.562842604	0.17046833	0.592568332
0.841923753	0.092740302	0.099642779	0.134787091	0.629651218	0.604386442
0.081272303	0.273899091	0.261005394	0.620213803	0.622186739	0.623518505
0.076989807	0.080397349	0.868969042	0.678287447	0.666041618	0.162521752
0.104045456	0.866256787	0.866835632	0.615707073	0.159200651	0.162838665
0.841445969	0.102923394	0.099080724	0.134974692	0.627828508	0.602817456
0.074675458	0.075030422	0.075041085	0.634189458	0.634361627	0.63450907
0.877253441	0.884634764	0.013706855	0.1710703	0.175742878	0.697357484
0.1442313	0.826371708	0.150599534	0.576933627	0.119321371	0.604740754
0.841804909	0.113862975	0.100540683	0.135164544	0.626210287	0.600827327
0.448146851	0.435898252	0.877402431	0.575800609	0.542870828	0.170559904
4.9219E-06	4.82939E-06	0.882144302	0.699213048	0.699397221	0.175112164
0.84582318	0.147480915	0.859283046	0.150281634	0.562777264	0.152413891
0.348658942	0.825467043	0.342318375	0.585643991	0.11849522	0.612889588
0.401235872	0.877033459	0.480550371	0.548558797	0.169904323	0.590364085
0.331620932	0.826202938	0.33031362	0.584213433	0.118880091	0.613602111
0.469823633	0.415734663	0.877368361	0.575484397	0.536328204	0.170539594
0.444551752	0.877947657	0.439018707	0.562184525	0.170486052	0.591608749
0.825493535	0.147941747	0.131417923	0.119111459	0.604673068	0.575266388
0.340693149	0.825835935	0.331003358	0.582614813	0.118918688	0.612235559
0.111439912	0.864165059	0.855655078	0.592117329	0.155840269	0.155071876
0.147423698	0.133852937	0.82527625	0.603659329	0.573399244	0.119093169
0.137211182	0.861739184	0.844361002	0.566080443	0.15463038	0.149087074
0.425557595	0.877180914	0.459022006	0.539495416	0.170518935	0.575602739
0.855779654	0.068680638	0.071974511	0.149053796	0.650169941	0.629717329
0.439690155	0.877556881	0.448783448	0.527492569	0.170714718	0.559903745
0.861457251	0.843006998	0.137153124	0.154210992	0.148611802	0.566262145
0.877382956	0.462728857	0.420638713	0.170665107	0.609512126	0.572974882
0.439050601	0.43904595	0.878122921	0.626638762	0.596330415	0.170708174
0.447763229	0.432435205	0.877054875	0.590833059	0.55834939	0.170149732
0.877347454	0.437184654	0.444245044	0.170343825	0.591471374	0.561967265
0.876354336	0.883578813	0.040857249	0.170875096	0.175949066	0.69308479
0.87275299	0.873869345	0.075934737	0.164730282	0.168661869	0.650385239
0.868942377	0.0978564	0.080739876	0.162772649	0.666500293	0.653983689
0.06005014	0.060040927	0.059939218	0.639834485	0.640168077	0.63994097
0.448676568	0.439627727	0.877372727	0.559898975	0.527577112	0.170537619
0.867043085	0.86579107	0.077331102	0.159812131	0.161426191	0.622640662
0.854730522	0.116683213	0.862716841	0.155381618	0.590436439	0.155307943
0.071226506	0.051315624	0.0828377	0.673398899	0.672643217	0.674805096
0.856822437	0.068764361	0.072125876	0.149582688	0.650196954	0.628835071
0.856680666	0.091261394	0.074172105	0.149308513	0.645810823	0.62566284
0.099240342	0.841774306	0.103065184	0.602388167	0.134906825	0.627658787
0.484911965	0.393053224	0.877713567	0.625401244	0.582440062	0.170623005
0.874086705	0.049209493	0.872419423	0.168253457	0.658851934	0.165105812
0.10127232	0.129062613	0.170562951	0.617156734	0.622122935	0.620715322
0.842914519	0.133825873	0.861405841	0.147379984	0.567696694	0.154405037
0.8773889	0.469814809	0.415563359	0.170556541	0.575403465	0.536120145
0.480504977	0.405799694	0.877274065	0.575017198	0.532528153	0.170526401
0.45905825	0.422125236	0.877615051	0.590855952	0.555016904	0.170567254
0.401605869	0.877595524	0.480732639	0.548225892	0.170460674	0.589948655
0.476463898	0.41302156	0.877421195	0.6096834	0.569357674	0.170560262
0.154568444	0.143774749	0.094395101	0.616788865	0.616296183	0.615175114
0.081639988	0.869260617	0.099398627	0.656387307	0.162637541	0.669036041
0.487052199	0.401399037	0.877438319	0.607419228	0.564315266	0.170529302
0.869024907	0.080191189	0.07718849	0.162572768	0.674726878	0.66311497
0.041137909	0.040918725	0.881239766	0.692320385	0.693068428	0.175290266
0.866221291	0.08770514	0.867588962	0.161903616	0.619365083	0.159260553
0.437321197	0.445416545	0.877418126	0.592769614	0.563237698	0.170477864
0.40583068	0.877396892	0.480799465	0.532778771	0.170532418	0.5751732
0.866289785	0.866906983	0.104225106	0.159159207	0.162941365	0.615606784
0.856024517	0.130483786	0.861688846	0.156585004	0.586472325	0.154384473
0.083401792	0.102201899	0.841809562	0.631196299	0.60577755	0.134713433
0.8773276	0.459025483	0.425543123	0.170599287	0.575692079	0.539643699
0.884055129	0.013706165	0.876168516	0.175066125	0.697324225	0.17045196
0.076982935	0.868195237	0.865953317	0.623249017	0.160251501	0.1614248
0.865505751	0.077063544	0.866992981	0.161118331	0.622907267	0.159456293
0.027323218	0.876644858	0.883263719	0.695153897	0.170821493	0.175492867
0.080230623	0.869020145	0.093706643	0.659131173	0.162685965	0.670401331
0.864337711	0.857259157	0.130365112	0.155142661	0.156893792	0.586521734
5.49098E-06	0.875637591	0.884139908	0.6992859	0.170203491	0.175741206
0.081819059	0.855768651	0.068464376	0.632318976	0.149020156	0.652777474
0.459035163	0.425766166	0.877376741	0.575487005	0.539360436	0.170580845
0.448125822	0.435913059	0.877399873	0.575756041	0.542812887	0.170569713
0.877630381	0.448036717	0.433095366	0.170647617	0.591228552	0.558676701
0.47056205	0.420018926	0.878073894	0.559665245	0.520995886	0.170857837
0.204925689	0.826110963	0.202422899	0.578675694	0.11934828	0.606794765
0.868661639	0.08102308	0.077996554	0.162585137	0.674624754	0.662727086
0.420001787	0.878021928	0.470522801	0.520854898	0.170850234	0.559762932
0.055361126	0.872357178	0.874827993	0.654955573	0.164924806	0.169015135
0.141750264	0.860693294	0.84476148	0.564511388	0.153484741	0.149671473
0.133745692	0.86200091	0.844351011	0.567773751	0.154846596	0.147857583
0.877712916	0.437809007	0.443977283	0.170535496	0.591875987	0.562654542
0.073095928	0.855553077	0.082185156	0.627737459	0.149484525	0.647527199
0.824879362	0.190550323	0.202749083	0.118710097	0.612130097	0.579639049
0.455005178	0.435887796	0.877399777	0.611029203	0.577432543	0.170589315
0.855700462	0.116694659	0.864284099	0.155879235	0.590292707	0.156183549
0.867007188	0.104050493	0.866729717	0.162687366	0.615471043	0.159138609
0.404169197	0.877614483	0.4735561	0.586256271	0.170693408	0.625734287
0.844931876	0.147484121	0.858434815	0.150216978	0.562793655	0.152495477
0.421645659	0.876767792	0.458772453	0.554785417	0.170132358	0.59017672
0.426932895	0.877310887	0.450363505	0.593184735	0.170523807	0.626470402
0.874691926	0.076034831	0.871519001	0.168319627	0.650556523	0.164826843
0.446314018	0.877316288	0.437068384	0.546063416	0.170549182	0.575740703
0.054621215	0.054837125	0.054603759	0.690439	0.689946847	0.690314453
0.875159322	0.075955866	0.871825425	0.169031417	0.650410759	0.164652553
0.075988163	0.870963181	0.873863608	0.650511627	0.164505505	0.168720545
0.435919944	0.877396855	0.448153456	0.542696512	0.170593177	0.575603505
0.04713199	0.870788119	0.873705591	0.656903146	0.164578941	0.167845991
0.027323263	0.876344919	0.883447281	0.695155214	0.170848353	0.175516296
0.066826315	0.079491982	0.854903158	0.653344654	0.633511551	0.148702354
0.251708806	0.256952506	0.825264517	0.608445075	0.580934683	0.118552194
0.866228595	0.10402871	0.866651511	0.162763449	0.615313391	0.159292179
0.027322062	0.87647071	0.882943163	0.695106392	0.17073209	0.17527932
0.437094231	0.446338	0.877364314	0.575743281	0.546039276	0.170600649
0.875235241	0.884989878	5.49805E-06	0.17050199	0.175982041	0.699616032
0.073689285	0.85493526	0.082450097	0.627633696	0.149398547	0.64745428
0.01370689	0.876442009	0.883804396	0.697276668	0.170941166	0.175794893
0.184855748	0.160839573	0.097860625	0.617191518	0.616444554	0.615624588
0.487210759	0.401121796	0.877462937	0.607563595	0.564572066	0.17049502
0.422107786	0.87745424	0.458969612	0.555310786	0.170429854	0.591147702
0.046042119	0.048288251	0.052737957	0.65780998	0.659021464	0.659847591
0.082926182	0.080232995	0.868870307	0.675938926	0.66385179	0.16259941
0.87734655	0.484733921	0.392863258	0.170587684	0.625306003	0.582581708
0.75844416	0.758398207	0.760888161	0.384149477	0.383605569	0.383672104
0.868854452	0.080544873	0.076993504	0.162637715	0.67263193	0.661562188
0.401606496	0.877591916	0.480730171	0.548225778	0.170460211	0.589948718
0.054644277	0.05428782	0.880650477	0.690006066	0.690424018	0.175138364
0.48639004	0.401860686	0.87741978	0.609617882	0.56626735	0.170501587
0.070891811	0.051707373	0.083511304	0.673585472	0.67251315	0.674162957
0.855758837	0.079448237	0.071847341	0.149342535	0.647756525	0.62720012
0.105875033	0.1238996	0.173570934	0.615987075	0.619240394	0.616573013
0.111525154	0.863661447	0.854505179	0.592016786	0.155836939	0.155104118
0.877436122	0.450694079	0.432342671	0.170567095	0.609655224	0.576270257
0.865829047	0.081512602	0.867500154	0.161404393	0.621175312	0.159630573
0.873508601	0.065230463	0.870675353	0.168721747	0.652753697	0.164469865
0.868861119	0.075524008	0.078680542	0.162527043	0.676641959	0.664500919
0.876998195	0.45020305	0.426780766	0.170583076	0.626435999	0.593124317
0.88181819	0.054555821	0.054223797	0.175822452	0.690196568	0.690262224
0.079728274	0.071557646	0.855629705	0.648164687	0.627237613	0.149068659
0.067708826	0.067600788	0.067849342	0.636437351	0.63657263	0.636764789
0.401685897	0.877765437	0.480792129	0.547902417	0.170753034	0.589610773
0.877344261	0.459021436	0.42558466	0.170598598	0.57568961	0.539651729
0.091298553	0.07818162	0.869116791	0.66847052	0.65712232	0.162633126
0.877359176	0.459129964	0.422144681	0.170397173	0.590590347	0.554770609
0.065230376	0.87199131	0.874558943	0.652893603	0.165222042	0.168647202
0.095429477	0.866783314	0.865675035	0.6175322	0.159203057	0.162113823
0.439037959	0.878106794	0.439042683	0.596310005	0.171215302	0.626726099
0.401589673	0.877734908	0.480870351	0.548530767	0.170667096	0.590158311
0.130374688	0.86271059	0.856702135	0.586470147	0.154678423	0.157157976
0.392982102	0.877578453	0.484846555	0.582628533	0.170720577	0.625163244
0.465996539	0.424423571	0.877281958	0.608274189	0.571675709	0.170555904
0.099157884	0.841928607	0.103096925	0.602331177	0.134908357	0.627727469
0.874409455	0.065247392	0.871100949	0.168263921	0.652800378	0.164332007
0.877812242	0.473651567	0.404272485	0.170566306	0.625949997	0.586036757
0.062453114	0.062488892	0.062410342	0.638260214	0.638342791	0.638561314
0.448143308	0.43593055	0.877426913	0.575820932	0.542891292	0.170548958
0.842914149	0.133825871	0.861406477	0.147380001	0.567696656	0.154405092
0.855245847	0.064166815	0.077932128	0.148855249	0.653410932	0.632406252
0.470206784	0.419630773	0.877326853	0.559650903	0.520990402	0.170587477
0.866845895	0.104006937	0.866650372	0.162603525	0.61515175	0.159114549
0.877490069	0.480557135	0.405733831	0.170594118	0.575400308	0.532973743
0.039824596	0.046237726	0.073309203	0.677654129	0.676754547	0.678529935
0.841689786	0.124810556	0.103578242	0.135290382	0.623329233	0.598039241
0.065240512	0.872300649	0.875353069	0.652833592	0.165168887	0.168613983
0.843758765	0.137189779	0.861544475	0.148458867	0.56621594	0.154196733
0.82560954	0.136806574	0.127320526	0.118921307	0.603597397	0.576069605
0.860049609	0.844627556	0.137232073	0.154303637	0.149065986	0.566221694
0.878212986	0.450812457	0.427385792	0.170591899	0.626378636	0.593216304
0.872745402	0.874088431	0.047241094	0.164942908	0.16812128	0.656989181
0.040721151	0.046768729	0.07496161	0.67741239	0.677963502	0.680634652
0.10329752	0.841760993	0.125148568	0.598473345	0.135130492	0.62355729
0.415670209	0.877405663	0.469932574	0.536201328	0.170585084	0.575453266
0.486400208	0.401793076	0.877351387	0.607727784	0.564760151	0.170499543
0.859682917	0.84644658	0.15394098	0.152323327	0.151442815	0.560885718
0.403997517	0.877262079	0.473376073	0.586125514	0.170900273	0.625886524
0.877357396	0.473568032	0.41011686	0.170514423	0.609051519	0.569265608
0.841065823	0.083354155	0.102224975	0.134832538	0.631264422	0.605941119
0.848962893	0.846182198	0.849114692	0.257912639	0.257149897	0.257287478
0.402834641	0.877365363	0.485771423	0.564888347	0.170493923	0.607599492
0.082597231	0.079748841	0.868754856	0.675220423	0.663594587	0.162586493
0.047134166	0.87072756	0.873629779	0.656929391	0.164524678	0.167991095
0.844440998	0.141831919	0.859969609	0.14964611	0.564520141	0.153489522
0.857032182	0.10281832	0.078821029	0.149462919	0.643431784	0.623756798
0.090283771	0.075952087	0.868966202	0.668445881	0.658905184	0.162566967
0.013707776	0.876825852	0.883815377	0.697321229	0.170926939	0.175798039
0.8832737	0.054280384	0.87633878	0.175001184	0.690581784	0.170782189
0.270113174	0.283320634	0.82556999	0.613715965	0.58422088	0.118680099
0.298813284	0.825704817	0.29323133	0.584863324	0.118895247	0.614652967
0.846347366	0.147482863	0.860898429	0.150354186	0.562879703	0.1527211
0.044811105	0.049695297	0.051919611	0.657554142	0.658068264	0.658505047
0.055347985	0.872916483	0.874343553	0.654733369	0.165456653	0.168877492
0.876289515	0.882866488	0.040844926	0.170989522	0.175377002	0.692853525
0.432838665	0.877854649	0.448212279	0.558323063	0.170800441	0.591389895
0.826561384	0.201812407	0.194926382	0.118905945	0.609283002	0.578045747
0.877360539	0.469773611	0.415558548	0.170598598	0.575454047	0.536133545
0.082364333	0.079902963	0.868786757	0.675333177	0.663718059	0.162586417
0.566642844	0.877261514	0.553535697	0.537120667	0.170485679	0.565719494
0.028223576	0.028050039	0.881766741	0.69468837	0.69494492	0.175443207
0.040497986	0.046473237	0.074377801	0.677749502	0.677105359	0.679525829
0.141761262	0.860689651	0.844798123	0.56445271	0.153513211	0.149701221
0.877331171	0.459063431	0.42553587	0.170587467	0.575649358	0.539632098
0.450235079	0.426808449	0.877057802	0.626529391	0.593028729	0.17043229
0.884299399	0.040850549	0.876878782	0.175068713	0.692889225	0.170814625
0.875488657	0.883692767	5.49654E-06	0.170748488	0.175547547	0.699382947
0.133800079	0.862143373	0.844267889	0.567658528	0.154736287	0.147832026
0.878014714	0.481148877	0.410383624	0.170469165	0.559347054	0.517507337
0.447780483	0.432473005	0.877103634	0.590850009	0.558424813	0.170186845
0.881431684	4.85375E-06	4.88084E-06	0.175475232	0.698875516	0.699273019
0.877366071	0.448089412	0.435854081	0.170628137	0.575771891	0.542883054
0.87744874	0.473491792	0.410125271	0.170616329	0.60929588	0.569487713
0.881788432	4.87116E-06	4.84488E-06	0.175529177	0.699215152	0.699128908
0.841210683	0.083358126	0.102214139	0.13477084	0.63136277	0.606016798
0.405819214	0.877364883	0.480575774	0.532787431	0.170569103	0.575166504
0.874513278	0.06523866	0.871023748	0.168255414	0.65276739	0.164309195
0.068693805	0.071356991	0.855603047	0.650074534	0.629256259	0.149192599
0.874181141	0.047227698	0.870162607	0.168262306	0.657004102	0.164647928
0.045220419	0.871681057	0.874843204	0.659052494	0.165526152	0.16873302
0.855816646	0.123123089	0.86275518	0.156093826	0.588489437	0.154909182
0.87486528	0.047189713	0.871948997	0.16850814	0.656910269	0.164873705
0.113720376	0.100271324	0.84180067	0.626249517	0.600781002	0.134962457
0.070542418	0.051452955	0.082411339	0.673524664	0.672674926	0.674860421
0.079888644	0.869025244	0.093893945	0.659176491	0.162693689	0.670389407
0.060054347	0.060041891	0.059948428	0.639835219	0.640162422	0.639942184
0.111500449	0.863386104	0.854215043	0.592132783	0.156031279	0.155078192
0.291597442	0.826036386	0.298285908	0.586595239	0.118895903	0.616344098
0.476416887	0.413133852	0.877491566	0.609350553	0.568953573	0.170559597
0.074778434	0.074991529	0.075118594	0.634162764	0.634367625	0.634537762
0.450308796	0.426884245	0.877207533	0.626427802	0.593061784	0.170403453
0.077020276	0.867410088	0.865035699	0.623200795	0.160039224	0.160925744
0.876657387	0.883341833	0.040860497	0.170789137	0.175886478	0.693142176
0.877351909	0.437068667	0.44635135	0.170600276	0.57571929	0.546076261
0.857681779	0.130474935	0.862894225	0.157171127	0.586561082	0.155038187
0.066494104	0.078468372	0.856250268	0.653504076	0.633840703	0.149242644
0.868794748	0.08299922	0.075159769	0.162665485	0.673388447	0.66169545
0.848230199	0.846599264	0.847701438	0.25820242	0.257354257	0.257106963
0.845782295	0.141805553	0.859895428	0.149844194	0.564514252	0.15361924
0.878148768	0.485130975	0.39326935	0.170717935	0.625260109	0.582661311
0.87734902	0.459010524	0.425596693	0.170580317	0.575609295	0.53961277
0.86889836	0.08053393	0.077263865	0.162625932	0.672751661	0.661560443
0.825623167	0.276553906	0.27911594	0.118323425	0.610990214	0.58431256
0.877338639	0.459019848	0.425558133	0.170588363	0.575693164	0.539645933
0.469865285	0.415739433	0.877393737	0.5754236	0.536261477	0.170586711
0.876371684	0.882693226	5.49603E-06	0.171377417	0.175599547	0.699150982
0.855327818	0.064337448	0.078044307	0.148816942	0.653400162	0.632565164
0.841436862	0.102866447	0.099016082	0.134980997	0.627606997	0.602606789
0.055365147	0.872252785	0.874709751	0.654957942	0.164923944	0.169008257
0.877041821	0.469956801	0.411970598	0.170161899	0.591476067	0.552728938
0.081884292	0.867321417	0.866601591	0.62115442	0.159639804	0.161709426
0.866986219	0.865860887	0.077448407	0.159889162	0.161499106	0.622645964
0.05537579	0.871810873	0.874378323	0.654914614	0.16466638	0.168458761
0.856003536	0.079452627	0.07185929	0.149110122	0.647861784	0.627306315
0.882959851	0.054274677	0.875909816	0.17486791	0.690499609	0.170832843
0.877352982	0.450383819	0.426954436	0.170462222	0.626353223	0.593217141
0.014249924	0.01411323	0.881745247	0.697615005	0.697483631	0.175407795
0.095777243	0.866974	0.866392891	0.617420547	0.159482693	0.162634395
0.758512872	0.756348719	0.75671704	0.384147219	0.383586795	0.383427129
5.49174E-06	0.874876896	0.882861405	0.699313138	0.170304301	0.175034847
0.111397664	0.864904307	0.855815226	0.592204846	0.156287046	0.155364039
0.446330033	0.877299876	0.437036699	0.546058526	0.170593918	0.57572224
0.877182655	0.483216072	0.472476026	0.170688187	0.561498933	0.532763827
0.855849238	0.116684632	0.864355631	0.155230674	0.590290086	0.155614013
0.130408005	0.863445413	0.857005428	0.586305132	0.154845989	0.157276586
0.279281806	0.283663957	0.82577444	0.615066635	0.584647657	0.118732871
0.557267238	0.877449868	0.55066946	0.53216901	0.170575285	0.561569986
0.480872166	0.410236874	0.877582323	0.559250352	0.517682662	0.170428976
0.066313209	0.078316377	0.855683973	0.653457679	0.633369823	0.149458323
0.866495033	0.081520019	0.868073821	0.161854848	0.621650036	0.15988696
0.866427985	0.087702157	0.867554999	0.162161635	0.619177119	0.159706755
0.484982916	0.393139478	0.877870098	0.625171099	0.582583194	0.170787418
0.880688836	0.054586433	0.054239674	0.174951768	0.690185683	0.690399856
0.122591788	0.296717636	0.207092818	0.622724054	0.627846527	0.623334714
0.438653696	0.438648982	0.877328846	0.62655028	0.596355341	0.170404642
0.147030671	0.133788863	0.824752889	0.602818446	0.572198331	0.119105769
0.877284142	0.448693442	0.439490904	0.170497046	0.559757597	0.52772733
0.438869842	0.877770725	0.438874566	0.596462775	0.17056435	0.626586893
0.876050296	0.884090932	0.013706441	0.170646155	0.175823028	0.697331473
0.066467574	0.078450603	0.856183096	0.653350355	0.633735506	0.14937998
0.875816362	0.884311584	5.49831E-06	0.170804632	0.176243608	0.699643695
0.099754772	0.841624438	0.092685147	0.604564674	0.134788403	0.62981283
0.87735148	0.462534226	0.420994967	0.170625819	0.60864378	0.572219273
0.881792517	4.8245E-06	4.87572E-06	0.175528747	0.699193271	0.699153685
0.485156218	0.393298499	0.878203259	0.625245781	0.582592462	0.170618614
0.877469729	0.480415693	0.405907763	0.170583826	0.575400456	0.532937638
0.871629326	0.875760574	0.065173384	0.165075926	0.169396217	0.652777485
0.419776815	0.877571004	0.470297548	0.521039631	0.170616315	0.559654447
0.107843742	0.864569366	0.854685715	0.593737203	0.156617687	0.154512654
0.868657559	0.077944028	0.080363401	0.162577178	0.676278422	0.664291682
0.459559073	0.429652958	0.877572913	0.559818513	0.524391221	0.170626648
0.44812296	0.435906202	0.87738987	0.575756931	0.542814967	0.170569936
0.871079028	0.875576685	0.047492619	0.165238511	0.169119018	0.657121825
0.877823562	0.45061721	0.427191465	0.170645905	0.62659187	0.593061727
0.873544315	0.06523742	0.870422595	0.168232529	0.652758045	0.164369428
0.103404003	0.841637178	0.125288679	0.598590756	0.135292008	0.623459261
0.841716659	0.102958905	0.098986203	0.135010245	0.627684148	0.602589591
0.088007798	0.867292689	0.86532541	0.618995571	0.159647307	0.162142449
0.860618206	0.845539205	0.141766252	0.152953961	0.149379526	0.56457067
0.876836754	0.882588919	0.013706061	0.170595571	0.175493546	0.697285098
0.099674291	0.841878153	0.092669691	0.604429208	0.134883996	0.629762602
0.874828571	0.076013001	0.871230042	0.168543766	0.650542621	0.164518321
0.11137999	0.864827373	0.854816557	0.592038534	0.15632067	0.155285837
0.480701632	0.405781299	0.877254715	0.574563911	0.532031792	0.170546497
0.054645068	0.054254562	0.881672442	0.690158592	0.690247149	0.175085574
0.087944614	0.867682582	0.866054154	0.619377993	0.159681524	0.161986453
0.072787052	0.855862956	0.0710759	0.629772596	0.149128425	0.649772337
0.092071834	0.078968191	0.869337287	0.668217109	0.657086828	0.162652873
0.872490683	0.875190314	0.047501373	0.165314379	0.168447269	0.658894739
0.855741156	0.065090302	0.079023486	0.149084719	0.652625269	0.631320927
0.054304088	0.88166362	0.05463359	0.691036299	0.175391936	0.690250441
0.103134893	0.099066211	0.841503022	0.627706236	0.602584235	0.134966943
0.435847688	0.877236216	0.44804749	0.542875735	0.170520868	0.575820446
0.866498296	0.865712246	0.104036626	0.159282656	0.162482041	0.615227001
0.877964274	0.48112952	0.410352904	0.170617474	0.559434415	0.517389073
0.845384558	0.137222727	0.861614474	0.148961873	0.566283935	0.154400753
0.866444924	0.865858986	0.088206997	0.159337277	0.16183871	0.619585689
0.884088879	5.50058E-06	0.876113435	0.175607142	0.699409624	0.170747106
0.103851296	0.124680472	0.169068904	0.616775421	0.621773212	0.619381054
0.448118531	0.435939809	0.877406045	0.575599107	0.542634552	0.17057428
0.881518374	5.4973E-06	0.873488332	0.174850429	0.699347867	0.170049705
0.866869186	0.866310783	0.104303833	0.159391054	0.162821315	0.615157548
0.841353097	0.083367293	0.102211171	0.134821269	0.631359777	0.606231566
0.85708047	0.130427212	0.862639994	0.156627824	0.586604647	0.154392767
0.841414907	0.102940981	0.09901199	0.134979356	0.627614981	0.602621662
0.503110541	0.507077365	0.877764541	0.561831874	0.533763085	0.170651268
0.443275957	0.447464153	0.877362975	0.60731123	0.576897607	0.170600061
0.43271389	0.877414061	0.447878164	0.558047281	0.170781782	0.590906092
0.868981748	0.083355227	0.07573993	0.16266268	0.674269914	0.66144446
0.485548933	0.402541957	0.877250511	0.607574272	0.564725903	0.170492419
0.410175633	0.877464842	0.480815905	0.517460975	0.170629335	0.559453938
0.860300268	0.847096839	0.153958925	0.152348448	0.151467441	0.560923789
0.133733619	0.861894896	0.843475358	0.567744185	0.155230956	0.148236387
0.867159308	0.104004068	0.866646426	0.16274186	0.615433291	0.159203266
0.438821699	0.877674561	0.438826403	0.596453021	0.170513724	0.626603179
0.869135057	0.08250532	0.074810423	0.162603139	0.674223839	0.660498054
0.057048483	0.045291665	0.076061582	0.675478378	0.674657397	0.676427716
0.863940378	0.856435353	0.123101234	0.155486109	0.156376648	0.588628473
0.857356441	0.130469115	0.862660776	0.156719426	0.586552536	0.154572621
0.05461561	0.054250596	0.881927607	0.689959012	0.690382155	0.175668849
0.480844176	0.410041814	0.877367495	0.55924915	0.517669834	0.170418357
0.465740095	0.424638968	0.877403764	0.60878596	0.572180622	0.170591194
0.42961555	0.877656286	0.459688381	0.524430577	0.170846292	0.559753043
0.841640556	0.125158722	0.103757656	0.135299786	0.623284839	0.597946231
0.077192427	0.080572431	0.868968157	0.678285005	0.666044603	0.162524751
0.876665289	0.88333762	0.04086049	0.170788372	0.175887498	0.693141957
0.856747674	0.130472303	0.862477803	0.156454591	0.586496596	0.154438569
0.091793855	0.074260791	0.856218093	0.645323463	0.625814228	0.149186631
0.092063395	0.074385761	0.854772508	0.645269888	0.625722994	0.149447365
0.88148733	4.93401E-06	4.80144E-06	0.175534021	0.698984389	0.699222211
0.87269318	0.875991918	0.06518945	0.165280374	0.169084023	0.65277626
0.875371453	0.883269538	0.013706509	0.170365831	0.175254896	0.697304513
0.415657421	0.87784685	0.462216894	0.589721282	0.17060124	0.626235762
0.123107227	0.864189271	0.856706493	0.588516066	0.155850048	0.156788232
0.480761843	0.409994999	0.877231746	0.559312195	0.517699896	0.170468847
0.142512382	0.825479991	0.146423641	0.575080497	0.118874713	0.601990671
4.92528E-06	4.80837E-06	0.882080085	0.699150979	0.699379494	0.175194393
0.876821082	0.88425355	0.013707144	0.170866292	0.176141695	0.697382569
0.107118405	0.123894813	0.174877666	0.616525392	0.620317752	0.616987065
0.411844594	0.878020427	0.470252792	0.551627531	0.170494707	0.590622355
0.027641567	0.027488115	0.881123314	0.694863138	0.695547297	0.175198461
0.107741234	0.86552029	0.854968369	0.593978043	0.157127762	0.154946681
0.841463845	0.124913408	0.104224976	0.135339066	0.622922915	0.597779382
0.876607344	0.884373462	0.054273726	0.171001349	0.175602965	0.690506871
0.054273737	0.875592818	0.883508375	0.690504004	0.170909697	0.175391656
0.422108611	0.877455399	0.458970006	0.555311388	0.17042978	0.591147502
0.459838004	0.429843573	0.878049107	0.559813418	0.524337406	0.170764335
0.847479451	0.153921284	0.860376869	0.15144921	0.560938522	0.15210093
0.465636998	0.424478232	0.877229964	0.608592068	0.571930839	0.170570804
0.868674179	0.077339212	0.080728239	0.162576691	0.676245474	0.664282693
0.435015407	0.877502901	0.454674076	0.574944504	0.17056583	0.608275985
0.575804769	0.877380917	0.537218047	0.533572164	0.170571078	0.562634886
0.054273616	0.881543796	0.054675811	0.690611822	0.175362591	0.690005483
0.877335532	0.450374044	0.426946979	0.170578895	0.626393846	0.593246436
0.860662753	0.844840179	0.147510693	0.152762595	0.15034297	0.562879122
0.027448477	0.881931499	0.027702052	0.695244212	0.175374434	0.694824741
0.054249817	0.881446667	0.054624266	0.690581614	0.175382455	0.690025066
0.86887604	0.075428396	0.078461756	0.162528781	0.67653681	0.664370599
0.878025958	0.449059828	0.439870226	0.170672834	0.559983805	0.527593392
0.88288131	0.054274738	0.876697255	0.174901316	0.690500011	0.170839945
0.43706025	0.44632133	0.877311191	0.575689582	0.545984474	0.170637667
0.239919741	0.241489861	0.82654415	0.604675006	0.579997254	0.119033293
0.841706104	0.092714968	0.099588802	0.134790344	0.629510221	0.604355109
0.855303481	0.068843684	0.072037808	0.149218	0.649898929	0.629393362
0.825503964	0.136601188	0.127922389	0.118597801	0.606628635	0.577250919
0.499568377	0.517220147	0.877578215	0.559542932	0.530353078	0.170688106
0.881958536	4.85433E-06	4.8446E-06	0.17539797	0.699200842	0.699347278
0.10315485	0.099020853	0.841556589	0.627667786	0.602572103	0.13495484
0.860979867	0.844069529	0.141731078	0.153552306	0.149607033	0.564540035
0.102164153	0.841642416	0.083420746	0.606154256	0.134776304	0.631125167
0.859415453	0.845881479	0.153942293	0.151758824	0.150941378	0.560988642
0.401705739	0.877905665	0.480928485	0.548397111	0.17067746	0.590036216
0.424483716	0.877438928	0.465289165	0.573177057	0.170544953	0.609871501
0.082943354	0.080305023	0.868865917	0.675949213	0.663816959	0.16260032
0.82620159	0.263567233	0.269567143	0.11883402	0.613332618	0.584662211
0.404220695	0.877702631	0.4735935	0.586191872	0.170705415	0.625717079
0.415638452	0.877411658	0.469941581	0.536202453	0.170574234	0.575466605
0.103062477	0.099162272	0.841515438	0.62771286	0.602606217	0.134965664
0.86267424	0.85611936	0.130383553	0.15502478	0.156918271	0.586448273
0.882248373	0.027716013	0.02742715	0.175557085	0.694588109	0.694781666
0.825965668	0.188358819	0.192403349	0.118498014	0.613043832	0.580596429
0.104017521	0.866187529	0.866369028	0.615317075	0.159084871	0.162909384
0.435993915	0.87742226	0.448138104	0.542679051	0.170630565	0.575482809
0.88127537	4.89702E-06	4.76692E-06	0.175372008	0.699079245	0.69903712
0.058786869	0.038260844	0.07717702	0.679481267	0.678877682	0.680155916
0.877902846	0.464341979	0.490376134	0.170591136	0.560306946	0.531605188
0.082287142	0.301795026	0.285108338	0.619740216	0.620074398	0.619194722
0.480638569	0.405840349	0.877260844	0.574414399	0.531962354	0.17051079
0.044624578	0.872374123	0.874291758	0.65919509	0.165645829	0.168413493
0.067676948	0.067599574	0.067820789	0.636515188	0.636499988	0.636751188
0.067566079	0.067706967	0.067845956	0.636172171	0.636322996	0.636818303
0.056068695	0.044848184	0.075124155	0.674658188	0.674735142	0.675524996
0.419836236	0.877692989	0.470364672	0.521070332	0.17083219	0.559678755
0.88255369	0.02792695	0.027578599	0.175398235	0.694962538	0.694858313
0.059977346	0.060040041	0.059955599	0.639985384	0.640157413	0.639786824
0.04715291	0.871455958	0.874432096	0.656893624	0.164685461	0.168266193
0.459883734	0.429983797	0.878238825	0.559907899	0.524400393	0.170627701
0.841786304	0.092713003	0.099693926	0.134805318	0.629656311	0.60426154
0.102198964	0.841389269	0.083416277	0.60587112	0.134743029	0.631419571
0.462046504	0.415489581	0.877508565	0.626329562	0.589629814	0.170720264
0.882063748	0.054274618	0.875237459	0.174920539	0.690519777	0.170664818
0.08777684	0.86726353	0.865486056	0.619790003	0.159687674	0.162257791
0.014523835	0.014395485	0.881263908	0.697195254	0.697526252	0.175300621
0.877529975	0.450469698	0.427045666	0.17069316	0.626494513	0.593027011
0.881712608	4.90947E-06	4.81788E-06	0.175537018	0.699178324	0.699131823
0.877501407	0.876784622	0.877210361	0.170667984	0.170527538	0.170352764
0.866570956	0.095614566	0.867224918	0.162533214	0.617265699	0.159522748
0.125218904	0.110235914	0.145340642	0.615724028	0.614470606	0.614755598
0.880586721	0.05454326	0.054117839	0.175545279	0.689919345	0.690618721
0.854995416	0.064418289	0.077692216	0.148977917	0.653090629	0.632245922
0.874186468	0.047352873	0.871566835	0.168132024	0.657108798	0.164509125
0.877101244	0.475537256	0.478847963	0.17071216	0.560561086	0.531032977
0.05445554	0.055107989	0.054817009	0.690165432	0.690139324	0.690327642
0.125183204	0.111113352	0.150591881	0.616019168	0.613520912	0.614836622
0.867014859	0.104042987	0.866559453	0.162868597	0.615452777	0.158937569
0.864748263	0.854586783	0.107753161	0.156337784	0.154266255	0.593895594
0.877330893	0.448090763	0.43584813	0.170623121	0.575743065	0.542862065
0.883371871	0.027326057	0.875104799	0.175296102	0.695234166	0.170002008
0.85609576	0.091272544	0.074136833	0.149479445	0.64559122	0.625927145
0.415545036	0.877352272	0.469964905	0.536015839	0.170515591	0.575273516
0.09274501	0.099681698	0.841385522	0.629550678	0.604412844	0.134828926
0.857285314	0.130412678	0.862694846	0.156615081	0.586613316	0.154388837
0.07699801	0.080407343	0.868969078	0.678288969	0.666040807	0.162520179
0.877342843	0.45945917	0.429525452	0.170411519	0.559789317	0.524419112
0.875643365	0.882747806	0.040861775	0.170342229	0.17491484	0.693160151
0.074737658	0.855945878	0.091417903	0.62583852	0.149402495	0.645647647
0.082446309	0.86897205	0.083691744	0.663756673	0.162527706	0.677049478
