Vam	Vbm	Vcm	Iam	Ibm	Icm
0.04737304	0.045981949	0.052504394	0.657967474	0.6580665	0.657481562
0.145552841	0.128347192	0.826062031	0.603202659	0.574874137	0.119355967
0.46986488	0.415688875	0.877371343	0.575368985	0.536115321	0.170507746
0.09909902	0.08145061	0.868939185	0.665695451	0.655795949	0.162853152
0.877724492	0.877041918	0.877412524	0.170776844	0.170554706	0.170599182
0.091288155	0.074665061	0.855834225	0.645654075	0.625902436	0.149474947
0.082394164	0.080173861	0.868800847	0.67425773	0.662473476	0.16255824
0.877411484	0.462005589	0.415433032	0.170596769	0.626181432	0.589837258
0.405636599	0.87744877	0.480812213	0.533017193	0.170603561	0.575379942
0.028110062	0.027673804	0.880893284	0.694741171	0.695569776	0.175373451
0.867458437	0.104238522	0.866509574	0.163101679	0.61541585	0.159069498
0.86128296	0.844890208	0.137040591	0.154195717	0.149026373	0.566277732
0.470315522	0.419829203	0.877630783	0.559438087	0.520926811	0.170689344
0.841565403	0.09276778	0.099821508	0.134852225	0.629518169	0.604473222
0.872319144	0.875312992	0.075930973	0.165028613	0.169185764	0.650350777
0.856023764	0.079789138	0.071575619	0.149621012	0.648085795	0.627745116
0.877358313	0.480517151	0.405740124	0.170560203	0.575142067	0.532771255
0.867041892	0.866367838	0.095425847	0.159416518	0.162471047	0.617503946
0.08282225	0.868957726	0.093017138	0.65684494	0.162606923	0.670280007
0.877382482	0.469914569	0.415393449	0.170539841	0.575556125	0.53623337
0.08339139	0.102226209	0.841696671	0.631328102	0.606048371	0.134675126
0.866988352	0.865184624	0.081540002	0.159730053	0.161720665	0.621226592
0.137170292	0.85926644	0.84237017	0.566229118	0.153764816	0.148505624
0.092710737	0.099731225	0.841552628	0.62966516	0.604136853	0.134758938
0.842060567	0.125190419	0.103571036	0.135220323	0.623787129	0.598230575
0.027613836	0.027443432	0.882338591	0.694696852	0.695266687	0.175401269
0.87501684	0.882919237	0.054273716	0.170538377	0.174793266	0.690495046
0.446329665	0.877311944	0.437050582	0.546087186	0.170592702	0.575725408
0.877352088	0.459010681	0.425602128	0.170580058	0.575615407	0.53956749
0.874555079	0.076028319	0.871081428	0.168985336	0.650642316	0.164242354
0.822251523	0.823199711	0.822793149	0.29810589	0.298657783	0.298136179
0.484605615	0.392790345	0.877141889	0.625242955	0.582407343	0.170585633
0.028612878	0.881183259	0.028652965	0.695549026	0.175391832	0.695374526
0.869135673	0.079222778	0.077277473	0.16255886	0.674927756	0.662521443
0.133638451	0.125996531	0.826866186	0.605944043	0.57666681	0.11941818
0.075044846	0.074884923	0.075338843	0.634278813	0.634482581	0.634480007
0.872366354	0.874804944	0.05528032	0.164967553	0.168903883	0.654942997
0.027496977	0.027931563	0.027815735	0.69545693	0.694476373	0.695172559
0.331255633	0.825681261	0.324169931	0.587610155	0.118513514	0.614775467
0.877936819	0.462264438	0.415699181	0.170674363	0.626210856	0.589684365
0.868945961	0.098809785	0.082478011	0.162837757	0.666906908	0.654508705
0.238735735	0.255681788	0.825344389	0.60987566	0.57668613	0.118643449
0.883095451	5.49629E-06	0.876133844	0.175719279	0.699287115	0.171075557
0.145852728	0.128420266	0.826142822	0.603167308	0.574619049	0.1192722
0.125100187	0.103111412	0.841784391	0.623637156	0.598376907	0.135345103
0.876858266	0.438418435	0.438413681	0.170161617	0.626648766	0.596323087
0.470444224	0.419862375	0.877789987	0.559628184	0.52104864	0.170671863
0.319052227	0.825777205	0.30878979	0.583921486	0.118742171	0.611501644
0.855465021	0.107690605	0.864668896	0.15488561	0.593805064	0.156674294
0.869334557	0.873061589	0.065198372	0.164390981	0.168215349	0.652730148
0.864772788	0.854878639	0.107812817	0.156761996	0.154624686	0.593819512
0.865750533	0.077003015	0.86761572	0.161236054	0.623269729	0.159952286
0.862375726	0.844144937	0.133860644	0.155388307	0.148529718	0.567702664
0.43847882	0.445071198	0.877545641	0.590807483	0.561183161	0.170682451
0.855924836	0.103025667	0.078892243	0.149732013	0.643448001	0.623769473
0.099267121	0.841748367	0.103205806	0.602481009	0.135136643	0.627890272
0.438273682	0.876577854	0.438278337	0.596512628	0.169902543	0.626398711
0.415610007	0.877756981	0.462173937	0.589642957	0.170568618	0.626278783
0.142628872	0.133275508	0.098773298	0.611088334	0.611579453	0.614008423
0.877347059	0.461974329	0.415399559	0.170553766	0.626165999	0.589801569
0.048363357	0.872079539	0.874658587	0.658395708	0.164805384	0.168386952
0.154057129	0.85796408	0.845245019	0.560888766	0.15185736	0.151065623
0.877344583	0.484089231	0.399392201	0.170582085	0.608764561	0.566081918
0.415539254	0.877337638	0.470048299	0.535905575	0.170581366	0.575240956
0.054523697	0.054204731	0.881953202	0.689751782	0.690402805	0.175467118
0.42556905	0.877406669	0.459147018	0.53975473	0.17061916	0.575795544
2.79422E-06	3.13412E-06	2.93944E-06	0.69911998	0.699479128	0.699215873
0.877171326	0.438574925	0.438570202	0.170438165	0.626419187	0.596452903
0.062504129	0.062499019	0.062372418	0.638705115	0.638689929	0.638525846
0.88317591	0.040851099	0.875405279	0.175270212	0.692911886	0.170148088
0.448820417	0.439590715	0.877499962	0.559632043	0.527794987	0.170567959
0.861898308	0.843581471	0.133805678	0.155143324	0.147981704	0.567705875
0.422057635	0.877651523	0.459539769	0.554712897	0.170525518	0.59054457
0.071662798	0.855875208	0.079703884	0.627513496	0.149382382	0.647747513
0.856110256	0.079821563	0.071566532	0.14963364	0.647865603	0.627880205
4.84316E-06	4.90806E-06	0.881019809	0.699333879	0.699374848	0.175242034
0.072547007	0.065780277	0.08715577	0.670292166	0.669923276	0.670907073
0.067622992	0.079086739	0.855409471	0.652046617	0.632033038	0.14899795
0.08101591	0.078696153	0.8688911	0.674192209	0.662235481	0.162473299
0.072446559	0.069975217	0.074221881	0.649161366	0.649907109	0.649108034
0.877353016	0.439569368	0.44386413	0.17055516	0.60915022	0.578914092
2.76174E-06	3.13545E-06	3.02323E-06	0.699022424	0.699110945	0.699528683
0.074153281	0.85602155	0.091151341	0.625984564	0.149289609	0.645798203
0.410228113	0.877598046	0.480898021	0.517548087	0.170578199	0.559251164
0.271280154	0.276950538	0.82553096	0.614474825	0.589175223	0.118631961
0.41988278	0.877586452	0.470207255	0.521022583	0.170593429	0.559696472
0.103275673	0.842212622	0.125156463	0.598409493	0.135130054	0.623595245
0.437105396	0.446345705	0.877384206	0.575770181	0.546054563	0.170604768
0.100093676	0.841803179	0.113998853	0.600744796	0.13511886	0.625878561
0.081684628	0.866221037	0.8653003	0.621308261	0.159494497	0.16163717
0.134476766	0.126016782	0.826702567	0.604152051	0.575620978	0.119468668
0.84232193	0.137259169	0.859417454	0.148450215	0.566224377	0.153888327
0.85546758	0.068937554	0.071403523	0.149114309	0.649713629	0.629362607
0.44526234	0.448557623	0.877242848	0.608964753	0.578614142	0.170539536
0.415484649	0.877417888	0.470164761	0.536038909	0.170581566	0.575408478
0.877581254	0.470337473	0.419753296	0.170807255	0.559762796	0.520892736
0.877322104	0.451289868	0.431864428	0.170565692	0.610038263	0.576574924
0.027454963	0.028449985	0.028039915	0.69512737	0.694796526	0.695277633
0.884345018	0.027326626	0.876409308	0.17618803	0.695220643	0.170746527
0.853869042	0.107781239	0.864794973	0.154557888	0.593907694	0.156810274
0.065231095	0.871097525	0.874566825	0.652915809	0.164391813	0.168733461
0.071724286	0.06565021	0.085169987	0.66967964	0.670120932	0.670533587
0.060021482	0.060007045	0.059976097	0.64017679	0.640460161	0.640176597
0.881615719	0.04116781	0.040821392	0.175360216	0.692432316	0.692451456
0.080929429	0.078737611	0.868800413	0.674182804	0.662246703	0.162514823
0.075042792	0.07488796	0.075213992	0.634191416	0.634534204	0.634658546
0.445672334	0.448710944	0.87733114	0.608475152	0.578262741	0.170605898
0.059966408	0.042775112	0.076826662	0.6753108	0.674895069	0.676646864
0.865288495	0.077125725	0.867927236	0.161342688	0.623066343	0.15999752
0.855094176	0.107927431	0.864307576	0.154711744	0.593920298	0.1565787
0.107992649	0.865111427	0.85439439	0.593631492	0.156555778	0.15470107
0.413294591	0.877406394	0.475513009	0.568557117	0.17055924	0.608389093
0.84567638	0.141839164	0.861317534	0.14997437	0.564502867	0.153951732
0.877882186	0.877231657	0.877665399	0.170619894	0.170380921	0.17061376
0.127721508	0.125206372	0.098713599	0.612002601	0.610639502	0.615093045
0.87789698	0.459176506	0.422344884	0.170948002	0.591020943	0.554870601
0.82668385	0.200414706	0.202679014	0.119428569	0.610950114	0.579901619
0.103141941	0.099264621	0.841530415	0.6277811	0.602757944	0.135011491
0.868665007	0.077074521	0.080430527	0.162576267	0.675422096	0.664322467
0.09129122	0.07453208	0.85544441	0.645606645	0.625388868	0.14915329
0.091567093	0.07952842	0.869176549	0.67104643	0.657371937	0.162518176
0.308248482	0.8259221	0.314384266	0.584303477	0.118569358	0.614095982
0.854931511	0.108029359	0.86488711	0.154806094	0.593853808	0.157178557
0.079722479	0.869309079	0.082826029	0.662757335	0.162500183	0.674867873
0.04775	0.042360292	0.073785849	0.678054976	0.677601158	0.680430515
0.075112386	0.077715927	0.855124355	0.650440197	0.629442361	0.148993866
0.410272336	0.877616909	0.480875144	0.517692978	0.170670422	0.559333413
0.844729259	0.137288889	0.863009311	0.148961517	0.566368474	0.154622526
0.861877513	0.843604677	0.1337995	0.155155613	0.147997579	0.567707192
0.013743834	0.014536244	0.014762506	0.697121552	0.696525968	0.697132405
0.877447684	0.484200696	0.39952497	0.170612325	0.607626559	0.564971326
0.062910003	0.060034792	0.065169323	0.651729369	0.652005388	0.651702041
0.42934078	0.877124616	0.459426972	0.524301142	0.170724173	0.559956931
0.085048151	0.868721341	0.08063014	0.664732231	0.162554909	0.676023984
0.854472578	0.116655225	0.864442897	0.155791859	0.590322366	0.155814214
0.421950022	0.877322958	0.459291452	0.555094976	0.170453381	0.590877759
0.055316752	0.871672693	0.8750217	0.654987567	0.16443617	0.168369518
0.866968469	0.866658716	0.095403402	0.159550207	0.16240032	0.61757012
0.873098964	0.047140665	0.872342629	0.168423452	0.656868424	0.165639207
0.059982028	0.060021861	0.059984217	0.640098906	0.640094978	0.640239394
0.883716956	5.49553E-06	0.876153261	0.175702151	0.699338134	0.171080676
0.823011685	0.823060729	0.824981181	0.299321633	0.298544161	0.299541451
0.437107879	0.446356668	0.877398608	0.575784083	0.54609488	0.170601172
0.869078423	0.078441632	0.082205724	0.162582773	0.677124163	0.665057176
0.419964954	0.877831994	0.470374325	0.521074183	0.170651952	0.559623542
0.054028926	0.05127525	0.05723649	0.654159987	0.654021596	0.654049764
0.439425804	0.877233906	0.448741579	0.527830344	0.170610219	0.559689891
0.048540907	0.045430009	0.053103144	0.656264071	0.656168659	0.656051585
0.866916697	0.866934687	0.09545048	0.159386477	0.162577572	0.617395609
0.841691031	0.083376758	0.10225201	0.13478477	0.631088136	0.605963638
0.099696373	0.84167628	0.092870469	0.604182385	0.134877059	0.629574656
0.099797611	0.841631648	0.092954825	0.604290449	0.134877281	0.629462755
0.841610937	0.083376192	0.102234546	0.134713255	0.631076216	0.60576483
0.154018707	0.85929357	0.846305637	0.56089097	0.151947736	0.151076995
0.135674796	0.12664885	0.826799717	0.604164643	0.575667425	0.119200818
0.863443598	0.857021491	0.130382973	0.154838351	0.15681264	0.586567147
0.860177994	0.844054888	0.141783551	0.153110032	0.149176829	0.564523948
4.81673E-06	4.92246E-06	0.88118327	0.699399628	0.699424276	0.175242011
0.845504967	0.141821482	0.861481433	0.149794711	0.564607757	0.153428881
0.855862813	0.107970186	0.864567638	0.15489325	0.593714461	0.156639013
0.462090898	0.415525018	0.877589278	0.626262679	0.589605998	0.17068187
0.481104917	0.410301789	0.877891002	0.559494497	0.517497854	0.170764616
0.095524152	0.866781765	0.866431659	0.617423276	0.159214337	0.162569541
0.411616221	0.877355597	0.470326683	0.551179156	0.1702887	0.589837993
0.869020979	0.098234357	0.080664563	0.162761324	0.667447111	0.65605532
4.92584E-06	4.89702E-06	0.881290151	0.699306881	0.699441864	0.175274027
0.846425664	0.147369851	0.861020036	0.151187232	0.562801175	0.153444961
0.860721689	0.84587134	0.147420055	0.153244855	0.150814098	0.562751325
0.147436605	0.860967867	0.84607813	0.562706664	0.153191682	0.150762737
0.863746451	0.856480223	0.123064555	0.155469869	0.156336485	0.588262481
0.084879668	0.869150756	0.100280885	0.654408367	0.162644924	0.667757605
0.078881288	0.855464837	0.102969382	0.62373654	0.149400735	0.643309687
0.437770706	0.445407832	0.877675014	0.593031397	0.56343079	0.170760964
0.876975695	0.884388454	0.027327828	0.171068878	0.175831488	0.695222785
0.877321291	0.451237607	0.431884805	0.17056394	0.610029142	0.576564846
0.845057415	0.133730279	0.862629591	0.14835156	0.567800292	0.155406669
0.092746576	0.099719464	0.841738168	0.629552614	0.604338987	0.134849938
0.448160876	0.432777881	0.877786987	0.59102808	0.558189828	0.170845148
0.877714001	0.448046421	0.432905335	0.170713043	0.590970225	0.558179896
0.075115087	0.077609481	0.855303813	0.650302597	0.629663385	0.149276858
0.081980628	0.854916783	0.067096974	0.631206936	0.149085515	0.65308262
0.877522853	0.480582434	0.405789123	0.170561664	0.575381917	0.532938528
0.116752067	0.864059814	0.856218682	0.590339635	0.15572983	0.156010147
0.877245917	0.492629382	0.496685562	0.170548935	0.561315719	0.531666623
0.048574592	0.041261831	0.073437646	0.677440609	0.677663639	0.679595607
0.027326522	0.875336358	0.883252266	0.695235675	0.170074744	0.175263124
0.86920317	0.098306339	0.081132006	0.162722061	0.667636659	0.65605659
0.844876232	0.137261929	0.861360679	0.148672032	0.566344781	0.154066254
0.877617996	0.885330482	0.013706867	0.171061237	0.175611432	0.697323345
0.067132409	0.05228847	0.080832534	0.67297955	0.672814441	0.674406634
0.085744937	0.077257622	0.868971071	0.673127654	0.661082189	0.162439929
0.067297293	0.05213019	0.080871497	0.672972694	0.672885757	0.674417151
0.841600505	0.083356672	0.102249248	0.134732227	0.631061205	0.60578265
0.877470057	0.484792217	0.392930354	0.170621077	0.625300913	0.582647298
0.082840267	0.86901263	0.093113159	0.65675844	0.162595936	0.670477076
0.081702395	0.079412639	0.869133575	0.673551158	0.66173761	0.16258438
0.435904134	0.877381406	0.448127783	0.542825183	0.170605073	0.575782503
0.868941118	0.083039122	0.074946706	0.162658687	0.672461994	0.660487906
0.102262584	0.841802992	0.083369687	0.606037927	0.134708542	0.631485145
0.86629862	0.095512156	0.866577425	0.162488168	0.617735325	0.159040774
0.113868116	0.099863154	0.841804042	0.626119693	0.600938661	0.135065443
0.107444309	0.082955644	0.855181462	0.643446605	0.624226203	0.149542705
0.242732584	0.82638297	0.246475288	0.58445843	0.118864676	0.611820737
0.448770549	0.439549036	0.877399761	0.55967217	0.527810101	0.170585511
0.450445013	0.427018875	0.87747855	0.626463508	0.593128605	0.170553917
0.147470203	0.859707058	0.845511926	0.56264234	0.15275098	0.150341027
0.877394961	0.480590555	0.405684515	0.170587043	0.575063837	0.532685027
0.0770032	0.867703974	0.865646564	0.623180284	0.159997886	0.161940862
0.054210001	0.881240711	0.054632417	0.690944799	0.175354394	0.690187748
0.44635748	0.877367716	0.437076438	0.546075558	0.170621368	0.575726722
0.079032666	0.855872774	0.102948854	0.623561125	0.149831875	0.643323093
0.877277392	0.473047672	0.410425417	0.17059434	0.608840946	0.569308857
0.429529364	0.877314809	0.459429283	0.524207403	0.170641338	0.559954335
0.845268604	0.141828188	0.861507147	0.149886955	0.564608088	0.153472156
0.86897154	0.080429326	0.07726675	0.162536704	0.674104887	0.663458775
0.437078669	0.446346308	0.877358357	0.575743153	0.546079104	0.170601676
0.825641047	0.136461868	0.128010907	0.11906906	0.605809094	0.57697365
0.4590061	0.422033093	0.877475427	0.590704599	0.555020229	0.170476346
0.076017045	0.871296963	0.875550788	0.650376912	0.16448482	0.169258182
0.885074662	0.027327033	0.877445002	0.175645375	0.695271735	0.170943413
0.844814708	0.133706891	0.862313237	0.148158659	0.567777919	0.155079832
0.877401454	0.448068866	0.43595227	0.17062853	0.575718583	0.542883411
0.083553261	0.869195615	0.099038768	0.654621126	0.162550742	0.667813633
0.041000995	0.041436171	0.041599602	0.692401823	0.692864582	0.692094969
0.427043849	0.8775285	0.450470092	0.593079952	0.170668721	0.626533879
0.413874389	0.877334528	0.475027217	0.569088878	0.170511658	0.608788687
0.877280734	0.461201624	0.422608449	0.170561223	0.60867262	0.572441176
0.047222085	0.870855326	0.874504581	0.656739582	0.164158623	0.168443474
0.864661804	0.854800392	0.107772467	0.156584291	0.154483928	0.593993113
0.873191142	0.876029681	0.065207961	0.165332643	0.168830504	0.652746613
0.425729254	0.877422545	0.46404929	0.573537079	0.170586986	0.60989772
0.856421248	0.116614477	0.865308157	0.15599728	0.590343126	0.156163072
0.027392263	0.028115471	0.028213126	0.694793285	0.695043731	0.695290059
0.87487262	0.055304347	0.872059925	0.168437537	0.654944433	0.164782156
0.083451992	0.083652823	0.083925737	0.632099379	0.632142537	0.632484429
0.866732255	0.866930067	0.104024899	0.159056942	0.162981737	0.615366576
0.484835503	0.39299024	0.877572978	0.625446471	0.582368698	0.170692918
0.877379589	0.438957866	0.444727347	0.170547662	0.609371352	0.579219076
0.167493925	0.091687244	0.173572974	0.614792801	0.615709498	0.620943967
0.081646563	0.86786408	0.865253277	0.621174416	0.159626094	0.161584347
0.475281615	0.414544963	0.877293594	0.608065066	0.568476931	0.170572253
0.847456822	0.154003056	0.858832996	0.150981888	0.560792666	0.151588862
0.877396137	0.47307875	0.410290259	0.170622312	0.60899657	0.569392741
0.438137173	0.438132595	0.876296129	0.626747346	0.596170014	0.170557634
0.863661568	0.855357522	0.111424015	0.156016287	0.154986582	0.59218121
0.87884378	0.878207391	0.877396135	0.17106729	0.170694517	0.170644606
0.401693292	0.877727316	0.481094383	0.54832019	0.170610935	0.590298495
0.135112267	0.126954255	0.826666656	0.604156065	0.575590433	0.119498865
0.456686636	0.877507657	0.454293832	0.53120383	0.170667104	0.560489352
0.013749688	0.014465414	0.014600027	0.697352896	0.69688804	0.69676729
0.877378599	0.484272512	0.399509515	0.170630599	0.607602063	0.564895266
0.877277138	0.480728348	0.410088552	0.170678296	0.559421026	0.517385772
0.05462139	0.054252296	0.881994242	0.690135245	0.68998912	0.17547286
0.437078591	0.446346218	0.877358189	0.575743061	0.54607901	0.170601692
0.856660414	0.130459991	0.863649731	0.156695025	0.586479758	0.154800525
0.415491604	0.87751764	0.462053356	0.589753372	0.17057179	0.626137912
0.07599137	0.8715471	0.875629378	0.650489896	0.164572557	0.169466578
0.86646875	0.866406038	0.103972712	0.159190579	0.162382252	0.615315236
0.877370061	0.461589517	0.422179141	0.170567443	0.609462665	0.573125935
0.054626497	0.054239328	0.881952294	0.690096745	0.690112311	0.175439958
0.077150251	0.867586346	0.865542241	0.623131053	0.160007988	0.161537896
0.077518817	0.86923558	0.085818085	0.661348046	0.162568897	0.673595243
0.877084649	0.469762774	0.411438221	0.170082098	0.590421703	0.551624595
0.405846144	0.877394831	0.480521392	0.532713719	0.170558932	0.575170051
0.137176774	0.861870331	0.845149068	0.566194503	0.154904742	0.149800545
0.84203228	0.124964781	0.10366747	0.135137285	0.623465291	0.598017015
0.075744574	0.0770851	0.854717184	0.649727607	0.629664492	0.148921375
0.074256575	0.855723654	0.09119681	0.625865409	0.149222008	0.645829159
0.872066699	0.874514554	0.075973862	0.164790438	0.168225732	0.650545841
0.419788077	0.87765468	0.470363996	0.521064076	0.170722522	0.559601312
0.86893334	0.080093879	0.077122265	0.162519614	0.674546067	0.663591297
0.868982409	0.082700967	0.072679764	0.162649719	0.672669193	0.660458722
0.825286221	0.823130557	0.824438785	0.298807877	0.298644035	0.298557276
0.083385092	0.102243453	0.841705341	0.631331535	0.606070315	0.134668691
0.013759407	0.014479195	0.014554748	0.697086985	0.696508353	0.697131167
0.855325666	0.111445946	0.864656615	0.155541881	0.592138587	0.156497388
0.448050676	0.877334415	0.445150342	0.578772728	0.170596732	0.608897317
0.864202582	0.856656356	0.123082175	0.155269601	0.156516474	0.588700742
0.87758548	0.459596177	0.429633247	0.170671133	0.559836937	0.524301857
0.855472449	0.065526694	0.078128088	0.149058501	0.652348945	0.63223682
0.863434404	0.856094784	0.123043097	0.155158237	0.155888406	0.588402583
0.141743159	0.861167488	0.84591184	0.564576661	0.154069173	0.150312714
0.459735184	0.429571001	0.877669025	0.559860688	0.524426998	0.170798227
0.855219079	0.091259414	0.074277842	0.148949195	0.645772117	0.62569119
0.462097505	0.415544332	0.877614424	0.626240194	0.589593842	0.170659888
0.054927746	0.054672143	0.055646549	0.689950032	0.69019268	0.690163303
0.404207261	0.877675879	0.473579375	0.585949439	0.170512954	0.62570009
0.867287688	0.865064717	0.077179248	0.159589726	0.161287371	0.623004506
0.446314779	0.877301685	0.43705403	0.546064979	0.170582352	0.575754112
0.825779394	0.288972931	0.299715854	0.118613546	0.613135795	0.58297553
0.100156748	0.841777775	0.114046056	0.600403959	0.135015682	0.625646213
0.826628614	0.195872619	0.19628979	0.119531305	0.610854608	0.580758427
0.855922029	0.065959933	0.078766406	0.14918108	0.652897886	0.631652166
0.877259862	0.484061607	0.399459562	0.170614556	0.608165029	0.565546228
0.154027133	0.858500482	0.845824426	0.560914789	0.15190825	0.150983693
0.027323942	0.875792553	0.883027044	0.695161002	0.170466285	0.175317601
4.91258E-06	0.88123624	4.8245E-06	0.699177042	0.175391314	0.698919438
0.422165119	0.877517926	0.459275332	0.554582263	0.170539273	0.5904042
0.868903625	0.091683398	0.079598637	0.162611736	0.671345587	0.659742796
0.877494194	0.472924624	0.4104766	0.170616409	0.609006282	0.569443436
0.438413925	0.876858528	0.438418619	0.596506204	0.169939267	0.626382132
0.841919808	0.103019824	0.09921877	0.134870401	0.627848522	0.602533032
0.875033675	0.882907048	0.054274722	0.170517224	0.174773665	0.690507167
0.877630518	0.470036911	0.411695703	0.170631561	0.590515248	0.551071714
0.092071368	0.079888884	0.869085326	0.670203861	0.6576485	0.162605285
0.86396189	0.856951133	0.130425578	0.154806406	0.156725679	0.586486892
0.865866014	0.087786321	0.867097272	0.161707563	0.619606317	0.159549579
0.104032542	0.866211039	0.867117212	0.615497876	0.158825899	0.162828458
0.062505432	0.062505735	0.06238637	0.638765419	0.638611883	0.638677156
0.01370846	0.876352432	0.884088227	0.697432873	0.170862367	0.17608916
0.861058991	0.846159896	0.14742195	0.153341375	0.151133176	0.56257424
0.462043119	0.415479143	0.877495302	0.626260863	0.589685654	0.170686353
0.509618298	0.526615614	0.877310332	0.561546728	0.533094735	0.170481809
0.876201853	0.883355079	0.040853593	0.170991052	0.175543375	0.692964392
0.881210087	0.027769342	0.02737773	0.175518463	0.694782739	0.69505732
0.865097307	0.85493156	0.107828187	0.156742929	0.154685499	0.593880725
0.08339671	0.083688908	0.083919575	0.632088166	0.632090063	0.632496346
0.470005224	0.41167956	0.87761448	0.590777294	0.551580714	0.170740758
0.864363332	0.855350059	0.111396426	0.155975758	0.154955013	0.592240691
0.855929464	0.065755695	0.078281859	0.148979018	0.652576927	0.632939492
0.480936896	0.401610904	0.877870604	0.590147098	0.548285447	0.170663354
0.883828901	5.49704E-06	0.876400032	0.175376718	0.699582678	0.170132034
0.048729142	0.045124942	0.052718589	0.655562637	0.65637756	0.655966883
0.480694247	0.405788101	0.877306535	0.574823218	0.532406594	0.170559192
0.872348213	0.874982813	0.065204278	0.165184057	0.168793636	0.652742783
0.871169412	0.874263501	0.055337408	0.164416582	0.168085267	0.654862739
0.883101606	0.04084983	0.876497013	0.175145683	0.692860967	0.170971213
0.874616066	0.873226678	0.873686796	0.188700308	0.18911262	0.188887957
0.459230342	0.429241589	0.876817529	0.559845438	0.524350699	0.170657701
0.062487791	0.062475771	0.062383997	0.638748187	0.638659327	0.638601763
0.884220066	0.02732361	0.875023241	0.175337862	0.695119274	0.170100355
0.862893906	0.844100605	0.133780272	0.155429808	0.148453253	0.567822627
0.449307692	0.877278904	0.44381399	0.579383638	0.170603068	0.609450237
0.860199434	0.844242981	0.141779359	0.153113637	0.149173874	0.564508157
0.01375294	0.014512758	0.014688282	0.697148381	0.696484666	0.697092082
0.867049803	0.866593136	0.095365121	0.159484245	0.162324984	0.617364615
0.876860006	0.438419328	0.438414599	0.17019822	0.626672941	0.5963761
0.02732398	0.875690273	0.883087822	0.695161913	0.170466019	0.175315895
0.083391033	0.10222903	0.841702108	0.631328592	0.606058082	0.134673104
0.82495298	0.187628955	0.186525423	0.118110719	0.611070569	0.581857565
0.876356401	0.882768625	5.49603E-06	0.170477599	0.175071493	0.69917392
0.877401073	0.480544239	0.405774416	0.170557705	0.575103781	0.532734866
0.438509404	0.438504722	0.877039835	0.626398876	0.596327738	0.170155785
0.47005439	0.419600981	0.877125224	0.559524163	0.520939875	0.170697071
0.099835932	0.841632178	0.092905102	0.604290695	0.134876535	0.62946524
0.825612912	0.286766267	0.297140301	0.118645421	0.613996877	0.587422473
0.824722944	0.82285716	0.825253669	0.298942612	0.298460146	0.298533587
0.825419874	0.146653227	0.129372501	0.118980223	0.602578221	0.573994011
0.861927328	0.864695558	0.863648991	0.219106128	0.219769677	0.219359529
0.446300603	0.877261613	0.43702893	0.546065905	0.17058291	0.57573716
0.046549187	0.87199045	0.874044502	0.658837903	0.164742959	0.168070504
0.091245211	0.074628639	0.85568135	0.645629027	0.626122803	0.149115462
0.868906711	0.077635467	0.080237889	0.162479396	0.677398217	0.665614583
0.86282737	0.864300046	0.863758848	0.218779495	0.218707618	0.219329402
0.085217645	0.868402618	0.082046957	0.664252458	0.16254876	0.675488122
0.071393033	0.854569385	0.068769144	0.629445495	0.148499024	0.649705891
0.877245739	0.437027163	0.446288175	0.170569728	0.575713061	0.546066001
0.435899446	0.877376368	0.448153498	0.542829514	0.170596935	0.575788443
0.100197719	0.082329555	0.868920102	0.6679249	0.656038318	0.16276692
0.435581269	0.877304016	0.454349701	0.576643072	0.170520127	0.610239329
0.87809968	0.459843816	0.429893426	0.170576585	0.559836056	0.524349269
0.121010508	0.121279097	0.192784617	0.618135798	0.618807111	0.618843717
0.450198771	0.426775904	0.876989284	0.626487768	0.593053532	0.170646206
0.877427784	0.447871896	0.432764634	0.170449905	0.591237274	0.558538605
0.083569985	0.076085832	0.855529187	0.648608346	0.627613448	0.149363436
0.859184341	0.84666406	0.153994017	0.15242099	0.151540573	0.561049345
0.013766648	0.014480484	0.014340102	0.696814586	0.697286366	0.697279383
0.481007705	0.410410105	0.877883405	0.559336014	0.517655812	0.170480359
0.413279166	0.877505812	0.475751732	0.568421988	0.170589606	0.608289529
0.071382142	0.065365273	0.084775042	0.669595809	0.6701229	0.670691087
0.885041446	0.027326587	0.877478949	0.175530075	0.695223711	0.171124618
0.841662551	0.113485696	0.100749962	0.135192478	0.625760657	0.600445248
0.855084722	0.107959125	0.86455697	0.154667521	0.593914158	0.156581627
0.867661568	0.866545879	0.07729157	0.159986153	0.161564808	0.622827556
0.074811625	0.076416359	0.854649083	0.649478813	0.629886765	0.149034988
0.86574225	0.077016621	0.867737347	0.16122359	0.623304295	0.159947798
0.401687722	0.877728111	0.481096879	0.548320419	0.170611566	0.590298311
0.312753509	0.825785285	0.302037461	0.581860074	0.118726043	0.612404366
0.869010551	0.080675474	0.078696411	0.162532351	0.675210648	0.662540136
0.435883935	0.877368235	0.448131663	0.542826102	0.170580125	0.575785538
0.868839824	0.077173923	0.081237785	0.162571301	0.676034434	0.664825048
0.826074389	0.202315208	0.195890336	0.118801308	0.610252745	0.578631862
0.845580642	0.141811632	0.860282169	0.149979536	0.564530797	0.153706181
2.76174E-06	3.1794E-06	3.06064E-06	0.698880123	0.699053017	0.699364685
0.047219806	0.870549585	0.874001578	0.656769289	0.164200311	0.16844053
0.06525135	0.871345384	0.875238	0.652775295	0.164555095	0.168730593
0.072222649	0.069906712	0.073911576	0.649591496	0.649828942	0.649680071
0.845831065	0.147370244	0.860222819	0.150699162	0.562842321	0.153059128
0.079028435	0.85581158	0.102988055	0.623745256	0.14955568	0.643295808
0.877767362	0.447997445	0.432991733	0.170646607	0.591229557	0.558606578
0.13210639	0.827274796	0.141045093	0.577399669	0.11986651	0.605878996
0.868999708	0.08368852	0.074326489	0.162547714	0.671533306	0.65925541
0.866034285	0.8556769	0.10774267	0.157098538	0.155294026	0.593618028
0.866600993	0.081576958	0.867095746	0.161897681	0.621557286	0.159569933
0.861581271	0.844810648	0.137024678	0.154244557	0.149088001	0.566292291
0.87749681	0.480547823	0.405823358	0.170582321	0.575368899	0.53297876
0.167577245	0.092344569	0.17807658	0.612686989	0.615495604	0.618400544
0.877308603	0.437060794	0.446315976	0.170613292	0.575741158	0.546094501
0.868995044	0.098368353	0.0809226	0.16277889	0.667457555	0.655979366
0.86736221	0.104495144	0.866881604	0.163013167	0.615100959	0.159207216
0.450785096	0.427358898	0.878158948	0.626497648	0.593078962	0.170642696
0.476384351	0.41297202	0.877343826	0.609646873	0.570010287	0.170540735
0.480900477	0.401565979	0.877789632	0.590143361	0.54824535	0.17067769
0.846676355	0.84684874	0.846934629	0.257336722	0.25696865	0.256865242
0.445863422	0.877567286	0.437716796	0.562667342	0.170295861	0.591776954
0.092616857	0.099697654	0.841599868	0.629579033	0.604410315	0.134910325
0.845580271	0.141812233	0.860284409	0.149981366	0.564531243	0.15370874
0.448784991	0.439635957	0.877501645	0.559807434	0.527713873	0.170457794
0.877239273	0.88394501	0.040850921	0.17097719	0.175603151	0.692931661
0.878567584	0.44928568	0.440197337	0.170727001	0.55972752	0.527720984
0.884291599	5.49629E-06	0.876157511	0.176057066	0.699304213	0.17072145
0.877619441	0.437272081	0.444541799	0.170666447	0.591681778	0.562044237
0.825903966	0.228190479	0.238097187	0.119326345	0.607738556	0.581428113
0.48464483	0.392799304	0.877191824	0.625509482	0.582295643	0.170555777
0.074137471	0.856285905	0.091137008	0.62598134	0.149278961	0.645749145
0.108135316	0.864124982	0.854421542	0.593679681	0.156662991	0.154486181
0.847461748	0.846962464	0.84785702	0.257420793	0.257014978	0.257333281
0.215764994	0.826023583	0.227675431	0.582393449	0.118882925	0.610097448
0.072541525	0.069917121	0.074533829	0.64907533	0.649988749	0.649104513
0.875754093	0.884121983	0.027325118	0.171064408	0.175797072	0.695155224
0.123183307	0.864591116	0.857035608	0.588515952	0.155559532	0.156690754
0.877363495	0.877290285	0.877506928	0.170630539	0.170389037	0.170609724
0.824929555	0.203451385	0.198752653	0.118729022	0.61207715	0.58538994
0.435857226	0.8772924	0.448100418	0.542723692	0.170515652	0.575626336
0.527888309	0.515280346	0.877256635	0.56250654	0.533197091	0.17043912
0.874220704	0.874306636	0.873937309	0.188700323	0.189309697	0.188897081
0.013780728	0.014334568	0.01415065	0.697148072	0.69751316	0.697236735
0.87753615	0.448839836	0.439623794	0.170741424	0.55968173	0.527761781
0.415688535	0.877429035	0.470016751	0.536156731	0.170586656	0.575463019
0.877444413	0.480811694	0.401376419	0.170359506	0.590073448	0.547624432
0.259894275	0.268573651	0.825743601	0.616753856	0.587704147	0.119085381
0.8715165	0.87434462	0.075979091	0.16469565	0.16807169	0.650549747
0.877337162	0.451251662	0.432035563	0.170554519	0.609331606	0.576037719
0.87739429	0.448690387	0.439626809	0.170520952	0.559836033	0.527612499
0.867893966	0.865718866	0.087803664	0.159540535	0.16174335	0.619675336
0.04119141	0.040790163	0.881362645	0.692518159	0.692626426	0.175347276
0.078843437	0.869316514	0.081558367	0.663410564	0.16245025	0.675114087
0.123185785	0.86324118	0.856527168	0.588386891	0.15511448	0.156434777
0.855725321	0.066392127	0.079119868	0.149128889	0.652509039	0.632091507
0.87776275	0.484949598	0.39306327	0.170601775	0.625314399	0.582661857
0.065246417	0.870926327	0.875731148	0.652725511	0.164621027	0.168931411
0.884346194	0.02732724	0.875878461	0.176238661	0.695225437	0.17076198
0.876365485	0.883288427	0.02732773	0.171300077	0.175588446	0.695202136
0.13049528	0.861830352	0.855684952	0.586495788	0.154758552	0.156704257
0.875205816	0.882737935	5.49553E-06	0.170402253	0.175068605	0.69924416
0.084158909	0.869338574	0.100804984	0.655846179	0.16273098	0.667197432
0.4377719	0.445767071	0.877750651	0.59306804	0.563454824	0.170675346
0.209101112	0.825221217	0.212279728	0.584550709	0.118802443	0.610840654
0.45884824	0.421867676	0.877145334	0.590702516	0.554977004	0.170446784
0.147439091	0.860712549	0.84501488	0.562618496	0.152824291	0.150474636
0.077179339	0.867636936	0.865592548	0.623177266	0.160005644	0.161604067
0.446319367	0.877294298	0.437043092	0.546075871	0.170588021	0.57571816
0.87609158	0.883976936	0.013708821	0.170591879	0.175953288	0.697432568
0.450618197	0.427193527	0.877826518	0.62647978	0.593096078	0.170625659
0.054271639	0.875695486	0.884252393	0.690446689	0.170522348	0.175337656
0.857260228	0.130458711	0.862663152	0.156593717	0.586477381	0.154368471
0.881823168	0.027535231	0.027377904	0.175713863	0.694490656	0.69483429
0.825742719	0.285874992	0.286828232	0.11877241	0.614327062	0.585608557
0.071439695	0.065787089	0.085342064	0.670404295	0.670029684	0.670672324
0.877803996	0.877158412	0.877444664	0.171102396	0.170666615	0.170680483
0.079777308	0.869239122	0.081669195	0.663180238	0.162389386	0.675908128
0.107865897	0.866047255	0.855626104	0.59378711	0.156885849	0.154710781
0.868963651	0.098708173	0.082248174	0.162796312	0.667473361	0.65572134
0.111450672	0.863319066	0.853923265	0.592121185	0.155921911	0.155133992
0.47606534	0.41352375	0.877375034	0.609201929	0.569620981	0.170583845
0.861240256	0.846364226	0.147424607	0.153251616	0.150806282	0.562787295
0.081679236	0.855819397	0.066863086	0.632008832	0.149058926	0.652415828
0.0542148	0.881727028	0.054562483	0.69015018	0.17534365	0.690271585
0.867554726	0.866781898	0.08781466	0.15953389	0.16214633	0.619571696
0.876860921	0.883397629	0.040845954	0.170989311	0.175776114	0.692813912
0.473519105	0.404134362	0.877541914	0.625749706	0.586207984	0.170528254
0.866354986	0.081701626	0.867601601	0.161964275	0.621246486	0.159724743
0.84621716	0.846481972	0.845586267	0.2567541	0.2569891	0.256774228
0.065247346	0.871431782	0.875338228	0.652746941	0.164813036	0.169116761
0.86639235	0.095509079	0.86689614	0.16252466	0.617580563	0.159082071
0.448878562	0.87731126	0.444311473	0.579433968	0.170600789	0.609508726
0.14742261	0.860614676	0.845785891	0.562750077	0.152774621	0.150355562
0.877179617	0.448648723	0.439461128	0.170448161	0.559861	0.527626118
0.081315196	0.856109843	0.06682765	0.631866941	0.149170439	0.651961403
0.877368565	0.461605031	0.422189025	0.170573056	0.609487077	0.573133764
0.078919375	0.85543376	0.102963966	0.623743376	0.149382154	0.643312304
0.877780714	0.473636431	0.404255844	0.170378904	0.625932228	0.585995491
0.874702099	0.076033878	0.871934799	0.168935383	0.65058664	0.165044456
0.429635846	0.877603658	0.45961358	0.524351551	0.170704735	0.559861663
0.392853111	0.877310081	0.484707846	0.582444681	0.170404141	0.625217327
0.125295848	0.102887788	0.84164444	0.62362653	0.598544539	0.135145867
0.877490371	0.448866219	0.439552701	0.170690472	0.559681796	0.527747167
0.882859305	0.040852068	0.876536068	0.174845386	0.69289896	0.170761922
0.445485661	0.448718194	0.877295642	0.608655959	0.578336027	0.170547369
0.8642877	0.85617492	0.123027905	0.1553614	0.156160856	0.588341835
0.877338343	0.450373934	0.426949947	0.170651323	0.626382041	0.59317732
0.013749892	0.014325346	0.014321013	0.696847874	0.697433367	0.697302135
0.014477143	0.881452864	0.014223705	0.697533828	0.175271135	0.696593428
0.867055296	0.865443332	0.081533717	0.159553488	0.161678722	0.621164668
0.078799103	0.855479157	0.102972417	0.623755639	0.149408969	0.643303994
0.078441754	0.081173542	0.86884129	0.675111479	0.664223025	0.162545786
0.476198108	0.413539946	0.877441874	0.608675585	0.569130647	0.170592771
0.083716716	0.08094993	0.869026141	0.674443756	0.662722239	0.162568876
0.141756593	0.860640478	0.846080077	0.564528406	0.153117591	0.14948136
0.822689892	0.823339863	0.822813559	0.298195219	0.298634894	0.297949199
4.85804E-06	4.85718E-06	0.881587398	0.698999882	0.69941245	0.175301984
0.448011954	0.432647424	0.877512394	0.591023313	0.55827494	0.170521706
0.8773953	0.484187623	0.39961314	0.170625943	0.607587338	0.564912174
0.874208151	0.076025186	0.870751207	0.168989108	0.650583788	0.164284805
0.437084886	0.446336048	0.877353582	0.575763888	0.546038705	0.170607708
0.871843527	0.875104455	0.04726822	0.164909935	0.16876238	0.656984765
0.872860367	0.874686139	0.046714471	0.165232728	0.168318855	0.658931417
0.445643173	0.877530817	0.43786733	0.562639956	0.170367803	0.591798773
0.099759166	0.08178174	0.868770102	0.665639198	0.655799172	0.162823338
0.027986159	0.027534529	0.88186958	0.694573659	0.694873832	0.175371878
0.404140874	0.877540979	0.473511132	0.585968055	0.170478103	0.625693672
0.876680107	0.883438174	0.040846312	0.170953693	0.175762371	0.692818161
0.083532127	0.868970399	0.080116802	0.664943733	0.162604002	0.676634931
0.266983401	0.266632441	0.826398996	0.617414843	0.589918758	0.119014225
0.877344536	0.484089253	0.399392009	0.170582077	0.608764606	0.566081891
0.401566983	0.877326243	0.487328564	0.564596372	0.170537108	0.607678363
0.438581322	0.438576613	0.877183758	0.626571661	0.596364842	0.170281578
0.875455275	0.065216181	0.872573425	0.169247339	0.652898268	0.164831615
0.876967497	0.448565302	0.439324852	0.170590423	0.559881427	0.527678947
0.877511295	0.488810338	0.502276538	0.17064212	0.561484104	0.533295234
0.041015062	0.041413501	0.041371567	0.692501151	0.692581366	0.692427846
0.147521406	0.130764988	0.825795648	0.604214704	0.575390239	0.119220415
0.865609179	0.07696793	0.867847611	0.161265701	0.623241983	0.160075323
0.875936494	0.883640351	0.040845436	0.170979258	0.17577999	0.692802854
0.054592367	0.054227075	0.882152641	0.690082723	0.690007761	0.175474997
0.027471727	0.027963872	0.02791815	0.694966981	0.694929062	0.695054936
0.082214926	0.855534951	0.066145491	0.631283481	0.149356191	0.653179044
0.047206573	0.871807826	0.87474703	0.657057295	0.165083175	0.168625986
0.040978951	0.041494005	0.041349332	0.69259352	0.692389581	0.692462844
0.877463365	0.469925947	0.411645682	0.170480044	0.590375023	0.551693544
0.473519083	0.404134337	0.877541867	0.625749702	0.586207978	0.170528184
0.413189357	0.877444811	0.475688898	0.568536132	0.170560744	0.608365372
0.846918251	0.15396426	0.859964682	0.151640349	0.560902525	0.152344531
0.872504756	0.874181117	0.04676395	0.164728923	0.16816243	0.658913248
0.85614606	0.116630588	0.865094734	0.155985591	0.590361717	0.15611987
0.080758674	0.084487122	0.868931801	0.675503974	0.663578463	0.162686296
0.845714004	0.147387389	0.860781423	0.150632667	0.562778757	0.153129145
0.86622519	0.866614739	0.104036416	0.15894775	0.162880964	0.615150277
0.872973092	0.875218856	0.047222244	0.165724109	0.168857881	0.656955243
0.147438315	0.860532111	0.845442945	0.562665938	0.152783466	0.150369278
0.864622475	0.854505947	0.111433027	0.155892729	0.154436734	0.591918924
0.876229574	0.884351292	5.49755E-06	0.170775869	0.176288508	0.699510439
0.844434901	0.13730586	0.862343574	0.149443744	0.566349859	0.154981188
0.866624712	0.865139762	0.07721756	0.159660561	0.160732587	0.623135109
0.048745714	0.045189131	0.052865412	0.655471558	0.656358056	0.656030182
0.44635675	0.877365805	0.437076285	0.546074779	0.170626017	0.575718693
0.448973754	0.877378383	0.44445792	0.578708282	0.170588726	0.608859464
0.410319019	0.877774338	0.480979887	0.51760764	0.170938884	0.559392293
0.103993071	0.866626365	0.866956464	0.615409437	0.158972824	0.16281373
0.866611122	0.087814237	0.867217056	0.162197049	0.619699509	0.159774026
0.047327872	0.046524878	0.052553239	0.657876469	0.658175251	0.657403937
0.425594509	0.87742776	0.459128528	0.539796409	0.170633757	0.575856484
0.083397822	0.102239395	0.841835261	0.631024189	0.605748747	0.134733573
0.866926835	0.866664821	0.095400466	0.159563826	0.162436292	0.617566016
0.469849153	0.41574015	0.877370018	0.57536217	0.53609636	0.170516636
0.515671368	0.525949125	0.877449133	0.562060936	0.532306079	0.17060591
0.435898371	0.877368049	0.448128229	0.54282556	0.170585116	0.575781894
0.065235348	0.871362363	0.875046035	0.65268684	0.164601453	0.168605274
0.393182832	0.877964174	0.48503441	0.582565264	0.170880555	0.625435959
0.877694792	0.480884184	0.410341173	0.170775301	0.559471881	0.517371171
0.415855461	0.877474118	0.469869497	0.536093963	0.170577232	0.575450836
0.877193972	0.448647031	0.439477786	0.170439818	0.559865949	0.527619266
0.855151913	0.111522537	0.864200907	0.155576014	0.592216519	0.156693884
0.881624222	0.041171523	0.040814243	0.175364046	0.692431138	0.692460682
0.877019493	0.877324109	0.877545936	0.170620401	0.17068984	0.170690385
0.884434278	0.027325224	0.875105029	0.175184232	0.695167261	0.169921883
0.877436772	0.480546463	0.4057702	0.170594297	0.575358888	0.532958382
0.42196016	0.877539993	0.459486112	0.555201963	0.170545011	0.591030748
0.054722376	0.05450502	0.054736648	0.690334909	0.69018322	0.690799258
0.877352314	0.437073005	0.446346296	0.170617003	0.575715918	0.546063502
0.864703503	0.855246626	0.111439304	0.156488352	0.154997956	0.591982441
0.875687488	0.884220366	0.054274666	0.170791658	0.175931541	0.690507255
0.876900368	0.483498525	0.495309892	0.169945932	0.559897306	0.531051923
0.054289236	0.876418194	0.883059844	0.690745753	0.17084981	0.174943925
0.071495405	0.065833869	0.08529866	0.669913206	0.669987783	0.670463965
0.825665501	0.13736827	0.128958072	0.119050192	0.605819359	0.577226749
0.877764803	0.447997166	0.432988134	0.170649257	0.591229168	0.558605732
0.106034942	0.083401796	0.854115083	0.643196899	0.623589394	0.149162014
0.100163699	0.842037791	0.114112883	0.600512929	0.135045776	0.62577263
0.874703365	0.049899115	0.87224277	0.168374607	0.658536805	0.165062133
0.877357098	0.473373823	0.410026417	0.170597522	0.608768786	0.569088793
0.881737761	0.041100493	0.040866485	0.175131501	0.691903053	0.692845745
0.826151779	0.229864012	0.231928365	0.119253415	0.607195994	0.581567831
0.130521687	0.862541191	0.85613314	0.586387038	0.154867105	0.156995454
0.13464521	0.129788593	0.098446095	0.610105443	0.610085635	0.614355756
0.854891054	0.111481882	0.86513535	0.154934204	0.59204207	0.156239595
0.107894631	0.864608093	0.854641362	0.593639404	0.156519593	0.154649089
0.41036638	0.87781848	0.480975805	0.517724699	0.170617111	0.559376704
0.040863447	0.876917844	0.882318198	0.693194528	0.170919268	0.175387147
0.86125378	0.845362233	0.141712063	0.153967744	0.150059053	0.564406858
0.857237049	0.116674479	0.86507163	0.156161564	0.590361395	0.155883388
0.876836701	0.884770648	0.013708378	0.170681918	0.175895027	0.697437453
0.448169655	0.43279762	0.877814309	0.591042542	0.558211311	0.170838088
0.415704147	0.877466638	0.47001658	0.536116154	0.170582903	0.57545625
0.874057138	0.874115063	0.873956799	0.188856886	0.18918951	0.18862726
0.128327316	0.123153275	0.204380587	0.617590985	0.619094686	0.618175643
0.877368944	0.46161293	0.422160321	0.170576481	0.609516866	0.57313466
0.067746384	0.067658395	0.067933849	0.636372185	0.636558081	0.636701876
0.877371872	0.469887184	0.415525124	0.170538891	0.575356589	0.536089565
0.438648987	0.438644206	0.877318873	0.626602317	0.596450974	0.170573674
0.125138638	0.103087047	0.841879862	0.623649695	0.598637782	0.135171396
0.412082883	0.87784859	0.470391181	0.55148353	0.170703519	0.590532678
0.116686447	0.864591069	0.855607135	0.590369987	0.155673234	0.15588152
0.841590202	0.102987892	0.099199094	0.134938095	0.627913845	0.602845226
0.464229332	0.425520939	0.877275899	0.608734805	0.571954116	0.170528385
0.095493196	0.866349727	0.866577883	0.617284581	0.159209266	0.162600303
0.484901654	0.39302776	0.87767986	0.625440117	0.582382593	0.170557357
0.877308783	0.473392668	0.409984427	0.170576515	0.608815651	0.569201419
0.873204084	0.873713238	0.874267459	0.188704275	0.188739195	0.188546935
0.877491337	0.47029121	0.419704924	0.1706227	0.559630156	0.52098642
0.102254589	0.841715832	0.083363636	0.606001334	0.134804459	0.631401357
0.86907837	0.077565447	0.080913815	0.162579156	0.677327451	0.6651545
0.863596172	0.856865845	0.130369513	0.155350663	0.157274654	0.586524184
0.874462737	0.065162695	0.872708191	0.169103105	0.652664172	0.165294037
0.448392427	0.439264965	0.876733144	0.559934373	0.527585109	0.170557013
0.41214223	0.877565749	0.470023262	0.551849564	0.170639306	0.590724359
0.081313653	0.855361809	0.067906826	0.631993447	0.148842375	0.653105485
0.825922506	0.282013142	0.30572758	0.118664509	0.612988628	0.584629728
0.071340796	0.854751104	0.068795373	0.62933311	0.148426319	0.649789213
0.067803241	0.079623162	0.855973803	0.652103709	0.632316785	0.148944629
0.84201342	0.124941962	0.103612732	0.135125315	0.623431046	0.598032658
0.06626116	0.052926571	0.081341994	0.67304785	0.672557073	0.67378418
0.412132124	0.877566444	0.470027584	0.55184973	0.170637596	0.590723898
0.876065265	0.047123251	0.872179705	0.169440018	0.656877537	0.165373523
0.868899106	0.080123036	0.076993336	0.162527094	0.674532837	0.663587395
0.866924137	0.866124714	0.081552657	0.15952156	0.161819245	0.621320338
0.825959972	0.229103065	0.242446539	0.119058478	0.610014756	0.582082303
0.871651643	0.874343312	0.075977473	0.164689615	0.168066491	0.650556746
0.106099162	0.082801953	0.855576751	0.643375492	0.623606282	0.149572043
0.046858254	0.04737358	0.052206902	0.657276905	0.65837681	0.658231484
0.877499709	0.469948098	0.41165974	0.170471967	0.590407678	0.551708595
0.1649426	0.090773195	0.171505906	0.615610716	0.615567037	0.621855433
0.054221828	0.881478918	0.054616769	0.690204637	0.175377095	0.690097586
0.126325078	0.825024892	0.144034063	0.575118165	0.118992235	0.603679988
0.432776059	0.877366581	0.44808867	0.557958492	0.170417786	0.59032642
0.412083706	0.877427303	0.469892371	0.551705558	0.170581763	0.590428239
0.856007809	0.09147512	0.074260636	0.14929422	0.645675839	0.625847987
0.013761867	0.014458564	0.014548294	0.697300605	0.69689464	0.696694457
0.170515254	0.091065363	0.171058269	0.618425785	0.616450618	0.621417081
0.013770728	0.014532134	0.014492015	0.697329393	0.696962676	0.6965817
0.470065496	0.419547675	0.877093534	0.559560852	0.521079153	0.170568997
0.040847996	0.874307209	0.882059343	0.692903294	0.170171824	0.1750622
0.085190659	0.076590004	0.869101524	0.673151573	0.661091354	0.162411811
0.845038521	0.147396871	0.860703256	0.150819854	0.562758031	0.153214551
0.092656737	0.099704217	0.841479373	0.62959237	0.604164625	0.134855523
0.147437657	0.860503572	0.84591387	0.562778851	0.152766577	0.150380416
0.855611679	0.068938901	0.071421769	0.148914585	0.649889527	0.629361515
0.147447143	0.860067362	0.845476602	0.562652074	0.152792029	0.150387295
0.060031017	0.060023307	0.059988544	0.640124122	0.640100926	0.640214228
0.308476273	0.825976432	0.313013678	0.583330862	0.11856738	0.612483891
0.07716389	0.867499677	0.865012716	0.623085285	0.160007391	0.161602241
0.08238531	0.854077833	0.066586631	0.631308418	0.14861144	0.653092103
0.876858266	0.438418435	0.438413681	0.170161617	0.626648766	0.596323087
0.074173609	0.855624795	0.091153941	0.625928212	0.149308861	0.645692507
0.459146502	0.425667842	0.877430888	0.575532208	0.53941755	0.170568925
0.141761883	0.86109086	0.844345264	0.564632341	0.153460239	0.149578842
0.481039153	0.401626761	0.877995699	0.590025846	0.54830143	0.170247033
0.081305091	0.856298003	0.067162097	0.631428574	0.149381632	0.652002195
0.868996551	0.077447078	0.080869218	0.162575694	0.677328197	0.665259943
0.130513575	0.863147991	0.857116656	0.586547254	0.154940015	0.157106915
0.214846572	0.213367451	0.826060444	0.607597101	0.580520379	0.118875175
5.49553E-06	0.875695055	0.883551725	0.69915433	0.170539474	0.175352485
0.82561303	0.145978318	0.129038285	0.118648546	0.603296777	0.57434515
0.122832329	0.120939467	0.099134879	0.612473547	0.611691189	0.613838768
0.865829465	0.076988503	0.867626177	0.161249523	0.623342389	0.159916157
0.863486667	0.856651201	0.123106471	0.155272444	0.156498577	0.588651566
0.095465321	0.86669994	0.866949503	0.61732242	0.159027115	0.162459945
0.841760011	0.083371311	0.10223612	0.134780287	0.63116405	0.606025606
0.841961571	0.10314779	0.099233706	0.134923439	0.627878745	0.602556366
2.79819E-06	3.21758E-06	2.98628E-06	0.699277159	0.699445545	0.699070991
0.125094955	0.103100598	0.841588499	0.623982102	0.598875656	0.135334692
0.825757266	0.136752331	0.126331601	0.119043031	0.605954924	0.577180628
0.877856447	0.448923986	0.43985076	0.170723618	0.559887804	0.527523973
