Va	Vb	Vc	Ia	Ib	Ic
0.131601143	0.825718869	0.148771434	0.575195366	0.118855235	0.603974058
0.027430564	0.881804938	0.027748386	0.694989312	0.175373137	0.695307688
0.00000549	0.874200728	0.882501928	0.699307116	0.170323759	0.174888353
0.876079361	0.882243348	0.040847638	0.171095018	0.175370462	0.692923147
0.099150223	0.841812571	0.103089302	0.602559926	0.134921901	0.627689511
0.04114056	0.040873229	0.88176696	0.692633548	0.692994204	0.175207003
0.856664249	0.091274772	0.074209223	0.149305124	0.645800034	0.625653915
0.056554595	0.044493505	0.074873377	0.675611134	0.67463917	0.675923076
0.877481092	0.480469968	0.405863538	0.170541991	0.575058453	0.532712746
0.882444534	0.054647622	0.054315781	0.17585625	0.690351563	0.690267722
0.872558262	0.874176197	0.055326655	0.165388739	0.168630731	0.654684603
0.87749045	0.480571233	0.405757228	0.170576745	0.575211339	0.532844702
0.88157134	0.041120475	0.040866415	0.175441518	0.692782818	0.692940871
0.045103639	0.87197568	0.874314864	0.659043528	0.165248829	0.168150314
0.113659116	0.099954142	0.842063764	0.625837403	0.600880364	0.135181378
0.841655328	0.113711317	0.100254415	0.135120579	0.625609938	0.600474375
0.2073744	0.825420587	0.214832128	0.577947197	0.118781792	0.605974892
0.014424619	0.881034488	0.014630712	0.697352878	0.175223049	0.697307734
0.438798969	0.438794301	0.877619544	0.62670001	0.596313424	0.170475008
0.841391074	0.083339487	0.102238512	0.134859765	0.631100063	0.605909651
0.869221362	0.098411313	0.081055888	0.162677373	0.66983503	0.657342383
0.054276047	0.875445632	0.883482679	0.690531826	0.170808176	0.17523485
0.873783224	0.055345608	0.871427492	0.168124627	0.654948743	0.164511346
0.082197955	0.869094178	0.099460984	0.656307025	0.162632234	0.668832162
0.825349598	0.135316816	0.126419284	0.119089171	0.603685039	0.576447266
0.279733877	0.300049857	0.82588281	0.612913432	0.583786437	0.118715004
0.083442902	0.102229184	0.84180831	0.631255036	0.605933667	0.134727781
0.013728738	0.014101966	0.014020097	0.697071878	0.696747497	0.696385368
0.864342717	0.856010836	0.116638661	0.155763054	0.155660201	0.590382209
0.165622491	0.15298547	0.095211934	0.617567358	0.617074336	0.615732686
0.866605473	0.866428213	0.095368663	0.159164272	0.162692559	0.617659598
0.4256542	0.877449282	0.459131954	0.539353756	0.170650588	0.575361645
0.462529517	0.415963173	0.878465611	0.626170873	0.589750359	0.170593419
0.438773204	0.877577431	0.438777913	0.596450578	0.170691533	0.626570594
0.444745121	0.877346103	0.438321017	0.562829776	0.170437712	0.59259344
0.054740505	0.05536425	0.054866109	0.69035649	0.690281301	0.690900354
0.480796666	0.405728353	0.87743567	0.574766925	0.532325655	0.17058223
0.072703138	0.856010695	0.071176988	0.62963189	0.149623841	0.650248922
0.278466884	0.285944539	0.825692497	0.612083487	0.58517451	0.118731242
0.08188388	0.867254159	0.866235767	0.621032438	0.159719568	0.161929723
0.883389608	0.040848318	0.876482974	0.175056896	0.692867388	0.170986497
0.877446676	0.469848891	0.415573402	0.170587332	0.575631554	0.536341414
0.123108601	0.863963951	0.856277111	0.588672536	0.15520005	0.15633022
0.842912502	0.13382581	0.861409324	0.14738006	0.567696489	0.154405234
0.872358036	0.874402447	0.047249124	0.165458869	0.168460235	0.657015274
0.462010535	0.415444446	0.877427981	0.626341968	0.589650704	0.170592264
0.12763214	0.32087087	0.224356666	0.623211146	0.625103407	0.62107622
0.103905797	0.867191881	0.866738433	0.615756924	0.159330323	0.162911327
0.088052451	0.867361575	0.865859786	0.619196899	0.159756827	0.161947261
0.041435042	0.882385603	0.041776619	0.692830876	0.175579896	0.692601693
0.874815575	0.051278466	0.871926648	0.168348325	0.659067863	0.165022851
0.08162476	0.867546437	0.865736183	0.621376249	0.159895936	0.161523654
0.862732673	0.862096901	0.864263359	0.218584144	0.218954401	0.219412125
0.10222261	0.841237393	0.083306608	0.6058537	0.134811131	0.631287562
0.415475299	0.877495228	0.46204701	0.589904628	0.170618703	0.626083177
0.841315674	0.102836409	0.099072461	0.134987394	0.627708338	0.602761359
0.8423058	0.133821123	0.862618748	0.148288401	0.567691078	0.15540293
0.843714807	0.133777929	0.862281424	0.147769284	0.567711558	0.154911959
0.484920376	0.393053237	0.877723007	0.625206143	0.582641889	0.170677043
0.227217685	0.220753579	0.825108356	0.606098413	0.580232826	0.118988806
0.041262103	0.040950466	0.881249656	0.692529813	0.69308054	0.174965931
0.149012123	0.139102218	0.096174897	0.618516958	0.616423978	0.615539542
0.448166366	0.435880315	0.877399658	0.575795106	0.542823497	0.170558171
0.027883314	0.027588005	0.028108758	0.695378626	0.694979999	0.695190805
0.87438666	0.050892459	0.872047326	0.168279869	0.658932279	0.165031639
0.04115575	0.881518321	0.041773522	0.693034029	0.175448101	0.692581189
0.480699438	0.401351154	0.877375932	0.590161432	0.548029354	0.170482388
0.855713091	0.116692233	0.863101568	0.155852444	0.590380882	0.155929124
0.074568513	0.855617243	0.091507629	0.626029339	0.149411311	0.645671742
0.877578424	0.480932228	0.410171534	0.170902255	0.559588589	0.517362031
0.871716254	0.875368758	0.047405254	0.164567711	0.168496533	0.657100456
0.875868103	0.884268429	0.0000055	0.170832115	0.176261697	0.69965314
0.080698612	0.855980721	0.103854829	0.623688265	0.149354187	0.643538469
0.577545273	0.877293578	0.522805621	0.529511672	0.170591119	0.558483612
0.873391257	0.055344117	0.870980385	0.168025675	0.654886322	0.164498458
0.079728274	0.071557646	0.855629705	0.648164687	0.627237613	0.149068659
0.866710667	0.104006609	0.866775915	0.162750347	0.615270535	0.15912035
0.877905849	0.876883209	0.876504703	0.170956652	0.170615366	0.170493204
0.070269046	0.071573239	0.073900804	0.649890723	0.650235758	0.650673009
0.092856727	0.099660198	0.841640629	0.629307516	0.604395689	0.134978333
0.069849535	0.065048275	0.08458893	0.670486554	0.670759065	0.672847889
0.856363723	0.091244087	0.074239336	0.149427075	0.645788081	0.625481293
0.266320657	0.274426967	0.826571124	0.61218889	0.5838538	0.118843503
0.054304508	0.881554397	0.054623763	0.691053882	0.175408118	0.690155361
0.059583647	0.064850593	0.063265406	0.652147965	0.651754532	0.652080378
0.859294018	0.846279984	0.153984897	0.152186357	0.151212044	0.560770126
0.825576332	0.136753689	0.127243213	0.118904135	0.603596738	0.576072376
0.846025313	0.147481868	0.860919471	0.150800188	0.562852552	0.153074025
0.081672055	0.867494304	0.866297663	0.621313816	0.159702731	0.161734674
0.877535946	0.459663366	0.429515255	0.170569266	0.559614871	0.524553021
0.875740259	0.075982715	0.871237338	0.168976513	0.650417568	0.164615989
0.877678054	0.459678241	0.429634795	0.17063045	0.559633154	0.524557818
0.442846493	0.44817007	0.877333026	0.606831672	0.5766271	0.170613643
0.87476241	0.065241712	0.872340891	0.168515774	0.652733239	0.164761654
0.040996708	0.881915353	0.0416322	0.692848371	0.175075478	0.692934551
0.878395929	0.877215221	0.878499544	0.171173735	0.170490046	0.170784313
0.825337031	0.136108042	0.127623158	0.118598207	0.606574113	0.577116438
0.860676393	0.84360666	0.137237407	0.153784846	0.148573898	0.566148599
0.874810503	0.873535557	0.876638832	0.188833435	0.188474669	0.18858741
0.865380679	0.081476388	0.866982658	0.161410183	0.62140686	0.159332267
0.087474116	0.078902552	0.868707522	0.672392814	0.660121744	0.162646614
0.875937606	0.88332417	0.0000055	0.17060432	0.175237131	0.699303936
0.881381892	0.041220323	0.0408272	0.17539793	0.69252771	0.693117422
0.877356008	0.437069837	0.44635418	0.170599416	0.575718687	0.546078704
0.841643088	0.083374246	0.102199558	0.134840399	0.630969603	0.606177909
0.84389522	0.137132071	0.861625407	0.148849905	0.566223333	0.154336039
0.866485748	0.095157982	0.867273064	0.162281105	0.61757517	0.159479545
0.459068526	0.425720562	0.877393851	0.575493889	0.5393823	0.1705701
0.841438776	0.124870775	0.104004753	0.135349219	0.622896952	0.59780131
0.843149285	0.133788952	0.861602876	0.1476486	0.567772296	0.154602551
0.875815549	0.883559393	0.054271221	0.170716955	0.175447309	0.690439496
0.864882183	0.85572475	0.111452155	0.156271212	0.155513735	0.592225553
0.865400772	0.07708379	0.867906118	0.161110655	0.623357998	0.159662413
0.439053787	0.878138423	0.439058508	0.596280148	0.171246152	0.626735878
0.882379801	0.041066991	0.040808585	0.175444047	0.692517621	0.692893927
0.860762188	0.844775648	0.147511134	0.152835271	0.150417083	0.562876108
0.868827994	0.076677182	0.080569214	0.162571209	0.676096136	0.664453224
0.841421085	0.102967631	0.098978141	0.134975711	0.627805113	0.602824085
0.868781704	0.084562241	0.076184603	0.162669722	0.672830709	0.661592964
0.868672831	0.081580735	0.078585144	0.162589788	0.674564944	0.662636699
0.862246405	0.843255904	0.133710455	0.155023068	0.147745337	0.567697873
0.06249653	0.062483639	0.062494324	0.638290814	0.63848318	0.638504553
0.877746694	0.877578957	0.878615889	0.170940462	0.170684365	0.171041791
0.421719195	0.877085813	0.45899503	0.554915912	0.170045376	0.590277307
0.055358539	0.872981009	0.875190965	0.654892326	0.165047306	0.16888627
0.877565189	0.484822524	0.392995012	0.170788514	0.62505445	0.582527982
0.100300726	0.84186617	0.114002635	0.601041091	0.13511876	0.625941465
0.860221376	0.843588712	0.13718321	0.153967655	0.148608415	0.566221249
0.866501388	0.865692617	0.104043474	0.1592818	0.162485413	0.615209386
0.080420587	0.856230981	0.104280881	0.623627129	0.149409669	0.643654123
0.107799673	0.865694128	0.85484884	0.593980263	0.157094024	0.154916556
0.844198767	0.13371467	0.863375596	0.148496544	0.567775039	0.155754929
0.877319526	0.448096374	0.435840075	0.170582007	0.575621141	0.54274166
0.442899741	0.44849608	0.87736605	0.606547045	0.576646535	0.170596147
0.133796519	0.86083097	0.84247083	0.567780492	0.154746298	0.147818799
0.868794748	0.08299922	0.075159769	0.162665485	0.673388447	0.66169545
0.147433177	0.860279853	0.845613827	0.562763702	0.153085889	0.150757929
0.469713472	0.411389522	0.877011806	0.59047805	0.552084981	0.169998406
0.861136786	0.846576439	0.147408767	0.153297603	0.150844123	0.562786777
0.414578654	0.877200959	0.474963957	0.569308618	0.170575582	0.608349614
0.081642967	0.867273114	0.865596821	0.621241767	0.159810502	0.161628677
0.438845327	0.438840634	0.877712254	0.626610968	0.596288878	0.170763441
0.439575761	0.877327144	0.448680085	0.527651835	0.170563673	0.55973916
0.415561272	0.877659262	0.462125021	0.589695095	0.170692387	0.626230892
0.844931876	0.147484121	0.858434815	0.150216978	0.562793655	0.152495477
0.113889698	0.100147356	0.842044324	0.625820743	0.600818991	0.135169048
0.404065409	0.87740909	0.473454205	0.586230504	0.170639811	0.625721266
0.877683436	0.470319364	0.419881383	0.170742627	0.559655543	0.520957697
0.027321919	0.875983383	0.882909615	0.695104352	0.170584826	0.175034536
0.00000549	0.876253243	0.883774948	0.699119336	0.170875223	0.17551666
0.86908876	0.089569354	0.076082203	0.162676211	0.671701177	0.659716127
0.419838516	0.877730118	0.470402223	0.520959305	0.170688765	0.559686682
0.877042158	0.469956885	0.411970861	0.170162476	0.591476306	0.552728812
0.480906398	0.410109161	0.877489416	0.559294324	0.517618342	0.170495496
0.045616735	0.047799855	0.053453375	0.655683622	0.65644067	0.656782908
0.139769153	0.826743646	0.150761955	0.576943922	0.11921109	0.604927351
0.860303501	0.846015787	0.147401542	0.153278531	0.15093838	0.562696767
0.081900233	0.855995254	0.069039101	0.633329336	0.149147493	0.654468659
0.099789011	0.081165861	0.868920998	0.66806769	0.657540724	0.162607828
0.866636219	0.865605991	0.08177446	0.159270899	0.161349766	0.621450299
0.425674339	0.877333788	0.459077027	0.539466352	0.170522496	0.575575711
0.877363271	0.473563599	0.410207113	0.170541286	0.609089902	0.569261452
0.103058577	0.078842588	0.856050044	0.643253863	0.623648955	0.149675416
0.331035573	0.826162018	0.329797195	0.584642669	0.118910144	0.612145194
0.868928367	0.090856562	0.07772264	0.1626893	0.67136259	0.659342216
0.444572701	0.877331192	0.438303601	0.561797395	0.170330194	0.591309524
0.059975189	0.060048388	0.059987632	0.640128777	0.640108542	0.639857581
0.882814068	0.040845947	0.876350483	0.174818841	0.692823893	0.170767083
0.404224176	0.877709021	0.473596455	0.586191792	0.170703694	0.625716912
0.041073711	0.040890899	0.88108317	0.692491899	0.693063971	0.17499506
0.045352256	0.048489172	0.053830707	0.655928754	0.656001121	0.656193802
0.145629371	0.826974298	0.147469202	0.576504708	0.118931529	0.603743325
0.841185334	0.083318648	0.102216246	0.134842934	0.63118721	0.605949029
0.141782576	0.85998567	0.845767678	0.564466574	0.15412742	0.150358877
0.859926003	0.845890978	0.153950454	0.151729787	0.150912223	0.560988419
0.480565928	0.40608296	0.877434462	0.574728223	0.532183043	0.170543359
0.403997517	0.877262079	0.473376073	0.586125514	0.170900273	0.625886524
0.855618631	0.065553984	0.079227497	0.148607689	0.652416954	0.631836315
0.87740767	0.450745377	0.432445749	0.170560878	0.609761743	0.576354048
0.425671236	0.877309442	0.459050213	0.539403222	0.170658751	0.575557056
0.435915892	0.877325937	0.448013476	0.542860738	0.170622108	0.575863964
0.450083332	0.426657643	0.876755509	0.626561343	0.593005626	0.170432928
0.862579564	0.84365921	0.133728829	0.155168831	0.147818956	0.567735403
0.425577915	0.877221249	0.459041324	0.539479536	0.170534328	0.575557389
0.146352209	0.137552446	0.095981085	0.61847236	0.616119656	0.615455822
0.860968924	0.844818791	0.141737902	0.153625534	0.149663426	0.56457308
0.874267491	0.051626972	0.87208377	0.168318672	0.659003037	0.165071402
0.00000549	0.876152589	0.883153835	0.699264758	0.170326972	0.174866924
0.877499284	0.470604547	0.411679883	0.170344649	0.591149901	0.552090544
0.864100371	0.863103629	0.86386216	0.219576526	0.219193525	0.219637263
0.841547195	0.083347261	0.102223677	0.134863819	0.631172412	0.605923514
0.87404056	0.047311974	0.87120674	0.168429404	0.656907648	0.164520389
0.868845609	0.097664775	0.080780514	0.162779273	0.666146945	0.654062253
0.103748178	0.841770957	0.125113267	0.598535637	0.135432344	0.623605655
0.841699886	0.113869375	0.100372421	0.135067032	0.62610793	0.600666056
0.133745692	0.86200091	0.844351011	0.567773751	0.154846596	0.147857583
0.867027226	0.10399076	0.866388476	0.162830616	0.615293104	0.159176826
0.414053491	0.877278691	0.475012598	0.567880374	0.170620524	0.606900695
0.403954406	0.877187617	0.473344406	0.586302033	0.170721237	0.625773362
0.421645659	0.876767792	0.458772453	0.554785417	0.170132358	0.59017672
0.881429407	0.00000482	0.00000492	0.175450268	0.698861363	0.699274664
0.8752157	0.883868858	0.054271256	0.170745842	0.175479875	0.690440557
0.056324662	0.044721944	0.075106177	0.674423727	0.674673658	0.675633664
0.414078099	0.877194447	0.475195724	0.5688268	0.170602237	0.607813891
0.041154669	0.881534495	0.041772886	0.693004538	0.175413459	0.692595343
0.41134662	0.876890086	0.469632968	0.551426239	0.170443524	0.590427467
0.43710671	0.446368986	0.87740772	0.575775195	0.546051723	0.170610408
0.0798423	0.869057909	0.088777981	0.664330331	0.162632611	0.674069976
0.014474552	0.014188866	0.881629833	0.697578142	0.697548697	0.175134307
0.826234739	0.135397141	0.127118214	0.11913501	0.605088774	0.577785882
0.051881511	0.053578518	0.05841739	0.653767184	0.654096413	0.653523466
0.00000549	0.876951202	0.882970415	0.699113045	0.170483614	0.175077955
0.881578271	0.054531914	0.054219682	0.175760368	0.690273879	0.690259434
0.847322671	0.14749348	0.859893789	0.150600268	0.562761477	0.152894667
0.470388149	0.419859894	0.877740171	0.559595624	0.520951696	0.170559908
0.149702743	0.135085606	0.825490951	0.60395449	0.574318864	0.119290495
0.404170756	0.877612147	0.473553022	0.586169967	0.17089336	0.625883392
0.843886601	0.137131211	0.861625008	0.148848028	0.566226726	0.154334266
0.877355376	0.473575418	0.410182869	0.170544083	0.609098064	0.569257025
0.062470066	0.062477791	0.062429685	0.638291444	0.638394646	0.638523355
0.077101222	0.080480323	0.868991213	0.678425942	0.66594711	0.162495953
0.878216388	0.884764227	0.0000055	0.171044603	0.176273834	0.699602699
0.865727128	0.087709521	0.866802638	0.161863227	0.619339222	0.159304613
0.480879414	0.401571347	0.877771668	0.590251508	0.548130694	0.170464965
0.874837542	0.04722773	0.870890204	0.168524879	0.656884696	0.164468956
0.040337987	0.046509888	0.074239653	0.677755114	0.677056307	0.67936791
0.450493117	0.427066147	0.877573833	0.626555112	0.593096409	0.170564958
0.86649005	0.865640384	0.104036339	0.159302016	0.16252545	0.615197634
0.047138701	0.871598065	0.875165933	0.656988296	0.164462132	0.168096472
0.00000479	0.881294386	0.00000488	0.699307299	0.175291298	0.69911656
0.874266278	0.049910091	0.872172681	0.168259977	0.658791941	0.165016299
0.881247719	0.00000493	0.00000486	0.175383875	0.699210438	0.69964844
0.041198293	0.040957247	0.881196942	0.692697006	0.693041534	0.174914223
0.129294731	0.322928868	0.224288077	0.623145266	0.627662818	0.62286062
0.09922863	0.841768102	0.103058661	0.602417081	0.134911394	0.627641965
0.10022358	0.841771832	0.113889724	0.600905825	0.135002679	0.625951576
0.055378631	0.871373146	0.874660246	0.654981042	0.164823035	0.168732753
0.868978478	0.08021248	0.077250055	0.162534515	0.674727012	0.663068366
0.855443041	0.102887097	0.079123404	0.149417015	0.643420385	0.623507472
0.876344251	0.883535561	0.013706849	0.170400355	0.175419706	0.697338793
0.083908529	0.868892561	0.085153549	0.660410131	0.16261379	0.674921721
0.877223014	0.877368339	0.875881936	0.171030275	0.170709428	0.170423159
0.865220563	0.077126579	0.867127016	0.160918243	0.622687858	0.160008453
0.153946425	0.859709503	0.846653357	0.560775997	0.15235337	0.151486766
0.435648739	0.877402377	0.454573532	0.575809897	0.17057219	0.609157768
0.082028735	0.255880038	0.240191941	0.620190188	0.624154176	0.625193319
0.855172186	0.079638252	0.071844007	0.1488237	0.647882393	0.627991899
0.865744466	0.077001731	0.867044998	0.161110856	0.622934107	0.159470335
0.877185106	0.459486298	0.429336055	0.170466904	0.559805527	0.524425742
0.87612959	0.883424022	0.027331556	0.170526754	0.17566128	0.695396426
0.846939449	0.153933006	0.858613724	0.151499242	0.560938309	0.152096277
0.091822932	0.074390115	0.854840887	0.645310632	0.625722908	0.149489142
0.487175099	0.401201768	0.877462061	0.609331031	0.565965783	0.170502592
0.841928849	0.11374107	0.100374612	0.135151922	0.62620478	0.600873739
0.841753869	0.092670366	0.099692122	0.134773775	0.629593635	0.604260546
0.871327838	0.875944203	0.075946048	0.16477371	0.169400176	0.650441421
0.062475816	0.062488281	0.062449559	0.638290389	0.638245991	0.638515374
0.869128579	0.097641271	0.080070495	0.162753229	0.669935066	0.657178236
0.065209793	0.8719985	0.874656246	0.652894101	0.164680305	0.168860099
0.877380774	0.470375994	0.412020128	0.170350581	0.590661692	0.551685044
0.480462082	0.401134878	0.876907552	0.589945847	0.547928849	0.170232229
0.863286965	0.8462941	0.137243343	0.154482573	0.148936291	0.566217727
0.872012771	0.874931094	0.046055502	0.165128122	0.168600825	0.658048087
0.825937345	0.226973065	0.223934295	0.118747863	0.610682479	0.583005654
0.013708073	0.876714049	0.883820956	0.697354802	0.170940413	0.175525244
0.092703406	0.0995615	0.841406552	0.6295508	0.604501251	0.134834199
0.860770501	0.843769203	0.137191612	0.153783886	0.148188767	0.566269137
0.82494394	0.823041558	0.825056187	0.298554555	0.298586575	0.298172864
0.066313209	0.078316377	0.855683973	0.653457679	0.633369823	0.149458323
0.459559073	0.429652958	0.877572913	0.559818513	0.524391221	0.170626648
0.074874425	0.074953048	0.075352089	0.634461472	0.634308904	0.634435828
0.868854452	0.080544873	0.076993504	0.162637715	0.67263193	0.661562188
0.080476872	0.855837392	0.104117743	0.623686994	0.149349497	0.643455677
0.869020667	0.083244308	0.075629861	0.162668437	0.674411971	0.660963127
0.841739787	0.092694481	0.09973053	0.134786849	0.629631298	0.604232574
0.844430835	0.137208891	0.861482914	0.148796549	0.566335561	0.154213195
0.877270991	0.448099356	0.435779356	0.170599832	0.575683245	0.542812157
0.87749398	0.480642959	0.405675479	0.170551669	0.57509838	0.532762394
0.856829001	0.116689455	0.864683736	0.155847515	0.590318012	0.156055711
0.82628985	0.191230333	0.187718217	0.118957393	0.611847848	0.581666176
0.826107989	0.147151886	0.132531701	0.119185826	0.604972272	0.575538997
0.877610958	0.448839483	0.439686108	0.170724019	0.559813431	0.527695713
0.278576452	0.282501577	0.826249597	0.610910576	0.581610565	0.119086492
0.041159915	0.040964425	0.880756367	0.692636845	0.693111945	0.174959236
0.099678522	0.841867057	0.092659681	0.604435883	0.134885721	0.629759258
0.882179795	0.027711093	0.027330572	0.175398144	0.695151008	0.695201031
0.874929869	0.047291426	0.871877254	0.168451539	0.656796422	0.164625605
0.855009013	0.111448323	0.864555036	0.154705869	0.592186038	0.155731729
0.027328063	0.88166653	0.027655281	0.695283659	0.175123042	0.694452569
0.081078935	0.855505942	0.066697933	0.630759335	0.14885549	0.6521955
0.091504699	0.076365171	0.869351262	0.670282033	0.660235637	0.162596499
0.081338395	0.869280045	0.099907249	0.656399883	0.162635192	0.66907238
0.077541299	0.080892738	0.868959316	0.678279303	0.666058766	0.162531953
0.079545704	0.082758117	0.868907328	0.679369821	0.666359477	0.162500569
0.84653296	0.153967593	0.858638566	0.150903357	0.560896827	0.151580672
0.415183691	0.876895465	0.461739458	0.589736716	0.170606572	0.626113094
0.099730731	0.841732479	0.092679696	0.604324587	0.134816678	0.629762267
0.00000549	0.875919879	0.884346395	0.69936069	0.170596897	0.176115597
0.04109509	0.041125556	0.041620004	0.693042392	0.692657318	0.693672334
0.480455479	0.405956366	0.877347556	0.575338675	0.532849953	0.170510465
0.877367783	0.480724736	0.401625182	0.170449457	0.590182211	0.54846301
0.845706703	0.147464936	0.859435537	0.150127227	0.562647141	0.152513991
0.081896623	0.867327285	0.866618037	0.621155311	0.159634999	0.16172553
0.435949446	0.877393155	0.448113681	0.542740926	0.170570672	0.57563729
0.404183528	0.877645711	0.473573237	0.586220301	0.17079823	0.625867236
0.874496162	0.05540436	0.871887788	0.168723357	0.655090618	0.164819576
0.864836136	0.863413778	0.864184673	0.219558452	0.219238565	0.219521158
0.133727343	0.862031888	0.843962234	0.567838977	0.155175132	0.148139439
0.072943176	0.855387633	0.08193064	0.627704114	0.149372973	0.647566633
0.462010427	0.415444325	0.877427753	0.626341962	0.589650703	0.170592216
0.079381616	0.868841664	0.088458832	0.6643301	0.162673314	0.674170518
0.845880551	0.147477642	0.859283612	0.15027423	0.56276972	0.152392855
0.056349636	0.044817756	0.075077981	0.675194105	0.674718462	0.675692476
0.877473501	0.480525484	0.405696717	0.170596492	0.575399973	0.532967033
0.099882041	0.081008442	0.869056112	0.668608658	0.65664393	0.162622577
0.422057695	0.87745256	0.459019471	0.555292291	0.170273428	0.591078025
0.06250079	0.062499878	0.062439611	0.638399709	0.638447953	0.638563127
0.43956419	0.877424031	0.44878617	0.527661019	0.170542612	0.559753382
0.874863046	0.065249378	0.871301666	0.168658114	0.65269266	0.164851914
0.85458274	0.107529278	0.864706756	0.15493207	0.593860328	0.156995059
0.486841152	0.401532429	0.877298914	0.607733061	0.564793435	0.170503257
0.882682952	0.040848192	0.875820343	0.174546525	0.692866547	0.170559025
0.414596278	0.877150726	0.474885377	0.569383848	0.170576574	0.60843412
0.070832446	0.051717579	0.083454759	0.673482713	0.672539904	0.674785143
0.461920625	0.415351965	0.877245581	0.626364223	0.589667248	0.170449282
0.875124812	0.883921723	0.054271452	0.170765003	0.175509935	0.690442834
0.877461169	0.480559418	0.405667686	0.17052372	0.575008094	0.53262343
0.881432318	0.00000483	0.00000491	0.175454093	0.698842102	0.699309876
0.111377307	0.864705648	0.85555167	0.592038804	0.156214701	0.155199476
0.439431395	0.876982548	0.448478099	0.527594475	0.170730539	0.559788023
0.087460632	0.079316538	0.868779543	0.672440061	0.660157492	0.162658771
0.876612527	0.877189809	0.876666997	0.170407361	0.170680985	0.170435819
0.415478542	0.877491987	0.462040791	0.589833124	0.170517367	0.626053281
0.013706027	0.87591127	0.882616304	0.697266279	0.170866464	0.17561589
0.092777549	0.099648817	0.841706227	0.62932296	0.604408014	0.134963326
0.45500664	0.43588693	0.877399777	0.611028995	0.577432675	0.170589328
0.014600069	0.014463724	0.882145692	0.696909402	0.69706654	0.175747113
0.059591586	0.064454419	0.062879439	0.652154984	0.651962604	0.651830964
0.099708199	0.841754159	0.092666093	0.60432387	0.134829843	0.629769075
0.421848208	0.877364347	0.459152454	0.555144594	0.170270679	0.590356535
0.882632132	0.054624219	0.054197227	0.175696269	0.690140959	0.690421572
0.081375072	0.8554848	0.067104272	0.630821292	0.148880826	0.652175345
0.881405176	0.00000481	0.00000493	0.175426431	0.698948125	0.699106219
0.48063781	0.405846752	0.87743281	0.574753923	0.532328238	0.170557387
0.485108316	0.3932575	0.878113827	0.625193926	0.582621478	0.170703489
0.883391367	0.027327537	0.875587661	0.175363084	0.695249067	0.170827751
0.014626885	0.014453461	0.881220957	0.697211636	0.697522329	0.175293295
0.405826141	0.877318373	0.480582453	0.53272356	0.170594706	0.575018653
0.014327395	0.881087074	0.014153786	0.697480782	0.175520821	0.696673666
0.455003742	0.435888643	0.877399759	0.611029421	0.5774324	0.170589307
0.450169409	0.426744583	0.876928402	0.626331694	0.593179096	0.170289963
0.845626048	0.147494384	0.859600188	0.150244853	0.562826407	0.152692453
0.055369068	0.871917049	0.873487691	0.654892861	0.164739388	0.168471561
0.04559153	0.048365394	0.054072778	0.656071961	0.656083814	0.656081063
0.438795682	0.438790917	0.877612884	0.62659977	0.596340448	0.170437452
0.054607208	0.05425887	0.880885738	0.689961898	0.690494128	0.175123199
0.415682709	0.877437784	0.46993594	0.536187185	0.170537155	0.575469482
0.43706025	0.44632133	0.877311191	0.575689582	0.545984474	0.170637667
0.058637388	0.038598172	0.077227728	0.679832117	0.679032302	0.680235521
0.864188077	0.856163546	0.116585034	0.155807922	0.155747575	0.590445363
0.074896679	0.074918713	0.075176413	0.634062805	0.634515156	0.634424378
0.013706649	0.876738201	0.884130009	0.697333921	0.170895686	0.175614591
0.841757309	0.113887069	0.10039762	0.135063739	0.626167576	0.600684667
0.041030903	0.881774358	0.041261567	0.693068354	0.175623108	0.692538853
0.877352864	0.437188641	0.444244323	0.17034238	0.591470764	0.561970653
0.86902845	0.090047563	0.076575719	0.162674874	0.672101659	0.659830592
0.147423007	0.860151222	0.846082798	0.562786697	0.152653128	0.150444869
0.866076577	0.077140002	0.868158818	0.161734003	0.623142933	0.159997112
0.87488736	0.04719171	0.871948623	0.168506437	0.656916591	0.164873422
0.083827046	0.868616702	0.085537127	0.661839104	0.16260585	0.676581394
0.410244671	0.877774754	0.481046257	0.517511909	0.170874579	0.559486696
0.014359646	0.014159529	0.882244517	0.696750936	0.697331565	0.175485623
0.87574181	0.883749826	0.05427659	0.170888251	0.175670824	0.690523194
0.857038865	0.068782821	0.071827769	0.14944292	0.649876905	0.629886809
0.014431961	0.8809512	0.014817777	0.697334748	0.17520706	0.697356277
0.401077356	0.876644909	0.480328081	0.548291764	0.17002288	0.590097013
0.056068695	0.044848184	0.075124155	0.674658188	0.674735142	0.675524996
0.473490759	0.40411535	0.877494363	0.625860223	0.586100275	0.170764771
0.877757639	0.87753444	0.878924151	0.170978416	0.170684283	0.17106173
0.82625144	0.200802477	0.210455813	0.119090565	0.609559781	0.57747826
0.446693015	0.877348926	0.444352026	0.576466018	0.170554641	0.606936337
0.103026626	0.078865058	0.855976951	0.643238399	0.623621355	0.149671487
0.014715985	0.880845888	0.014866985	0.697286533	0.175348566	0.696767835
0.148754454	0.142656458	0.094743243	0.618244715	0.61631573	0.615272501
0.103077956	0.099070621	0.841523077	0.627703052	0.602620604	0.134977982
0.06769566	0.067618437	0.067851837	0.636445905	0.636507142	0.636751996
0.052092923	0.052771114	0.057289902	0.653738014	0.654192371	0.653972077
0.877342878	0.437071397	0.446338436	0.170588278	0.575737181	0.546083503
0.87621689	0.883663689	0.027322271	0.170473861	0.175744556	0.695103332
0.401469745	0.877584707	0.480839798	0.548568503	0.170660298	0.590201572
0.278955474	0.28278059	0.825711782	0.612500694	0.585032871	0.11873357
0.070269307	0.071602252	0.073936069	0.64978207	0.650134022	0.650469631
0.420251043	0.878564849	0.470809323	0.520912131	0.170830113	0.559775726
0.077754769	0.081018581	0.868828385	0.678200597	0.666037648	0.162560684
0.125153454	0.111685119	0.14358328	0.615277831	0.615359606	0.615937224
0.013934906	0.014319046	0.013848587	0.696971771	0.697446331	0.697449644
0.880626683	0.054618188	0.054199028	0.174972379	0.689943007	0.690733166
0.437956227	0.444883694	0.877408456	0.592712259	0.563218951	0.170332066
0.884050036	0.027325513	0.87513108	0.175605195	0.695226213	0.170324417
0.435885914	0.8772568	0.448035774	0.542879151	0.170531173	0.575813599
0.079542072	0.082417895	0.868912548	0.67945645	0.666439408	0.162499795
0.329098804	0.825968736	0.319381878	0.586662716	0.118664882	0.61317087
0.40577456	0.877279954	0.480621398	0.532765541	0.170552586	0.575090024
0.448470403	0.439533945	0.877083442	0.5597895	0.527513648	0.170637131
0.861086456	0.844411452	0.141748136	0.15287166	0.14894261	0.56451227
0.092019629	0.074300983	0.856992533	0.645516445	0.625767325	0.149554872
0.877340431	0.459021182	0.425557138	0.170587842	0.575697929	0.539647603
0.437106789	0.446369209	0.877408027	0.575775127	0.546051896	0.170610332
0.092757012	0.099632802	0.84140386	0.629561919	0.604414392	0.134849056
0.103409113	0.841562733	0.125141217	0.598313542	0.1351699	0.623486275
0.84730551	0.153989247	0.858682302	0.150960114	0.560851914	0.151629328
0.404287353	0.877854471	0.473677808	0.586221394	0.170799588	0.625859432
0.826133344	0.234950104	0.247562649	0.118921963	0.613449682	0.584529755
0.869042551	0.08231604	0.075062942	0.162585985	0.673463744	0.659765707
0.877309382	0.44808614	0.43582722	0.170613149	0.57571612	0.542847585
0.103411148	0.124648764	0.1710444	0.616733163	0.621229637	0.61794712
0.875207636	0.047242163	0.871057449	0.168575269	0.656739662	0.164238495
0.863954862	0.856371192	0.123126701	0.155304695	0.15618203	0.588620054
0.124722899	0.103247689	0.841716631	0.624165158	0.598521717	0.135104347
0.041448784	0.04115401	0.042135703	0.692915121	0.692901592	0.69369101
0.87799193	0.438223862	0.443853572	0.170667645	0.591005018	0.561505169
0.841695007	0.083349068	0.102300699	0.13488922	0.631387445	0.605907873
0.877172441	0.450293456	0.426864487	0.170566364	0.626367211	0.593240511
0.041122153	0.882664117	0.041382794	0.692798679	0.175574373	0.692589979
0.027321877	0.87692302	0.882394437	0.695094616	0.170907215	0.175559321
0.877878677	0.470419472	0.419972334	0.170659511	0.559759403	0.520976295
0.856046572	0.079506663	0.071904955	0.149441874	0.647900116	0.62744746
0.873689364	0.873687984	0.872895361	0.188585004	0.18897563	0.188521403
0.877454582	0.483564675	0.400331302	0.170559963	0.608703468	0.566079325
0.878060169	0.439019517	0.43901478	0.170925384	0.626606924	0.59643663
0.044971338	0.049398662	0.051977793	0.657909716	0.658389309	0.658508814
0.826154828	0.148575065	0.130572068	0.119162579	0.605106017	0.575591768
0.841718115	0.103022274	0.099042149	0.134998766	0.627682118	0.602588479
0.877509075	0.448700971	0.43971691	0.170815983	0.559804202	0.527574996
0.04581954	0.048612068	0.052597041	0.657848884	0.658171911	0.659545349
0.877448411	0.473464776	0.410142881	0.170624543	0.60925999	0.569482681
0.404155904	0.87759228	0.473547528	0.586252423	0.170741841	0.625784391
0.882941175	0.013707623	0.875007764	0.174977077	0.697406761	0.170418118
0.105895117	0.1274143	0.177627623	0.616995922	0.618847398	0.61740021
0.107836191	0.864667873	0.854922329	0.593729274	0.156627055	0.154516794
0.448631267	0.439595242	0.877309493	0.559787228	0.527548977	0.170562431
0.875688195	0.883222779	0.013706759	0.170399124	0.175413699	0.697334748
0.054307907	0.881364287	0.054661561	0.69106229	0.175429719	0.690053966
0.132837212	0.825696836	0.149496633	0.575018095	0.118901983	0.603955636
0.432582257	0.877385472	0.448034979	0.558222329	0.170524923	0.590908599
0.86644785	0.095396704	0.867165774	0.162559258	0.617332269	0.159487804
0.095391083	0.866759695	0.865568438	0.617421683	0.159279733	0.162169967
0.875678085	0.06523721	0.871492151	0.168296384	0.652810178	0.164399414
0.084952813	0.868985941	0.081628098	0.665400375	0.162544263	0.67736532
0.85505945	0.068636848	0.072048988	0.149310566	0.649894352	0.62902989
0.055334818	0.871867193	0.87319242	0.654892887	0.164864385	0.168518842
0.865681909	0.087714876	0.866795508	0.161876378	0.619302972	0.159313422
0.480691942	0.405690517	0.877322031	0.5748991	0.532429539	0.170530407
0.123107946	0.863408826	0.856410581	0.588689569	0.155185707	0.156327734
0.081528905	0.86917737	0.099367754	0.656734185	0.162670628	0.669388102
0.856323154	0.091327577	0.074135986	0.149295592	0.646301196	0.625303517
0.860968924	0.844818791	0.141737902	0.153625534	0.149663426	0.56457308
0.882540128	0.040844846	0.876570218	0.175122245	0.692796676	0.171174343
0.455299839	0.435484145	0.877330421	0.610041507	0.576773475	0.170596699
0.844275893	0.137192057	0.861595723	0.148968973	0.56637695	0.154453216
0.877659839	0.484887043	0.393022468	0.170716227	0.62515598	0.582595338
0.09735482	0.142856017	0.182135241	0.618471536	0.618609575	0.620776728
0.45974499	0.429788238	0.877897457	0.559851909	0.524439498	0.170769684
0.459037865	0.425688738	0.877294328	0.575447159	0.539351019	0.170576059
0.881474679	0.027990476	0.027610347	0.17537637	0.694826224	0.695413507
0.876861044	0.88392642	0.027331919	0.170672996	0.17584517	0.695410393
0.073595059	0.855277513	0.082862145	0.627845329	0.149409252	0.647677594
0.04080152	0.881565752	0.041365246	0.692730275	0.175343452	0.692184452
0.87706386	0.459325113	0.42164848	0.170279626	0.590557386	0.554650307
0.448143308	0.43593055	0.877426913	0.575820932	0.542891292	0.170548958
0.221186616	0.826266786	0.212943147	0.580071461	0.119153975	0.608808604
0.095529497	0.8669041	0.866495075	0.617374742	0.159297452	0.162486808
0.39288475	0.87734444	0.484713169	0.582423096	0.170573074	0.625307074
0.147435289	0.860510912	0.845825319	0.562762865	0.153086077	0.150761304
0.841627667	0.113891462	0.100279189	0.135060109	0.625983286	0.600544859
0.486839325	0.401556615	0.877417474	0.607394914	0.564326198	0.170527768
0.877356222	0.473615231	0.410057607	0.170524411	0.609060814	0.569267052
0.09283215	0.099700093	0.841680248	0.629405963	0.604428355	0.134934965
0.864880797	0.855042396	0.111359182	0.155752161	0.154675829	0.591965998
0.111374097	0.864922905	0.855157691	0.592039539	0.156218176	0.155185795
0.824121184	0.823855665	0.82645608	0.298608798	0.29887271	0.299745642
0.05903098	0.038589845	0.07777767	0.679812229	0.679048485	0.680100046
0.855705669	0.10757017	0.86501081	0.155277322	0.593753171	0.157081185
0.867172642	0.104025908	0.866478738	0.162739014	0.61546111	0.158946901
0.04524598	0.872095114	0.874847203	0.659163598	0.165547179	0.168760015
0.875779888	0.882691279	0.040862123	0.170356916	0.174883973	0.693168331
0.459658334	0.429665611	0.877685274	0.559787047	0.524432724	0.170733868
0.877208059	0.480707754	0.410038749	0.17093918	0.559614392	0.517385074
0.465571256	0.424527386	0.877228892	0.608617051	0.571945533	0.170572869
0.876053765	0.884083154	0.027330125	0.170610866	0.175853805	0.695287275
0.856865201	0.111465241	0.865988527	0.155543746	0.592161262	0.156741075
0.081617576	0.078986563	0.868901308	0.675186365	0.663236553	0.16254887
0.877075241	0.480291996	0.40180513	0.170703793	0.590301571	0.548137195
0.153926046	0.859344356	0.846828106	0.560859072	0.152743075	0.151871114
0.88142133	0.00000489	0.00000485	0.175501581	0.698868263	0.69929569
0.438045173	0.444678844	0.877324073	0.592680674	0.563173719	0.17033758
0.411610593	0.877529393	0.469990386	0.551576459	0.170522831	0.59051835
0.059442884	0.063779353	0.062795264	0.652231881	0.65276086	0.652031319
0.877812242	0.473651567	0.404272485	0.170566306	0.625949997	0.586036757
0.334749629	0.825925458	0.329902897	0.585222477	0.118959675	0.610959029
0.081589373	0.869254838	0.099317168	0.656378953	0.162636188	0.669040637
0.414145043	0.877467471	0.475738727	0.566610711	0.170625988	0.605787606
0.86817146	0.866523738	0.077514385	0.160349234	0.161647507	0.623171395
0.424369908	0.877363438	0.46461073	0.572798132	0.170572771	0.609562595
0.876052746	0.877176316	0.875991814	0.170336605	0.170706761	0.170506587
0.067587471	0.067738809	0.067875343	0.636456353	0.636675781	0.636755984
0.868416969	0.865842841	0.077347997	0.160161127	0.161554063	0.62311574
0.855494872	0.107522531	0.865759946	0.154965678	0.593989221	0.157023172
0.868308425	0.865827898	0.076991085	0.160177359	0.161637088	0.623141773
0.054498117	0.055171054	0.054923961	0.690262719	0.690087642	0.690327914
0.877600243	0.473999727	0.482783109	0.170713029	0.561868682	0.5321682
0.47650162	0.412686604	0.877201008	0.609843087	0.570469765	0.170585739
0.868714481	0.075960591	0.079626373	0.162581029	0.676081183	0.664294891
0.841850568	0.092713464	0.099665891	0.134793241	0.629660114	0.604354853
0.868973931	0.098130125	0.080329307	0.162770601	0.666695718	0.653963124
0.427218122	0.877875617	0.450642908	0.59315111	0.170530577	0.626381446
0.877257815	0.448706278	0.43946414	0.170675795	0.559956169	0.527586733
0.87730508	0.43704604	0.446327071	0.170588874	0.575694897	0.546058501
0.86657448	0.104049198	0.866478488	0.162615481	0.615090802	0.159266992
0.060005278	0.060017604	0.059959283	0.63960883	0.640230352	0.639793535
0.054608102	0.0541939	0.882273809	0.690120148	0.690518406	0.17582047
0.868954662	0.089254208	0.074947585	0.162664197	0.672172497	0.659752754
0.13041998	0.863562653	0.857470169	0.586289524	0.155121924	0.15742078
0.405800757	0.877359935	0.480777155	0.532791513	0.170558189	0.575209518
0.877432227	0.462010426	0.415448709	0.170675969	0.62617853	0.589701274
0.859408732	0.844041592	0.141747992	0.152941991	0.149117172	0.564561326
0.866758485	0.095530691	0.866786806	0.162294406	0.617581219	0.159343407
0.469867455	0.411457957	0.877266189	0.590586487	0.552219265	0.170175843
0.876725462	0.448009407	0.432239098	0.170437102	0.590843918	0.558037503
0.856666615	0.091328342	0.074188069	0.14945504	0.645656864	0.625986072
0.485024096	0.39316653	0.877939683	0.625247047	0.582615824	0.170677778
0.083391095	0.102167539	0.841158389	0.630671958	0.605767216	0.134835125
0.102216098	0.841595875	0.083423951	0.606125235	0.134711998	0.631431472
0.826562994	0.262737453	0.280704241	0.118763736	0.612961812	0.584555951
0.40565085	0.87731167	0.480740316	0.532777411	0.170540593	0.575112696
0.402993953	0.877273986	0.485697529	0.564862904	0.170522945	0.607577155
0.079429614	0.869108563	0.093644707	0.659121495	0.162723915	0.670460194
0.447822265	0.432523381	0.877209134	0.590778457	0.55844984	0.170222327
0.041139309	0.041123412	0.041629104	0.693071936	0.692775487	0.69368039
0.153709623	0.140333919	0.097030525	0.618775226	0.617243183	0.615282517
0.876729857	0.882825276	0.013706332	0.17067536	0.175538892	0.697303076
0.027323392	0.876152548	0.883591455	0.695163528	0.170903616	0.175659606
0.86876061	0.082081285	0.07867385	0.162615469	0.673929037	0.662045332
0.059581873	0.064708491	0.06301687	0.652037869	0.651729762	0.652106911
0.881618696	0.00000494	0.00000479	0.175532277	0.699117313	0.699163671
0.205183019	0.826005353	0.202769201	0.578174363	0.119362906	0.606674909
0.841707743	0.113801964	0.100383594	0.135065113	0.626128539	0.600666612
0.080599167	0.083957392	0.868931861	0.679619749	0.666562128	0.162515729
0.87464676	0.055430641	0.871823971	0.168541051	0.654984116	0.164581083
0.045487754	0.048221882	0.054005698	0.655607821	0.656529583	0.655514453
0.405997309	0.877323316	0.480469309	0.532749018	0.170543968	0.575081401
0.882957135	0.054274642	0.875993181	0.174866738	0.690499206	0.170831977
0.279367236	0.29176643	0.825660894	0.61363116	0.583058984	0.11869148
0.421795007	0.877076831	0.458943671	0.554915506	0.169969958	0.590236179
0.00000482	0.88118992	0.00000486	0.699051653	0.175082596	0.698922061
0.476292735	0.413462768	0.877409217	0.610575846	0.57055457	0.170554857
0.825626034	0.135769493	0.126689301	0.118964533	0.603613477	0.576124553
0.103145755	0.099125392	0.841619534	0.627696261	0.60257549	0.134954498
0.04085344	0.875928513	0.883277087	0.693003588	0.170406377	0.175416732
0.446079665	0.87735621	0.444510125	0.576443266	0.170561978	0.606939541
0.0000049	0.00000488	0.881449004	0.699416272	0.699141315	0.175024602
0.876077851	0.8844944	0.013706976	0.170669197	0.175805488	0.697366432
0.867428697	0.866269276	0.095406376	0.159425266	0.162598721	0.617294798
0.062475	0.062478695	0.062437872	0.638261051	0.638412797	0.638522178
0.074918962	0.074922086	0.075079445	0.634084013	0.634554498	0.634401173
0.092674595	0.099631203	0.841258618	0.629507276	0.604479379	0.134945056
0.863437	0.863590782	0.863367917	0.219016783	0.219404086	0.219006571
0.080707387	0.855344135	0.104528545	0.623562808	0.149191121	0.643340338
0.439158446	0.878347635	0.439163129	0.59631812	0.170903506	0.626597121
0.103250038	0.841876385	0.124822114	0.598631764	0.135245611	0.623643795
0.405584149	0.877316099	0.480799882	0.532764746	0.170540507	0.575099784
0.131426247	0.82619073	0.14857342	0.575403492	0.118969841	0.604006023
0.874818023	0.076015813	0.871524053	0.168544943	0.650526554	0.164528729
0.06522037	0.872188895	0.873917866	0.652766295	0.16477067	0.168401142
0.092783177	0.080731495	0.868954609	0.667809654	0.656875721	0.162709263
0.866570956	0.095614566	0.867224918	0.162533214	0.617265699	0.159522748
0.436023616	0.877445268	0.448134852	0.542691161	0.170600051	0.575493553
0.825605746	0.148776514	0.132329355	0.118901725	0.604525842	0.57591102
0.866761743	0.866031329	0.088430846	0.159459949	0.162018808	0.619138199
0.841784862	0.113704215	0.10045773	0.135033155	0.625924762	0.600478219
0.404349517	0.877960138	0.473723162	0.586228787	0.170705565	0.62586816
0.081897392	0.079079904	0.868897952	0.675819777	0.663963247	0.162575234
0.081406731	0.078438059	0.868868631	0.675882973	0.663934119	0.162596069
0.068847117	0.071408047	0.855161102	0.649861443	0.62981468	0.148863957
0.4811254	0.410386547	0.877996878	0.559292542	0.51771282	0.170478004
0.446097612	0.877381345	0.444025113	0.577169601	0.170573164	0.608107591
0.027321649	0.876592853	0.88249861	0.695116599	0.171147707	0.175725657
0.84529508	0.14181065	0.861279074	0.149700372	0.564665555	0.153689689
0.43618163	0.877382202	0.454309361	0.576406399	0.170525201	0.609808429
0.473479539	0.404099343	0.877467277	0.625874239	0.586044964	0.170540766
0.846550881	0.84638322	0.847083965	0.257699267	0.256941319	0.257487246
0.856692971	0.130380497	0.863329306	0.156249093	0.586374393	0.154354116
0.470041083	0.411745069	0.877694097	0.590649674	0.551446555	0.17061325
0.871787112	0.874772735	0.065179878	0.164812202	0.168593662	0.652829307
0.10005284	0.841834054	0.114025283	0.600554497	0.13495577	0.625516178
0.070309168	0.071739472	0.074368442	0.650247166	0.649764867	0.650185223
0.057844019	0.045115502	0.076602576	0.67541543	0.674608899	0.676367556
0.055381896	0.872084937	0.874652054	0.655014455	0.164849475	0.168800058
0.07039464	0.065210162	0.085101834	0.669940353	0.670774461	0.671881687
0.045360827	0.047972121	0.053228476	0.655546201	0.656487742	0.6552417
0.869098737	0.082440492	0.074774604	0.162603028	0.674164713	0.660446756
0.448794994	0.439581171	0.877444532	0.559668416	0.527845091	0.170616894
0.877871277	0.470441711	0.419945888	0.170948061	0.559667179	0.521086926
0.075006289	0.856056559	0.091327467	0.625639519	0.14988829	0.645746758
0.014385583	0.014396687	0.882365578	0.697576908	0.697213653	0.175442756
0.438858002	0.438853288	0.877737524	0.626676794	0.596360926	0.170650171
0.10021175	0.841835199	0.114062581	0.600498129	0.134928712	0.625560174
0.475498048	0.413756877	0.877318028	0.609117701	0.569818773	0.170617917
0.869003293	0.090530049	0.076826957	0.162650338	0.671493935	0.659257105
0.878015117	0.470451246	0.420083104	0.170938012	0.559678837	0.521083508
0.875003624	0.04916807	0.873246246	0.168428861	0.659193316	0.165272988
0.073522348	0.855271504	0.082772326	0.628063091	0.149427145	0.647839555
0.860804495	0.845082594	0.141750775	0.153572034	0.149636826	0.564481296
0.868600064	0.865979002	0.077144814	0.160059378	0.161350514	0.623236872
0.132930413	0.825353235	0.149386415	0.574381411	0.119070842	0.603630452
0.087381254	0.079526258	0.868784735	0.672429749	0.660114706	0.162641734
0.095527667	0.866249974	0.866088217	0.617521829	0.15891111	0.162043045
0.877599645	0.474000768	0.482754715	0.170712765	0.561869381	0.532167583
0.46567448	0.424214815	0.877359786	0.608758506	0.572058802	0.170564301
0.863918281	0.85667609	0.123144012	0.155783357	0.156576656	0.588480384
0.877460468	0.877491454	0.878220016	0.170789045	0.170716624	0.171274097
0.079718405	0.869182827	0.092593486	0.659110615	0.162729599	0.670489945
0.137253456	0.862582231	0.845643681	0.566295962	0.154344438	0.149192588
0.85604952	0.111457697	0.864664285	0.155655531	0.592147529	0.156739986
0.413951645	0.877441748	0.475801157	0.566133848	0.170662607	0.605486248
0.856370195	0.102823671	0.078805786	0.149624088	0.64343344	0.623872417
0.00000489	0.0000049	0.881774358	0.699200444	0.699264224	0.175407613
0.434743708	0.877269503	0.455479268	0.574147345	0.170552178	0.607921208
0.045740927	0.048149013	0.054175553	0.655567879	0.657090902	0.656736285
0.865651609	0.077025547	0.867013866	0.16111689	0.622901564	0.159467619
0.102901202	0.133310493	0.180142798	0.61770534	0.620970532	0.621597695
0.405929921	0.877331741	0.480538971	0.532770238	0.170538426	0.575092929
0.00000275	0.00000288	0.00000286	0.699172494	0.698817973	0.69839762
0.044630164	0.049140061	0.05187149	0.657335773	0.658026065	0.658630785
0.073118993	0.854270641	0.071431564	0.629512034	0.148850866	0.649752849
0.86575133	0.077165441	0.867992729	0.161593032	0.62326785	0.160316795
0.877302574	0.462453125	0.421022957	0.170578524	0.60861299	0.572162683
0.877355938	0.483937078	0.399908775	0.170490164	0.60820932	0.565465855
0.045434892	0.048293803	0.05366926	0.655853213	0.656061831	0.656045803
0.841472866	0.124852743	0.104068221	0.135340881	0.622914283	0.597809813
0.857014116	0.130402952	0.862480779	0.156546523	0.586536674	0.154328821
0.027499692	0.881927148	0.027827681	0.69494286	0.175076692	0.695147268
0.041012063	0.882104975	0.041664803	0.692781763	0.17573488	0.692050784
0.877387248	0.469816997	0.415550073	0.17055672	0.575404617	0.53611987
0.480768913	0.401475251	0.877559043	0.590035094	0.548257683	0.170413063
0.393001788	0.877611024	0.484860557	0.582644248	0.17082983	0.625223695
0.465804111	0.424603835	0.877376095	0.608811851	0.572175667	0.170590468
0.455000589	0.435903929	0.877408046	0.611038697	0.57742077	0.170585814
0.401606171	0.87759376	0.480731428	0.548225837	0.170460459	0.589948686
0.869124667	0.079737885	0.077219393	0.162570055	0.674494989	0.66315129
0.132310567	0.82626171	0.149441305	0.576273524	0.118910476	0.604203938
0.85601411	0.091344089	0.074139232	0.149429642	0.645363211	0.625756951
0.877499825	0.462043821	0.415483327	0.170497708	0.626087697	0.589817597
0.85609576	0.091272544	0.074136833	0.149479445	0.64559122	0.625927145
0.86303741	0.86257161	0.863976854	0.218964417	0.219089989	0.219454325
0.420067527	0.878162031	0.470598079	0.520982972	0.170807221	0.559739591
0.062475076	0.062473456	0.062428077	0.638279887	0.63846329	0.638514008
0.039829959	0.046624505	0.073745355	0.677350579	0.676644623	0.677800568
0.87708933	0.480385063	0.401711511	0.170687433	0.590192244	0.548243583
0.082444513	0.079507673	0.868941504	0.675280614	0.662563214	0.162506395
0.873190185	0.875079487	0.875656743	0.188326174	0.18900909	0.189320848
0.877409286	0.469903306	0.415464941	0.170590771	0.575606608	0.536336111
0.87505485	0.055372879	0.871918267	0.16854487	0.654866919	0.164329847
0.09148652	0.07959694	0.869312462	0.667904521	0.656930912	0.162698841
0.136165217	0.32281494	0.216274024	0.622834115	0.625501944	0.622001172
0.877821435	0.877123059	0.876933182	0.171223297	0.17052046	0.170747056
0.877358872	0.45913021	0.422143627	0.170397283	0.590590352	0.55477062
0.480693743	0.401435462	0.877446502	0.589946984	0.548151385	0.170707161
0.29761649	0.826003476	0.295987768	0.591694776	0.118843989	0.617586232
0.239637113	0.238801605	0.825351508	0.610003944	0.582265962	0.118330596
0.860789632	0.845285095	0.141772341	0.153818522	0.149945198	0.564511222
0.100303174	0.84176016	0.113949015	0.600891811	0.134996432	0.625946595
0.86416356	0.855522699	0.111454422	0.156231585	0.15543664	0.592228158
