Vam	Vbm	Vcm	Iam	Ibm	Icm
0.863493452	0.855368535	0.111428705	0.156023968	0.155003715	0.592201871
0.084998457	0.868805051	0.081607708	0.662830332	0.16249367	0.675484421
0.08608609	0.868635362	0.082805977	0.663394432	0.162427249	0.675246293
0.877337513	0.451126597	0.432352397	0.170517492	0.608626411	0.575273131
0.448120296	0.436003438	0.877404709	0.575573431	0.542812072	0.170588086
0.8840363	0.013705399	0.875578826	0.175678251	0.69727736	0.170729387
0.49804994	0.542219021	0.878208439	0.559730205	0.531483782	0.170399491
0.328581889	0.335828191	0.825258791	0.612022076	0.586369069	0.11867524
0.882250347	0.027727718	0.027565335	0.175467634	0.694578685	0.695214541
0.867446889	0.865908687	0.087802198	0.159413922	0.161897644	0.619515648
0.083392946	0.102243917	0.841727222	0.631302798	0.606117587	0.134689209
0.845612035	0.141806929	0.860195391	0.149917171	0.564521723	0.153636098
0.074176513	0.855643355	0.091186077	0.625861319	0.149295964	0.64564487
0.862377381	0.863846376	0.863099373	0.219103822	0.218916004	0.21931689
0.877506939	0.462046303	0.415488164	0.170552789	0.626223154	0.58960965
0.41319477	0.877434721	0.475623291	0.568253035	0.170613889	0.608081173
0.06086005	0.042793841	0.077595069	0.675688661	0.674978461	0.677563628
0.855602879	0.09145352	0.074254117	0.149095571	0.645804848	0.625733608
2.79024E-06	3.10565E-06	2.91288E-06	0.698937958	0.699092727	0.699468838
0.437080355	0.446383731	0.877395666	0.575698127	0.546093649	0.170632864
0.877218006	0.484260671	0.39917252	0.170611096	0.608300896	0.565685635
0.473492193	0.404111976	0.877493173	0.625647137	0.586119775	0.170536452
0.133756138	0.125793947	0.825216056	0.605628655	0.577349211	0.11857172
0.107967579	0.864235453	0.854564423	0.593697659	0.156585106	0.154552859
0.867100731	0.866902009	0.087819393	0.159429755	0.162165273	0.61937791
0.085665604	0.868402851	0.082219038	0.66418914	0.162543942	0.675445854
0.87437697	0.055340481	0.87051582	0.168465366	0.654888162	0.163938002
0.877812244	0.876767972	0.877465854	0.170815922	0.170580859	0.170597299
0.027326682	0.875314367	0.883008113	0.695252283	0.170153656	0.175384564
0.866515718	0.856227483	0.107773038	0.157071375	0.155142331	0.593709514
0.883101956	0.040849834	0.876497082	0.175145132	0.692861102	0.170971635
0.067271426	0.079110396	0.855547511	0.652292159	0.633053682	0.148973565
0.873607198	0.873116442	0.873622739	0.188654449	0.188621508	0.18844383
0.07759247	0.869331291	0.086268511	0.661333093	0.162528065	0.673593972
0.439191413	0.439186673	0.878405132	0.62687749	0.596224887	0.170599681
0.08297307	0.86908826	0.098855067	0.654667602	0.162586845	0.667639271
0.027053805	0.075493932	0.075646427	0.678920367	0.68001686	0.678452689
0.863834902	0.864493851	0.86334268	0.219004567	0.219111514	0.219253479
0.445706671	0.877459017	0.437863565	0.562591496	0.170412072	0.591805159
0.071768856	0.855815431	0.079688753	0.627462133	0.149406324	0.647755066
0.101380369	0.082992512	0.868827771	0.667497601	0.655632938	0.162760209
0.485221913	0.39338014	0.878349595	0.625501404	0.582400956	0.170592112
0.877470569	0.448121651	0.435959088	0.17063884	0.575718265	0.542865662
0.13377471	0.862570861	0.843272063	0.567893234	0.154952674	0.147757963
0.080193587	0.216541608	0.218849074	0.620304445	0.622844433	0.627418458
0.821927299	0.823758992	0.825110254	0.298420123	0.298672945	0.298873043
0.877387067	0.448091319	0.435873685	0.170576748	0.575744333	0.542810342
0.415635669	0.877334395	0.469915071	0.535927439	0.170590384	0.575286962
0.863767322	0.85658165	0.123129953	0.155386093	0.156353273	0.588335565
0.877079797	0.46976424	0.411426989	0.170080208	0.590421244	0.551624695
0.486480503	0.401981318	0.877417243	0.607583951	0.564673279	0.170431262
0.06687851	0.053125478	0.082276934	0.67278094	0.672783522	0.673963546
0.257538826	0.265611815	0.825848573	0.617274068	0.586622369	0.119007087
0.100288946	0.842105766	0.113983836	0.600515894	0.135048091	0.625782957
0.846820345	0.846217892	0.846515565	0.256735983	0.256959692	0.256494175
0.111537724	0.864595895	0.856233809	0.592177507	0.156300861	0.155310348
0.103044493	0.09925037	0.84153421	0.627715543	0.602483615	0.135023266
0.147421106	0.860020928	0.845434958	0.562767143	0.152771455	0.150355402
0.869166963	0.09183447	0.079468978	0.162598791	0.672944213	0.659727452
5.49629E-06	0.877186645	0.884715439	0.699422395	0.170918448	0.175417131
0.027403714	0.027767968	0.028217954	0.695126966	0.69476794	0.695198906
0.113834881	0.099903943	0.841697683	0.626151398	0.6009761	0.135066973
0.07751965	0.86932942	0.085465789	0.661329692	0.162521052	0.673592238
0.013709385	0.876101091	0.883017019	0.697512494	0.170417015	0.175139039
0.445377734	0.449294404	0.877330554	0.608474522	0.578261565	0.17060451
0.084863318	0.869124863	0.100274093	0.654416216	0.162659598	0.667690561
0.882879776	5.49553E-06	0.874633368	0.175135013	0.699384594	0.170105587
0.111391121	0.864854551	0.856097473	0.592081989	0.156245124	0.155658902
0.040837971	0.875039422	0.883226599	0.692724583	0.169893843	0.175162861
0.438445525	0.445149714	0.877555742	0.590777169	0.561184786	0.170675312
0.841651011	0.103047177	0.099232893	0.134959654	0.627788092	0.602764649
0.324126344	0.825549857	0.312428751	0.588505408	0.118536566	0.616814924
0.845834528	0.147369422	0.860267241	0.150685881	0.562843119	0.153049851
0.028304461	0.027971765	0.880903395	0.694600507	0.695298917	0.175302608
0.877499213	0.473067797	0.410295635	0.17060118	0.609013307	0.569421068
0.014092876	0.0141629	0.881492961	0.696851065	0.697419514	0.175522945
0.41029327	0.877655902	0.480899784	0.517598087	0.170543329	0.559341874
0.425560023	0.877312439	0.459085954	0.539557438	0.170553287	0.575618478
0.130505423	0.862582865	0.85658229	0.586459989	0.154659898	0.156734522
0.86350541	0.856425667	0.130374034	0.155433709	0.157325217	0.586516251
0.449769515	0.877246248	0.443439397	0.579291767	0.1706081	0.609362434
0.874728255	0.884446096	5.49679E-06	0.170727354	0.17612566	0.6993778
0.438510487	0.438505804	0.877042002	0.626400268	0.596328571	0.170155618
0.855946567	0.130463986	0.861998408	0.156537727	0.586461083	0.154317975
0.404079017	0.877428328	0.473460583	0.586030595	0.17056811	0.625892424
0.074178649	0.855621865	0.091180233	0.625840455	0.149300952	0.645641298
0.447077343	0.44816039	0.877316267	0.608627025	0.578472976	0.170594282
0.438697497	0.445117497	0.877928349	0.591573901	0.562248401	0.170822529
0.859369419	0.845460463	0.147438659	0.152561513	0.150461411	0.562826741
0.823160802	0.823523296	0.825313088	0.299126272	0.298698322	0.298729271
0.414100352	0.877305658	0.474857174	0.568866102	0.170592329	0.608345741
0.15403393	0.859221789	0.847739454	0.560849569	0.152089944	0.151405073
0.108005314	0.865123374	0.854577189	0.593647205	0.156901364	0.15478441
0.083388658	0.102234969	0.841777752	0.630986266	0.605809933	0.134749175
0.868966773	0.080880051	0.078117236	0.162557916	0.674954004	0.663298358
0.076058891	0.87130338	0.8747538	0.650431822	0.164583618	0.168704455
0.877443428	0.480811351	0.401375773	0.170359682	0.590073723	0.547624046
0.459060876	0.425754679	0.877437224	0.575548907	0.539450662	0.170560958
0.095505937	0.866602991	0.866508785	0.617219987	0.15888368	0.162380813
0.095493196	0.866349727	0.866577883	0.617284581	0.159209266	0.162600303
0.865940265	0.095669465	0.866507691	0.162318089	0.617226706	0.15882933
0.028140954	0.02825833	0.881919311	0.694769785	0.695354156	0.175228703
0.154033617	0.858637658	0.846464814	0.560911536	0.151694545	0.151018502
0.062421013	0.062512385	0.062327838	0.638158964	0.638546695	0.638448302
0.867700629	0.866044893	0.077162971	0.159834834	0.161492335	0.623134533
0.460131513	0.430094751	0.878598704	0.559968185	0.524282298	0.170754574
0.459673345	0.429643354	0.877670707	0.559836385	0.524420571	0.170685543
0.872337264	0.87476049	0.04660334	0.164754269	0.168624656	0.659027802
0.46999836	0.41162981	0.877564765	0.590557436	0.551646471	0.169989679
0.846307606	0.84647352	0.845649059	0.256757118	0.256992546	0.256830248
0.054259919	0.881199433	0.054620907	0.690770392	0.175258745	0.690252831
0.10315229	0.099356062	0.841534042	0.627820034	0.602717325	0.135024685
0.071787608	0.855762063	0.079686393	0.627606441	0.149325656	0.647808833
0.154035704	0.85947734	0.846577413	0.56087379	0.152159342	0.151387056
0.054258038	0.875509468	0.883232161	0.690299488	0.170431304	0.175314622
0.13205349	0.826914407	0.139997687	0.577176167	0.119455841	0.606120289
0.454951618	0.436592016	0.877291941	0.609809112	0.576022242	0.170551487
0.066886046	0.05291706	0.081981272	0.673302703	0.672358239	0.673966679
0.269467382	0.27687729	0.825599712	0.613939865	0.587304823	0.118600343
0.081632232	0.855303597	0.067767802	0.631997479	0.14883828	0.653032435
0.864328568	0.862700992	0.863562705	0.219414734	0.218444461	0.219234031
0.867117399	0.865591411	0.081540829	0.159485963	0.161619988	0.621339435
0.12262721	0.130079891	0.205512056	0.618392621	0.619253129	0.619673667
0.046916523	0.872193331	0.874971248	0.658694651	0.164827835	0.16813231
0.404222127	0.877712041	0.473601747	0.586135139	0.170439305	0.62582075
0.855619249	0.079905135	0.071552757	0.149310362	0.647724062	0.627640945
0.873008168	0.875593444	0.047220049	0.165440675	0.168919887	0.656965759
0.877684514	0.459695777	0.429635627	0.170690287	0.55983423	0.524296549
0.415608026	0.877753013	0.462172342	0.589797249	0.17054671	0.626178542
0.863392238	0.864160512	0.862976455	0.219069286	0.219090142	0.219235448
0.013882873	0.013842026	0.881209047	0.697017989	0.69697456	0.175240249
0.047369537	0.041726635	0.072569309	0.677674686	0.677874504	0.680477818
0.877736213	0.473616287	0.404231463	0.170529743	0.625866794	0.586165251
0.028553338	0.027899005	0.882436552	0.695101604	0.695353183	0.175506857
0.437077127	0.446343579	0.877354051	0.575742457	0.546076684	0.170602272
0.867100731	0.866902009	0.087819393	0.159429755	0.162165273	0.61937791
0.067764683	0.067657387	0.067969979	0.636374582	0.636519496	0.636708764
0.415507419	0.877547399	0.462067413	0.589753887	0.170579756	0.626138245
0.053534378	0.051440844	0.056739183	0.654276719	0.654102011	0.654081962
0.027260383	0.075699368	0.075567011	0.678916221	0.680021806	0.678488477
0.877739898	0.470374542	0.419878252	0.170914722	0.559718277	0.521105487
4.94075E-06	4.88312E-06	0.881449985	0.699152196	0.699443095	0.175293257
0.099175159	0.08160824	0.869155454	0.665813938	0.656015773	0.16282085
0.882134939	0.054531258	0.054103075	0.175399596	0.69013163	0.6903306
0.876594084	0.882502338	0.013706049	0.170630891	0.174830525	0.697277029
0.875020435	0.065195206	0.871272742	0.168845978	0.65299235	0.164590886
0.881726049	0.041101792	0.04087909	0.175122852	0.691891387	0.692825504
0.459073417	0.422033733	0.877541576	0.590731809	0.555038093	0.170440278
0.866212521	0.087806883	0.867691748	0.162032916	0.619798875	0.159736087
0.072097418	0.066013736	0.086663334	0.670272844	0.67003689	0.671064038
0.533052933	0.504872808	0.878000687	0.56022163	0.53144984	0.170358241
0.401693292	0.877727316	0.481094383	0.54832019	0.170610935	0.590298495
0.845268604	0.141828188	0.861507147	0.149886955	0.564608088	0.153472156
0.103581833	0.841748873	0.125028039	0.597843443	0.13529787	0.623307107
0.055014156	0.054543417	0.055282123	0.690032661	0.690250466	0.690265932
0.480525422	0.405982433	0.8773621	0.575154553	0.532616589	0.17056961
0.866804061	0.087921763	0.867725135	0.162015426	0.619444098	0.159574392
0.861501738	0.844451036	0.137025311	0.153719133	0.148581414	0.566250409
0.872648006	0.874537968	0.05529498	0.164928151	0.168990861	0.654890614
0.874167875	0.04708046	0.871699453	0.167902904	0.656962468	0.164897063
0.85663161	0.130456761	0.863713977	0.156704465	0.586477838	0.154803049
0.856034252	0.07979219	0.071545215	0.149085172	0.648052132	0.627607665
0.438424315	0.876879345	0.438429037	0.596541939	0.169991996	0.626482876
0.083388734	0.10224192	0.841820038	0.631048121	0.605955761	0.134727137
0.464320439	0.425687422	0.877249251	0.609456173	0.572568219	0.170546642
0.438416484	0.876863651	0.438421179	0.596508433	0.169940061	0.62638719
0.875382315	0.882408573	0.040862298	0.17010024	0.174520389	0.693115836
0.866809985	0.104228404	0.8669286	0.162483627	0.615243616	0.159125964
0.091649322	0.077907818	0.869162099	0.672339337	0.657900045	0.162575887
0.048793277	0.045578767	0.053575153	0.656236443	0.655920236	0.655826096
0.415639597	0.877425207	0.470036495	0.536153707	0.170588306	0.57546634
0.041107605	0.040829438	0.881893639	0.691817349	0.692796624	0.175439761
0.842024794	0.125132633	0.103599519	0.135213844	0.623876117	0.598320657
0.424837707	0.877415591	0.464657493	0.57353794	0.170617859	0.609759348
0.84441815	0.141786641	0.860684162	0.149712986	0.564493232	0.153397848
0.874015452	0.065152471	0.873032296	0.168862708	0.652657083	0.164940707
0.062486222	0.062458195	0.062369428	0.638576958	0.638736688	0.638499504
0.014124423	0.88111392	0.014421566	0.697179066	0.175194218	0.697410367
0.470351543	0.419813471	0.877650145	0.559584445	0.520987629	0.17064568
0.871530848	0.874354407	0.046501366	0.164739849	0.16861117	0.659022308
0.133781999	0.862321104	0.843272731	0.567891237	0.154959876	0.14778903
0.845992333	0.846480972	0.845654184	0.256657218	0.256922945	0.256226891
0.445039245	0.449306715	0.877324328	0.608616698	0.578306679	0.170548594
0.855056416	0.108102444	0.865632853	0.155073267	0.593855654	0.157335521
0.083385231	0.102227639	0.841629296	0.631312228	0.605976979	0.134694232
0.048570488	0.041135494	0.073300391	0.677489443	0.67761637	0.679584067
0.855522887	0.068943666	0.071408653	0.149001886	0.649751871	0.629369009
0.876843532	0.877506632	0.877551706	0.170559024	0.17076894	0.170663018
0.462097219	0.415544021	0.877613829	0.626240295	0.589593769	0.170659678
0.825641047	0.136461868	0.128010907	0.11906906	0.605809094	0.57697365
0.136926527	0.13222731	0.098236468	0.609793599	0.610091521	0.614296217
0.429678073	0.877745555	0.459708616	0.524304346	0.170835862	0.559835276
0.404144201	0.877554929	0.473523054	0.58619857	0.170398651	0.625907744
0.855867011	0.123161581	0.862884308	0.156087112	0.588599642	0.155305193
0.877305179	0.437056561	0.446316337	0.170598823	0.575730029	0.546089245
0.46438609	0.424838633	0.877268014	0.608280202	0.571606614	0.170525683
0.095404761	0.305305315	0.254418497	0.622147099	0.621730502	0.619673859
0.877325823	0.436930221	0.444417609	0.170376041	0.591955728	0.562339307
0.095517739	0.866624138	0.866602841	0.617378515	0.159221806	0.162600802
0.877346581	0.484089282	0.399395095	0.170581407	0.608763066	0.566082228
0.872757271	0.874442526	0.047216927	0.165137655	0.16833572	0.657025294
0.877253404	0.480597466	0.401370283	0.170099882	0.589943853	0.548331259
0.871828627	0.874399545	0.055329681	0.164434662	0.168111596	0.654864241
0.875012922	0.882543194	0.027326057	0.170512413	0.174910885	0.695176186
0.108113044	0.865023475	0.855107209	0.593551726	0.156744386	0.154519336
0.50771087	0.52974104	0.877628743	0.560985788	0.532216041	0.170985216
0.123211568	0.862959517	0.857089505	0.588456573	0.154946383	0.156201322
0.013763373	0.014315504	0.014200661	0.697231621	0.697553827	0.697245526
0.877417073	0.469978014	0.415434436	0.170543768	0.57539699	0.536134068
0.847125402	0.147389541	0.862090935	0.150996762	0.562779124	0.153448251
0.076040911	0.870610878	0.874554863	0.650430952	0.164236492	0.168935141
0.401288857	0.877309537	0.487621684	0.564481709	0.17053959	0.607574412
0.425546352	0.877368544	0.459136762	0.539720594	0.1705955	0.57573441
0.459149974	0.425654231	0.877446163	0.575446573	0.539353614	0.170557991
0.825932671	0.228490948	0.236164792	0.119310812	0.607375578	0.581506797
0.045855308	0.04903702	0.053124087	0.657742627	0.65828061	0.658955992
0.841757541	0.113646439	0.100450052	0.135239738	0.625981909	0.600401269
0.863687807	0.856883124	0.130376662	0.155280274	0.157014715	0.586400547
0.446284532	0.877231584	0.43701582	0.546058589	0.170582761	0.575720463
0.86691225	0.866909854	0.095413094	0.159387018	0.162575627	0.617399963
0.077995275	0.869167529	0.085248947	0.661280775	0.16248479	0.673549207
0.055179504	0.054540852	0.055534318	0.690129347	0.690898105	0.690817848
0.855577372	0.079851861	0.071600423	0.149370047	0.647776684	0.627576866
0.100227343	0.842215624	0.114134726	0.600641952	0.13507613	0.625842166
0.862353383	0.843448675	0.1337261	0.155184691	0.148044641	0.567749598
0.099257096	0.841739426	0.103157044	0.602411237	0.135169236	0.62791607
0.872796181	0.874387168	0.047180295	0.165664831	0.168795556	0.65697413
0.845580151	0.141812724	0.860285819	0.149982725	0.564531591	0.153710691
0.278964029	0.276899065	0.825636064	0.614731448	0.589995913	0.118653216
0.486208435	0.40261773	0.877265664	0.607835201	0.564807503	0.170503614
0.881812054	0.041097207	0.040850615	0.175366063	0.692522615	0.69241448
0.12913685	0.825822288	0.145825921	0.574270568	0.118607386	0.603634867
0.411872506	0.877259846	0.470039531	0.551518094	0.170162511	0.590092799
0.01370919	0.876297974	0.883027378	0.697511231	0.17067741	0.175509735
0.875484775	0.065204498	0.872716363	0.168991278	0.652713385	0.164810188
0.415464135	0.877468806	0.462031683	0.5897783	0.170562705	0.626127697
0.868961415	0.080143596	0.077402818	0.162520878	0.674649683	0.663565438
0.055316752	0.871672693	0.8750217	0.654987567	0.16443617	0.168369518
0.877747034	0.480977699	0.410300279	0.170606818	0.559475161	0.517489742
0.111479287	0.864965485	0.855194982	0.592240126	0.156128492	0.155143855
0.104093005	0.866168209	0.867226039	0.61513586	0.158722822	0.163189587
0.078994009	0.856133031	0.102964323	0.623660699	0.149601319	0.64330186
0.469832134	0.415732348	0.877363713	0.575357415	0.53609626	0.170527923
0.074956302	0.074931912	0.0751564	0.634125156	0.634341875	0.634773319
0.455816562	0.877203436	0.454636558	0.531533838	0.170680942	0.560665776
0.88277795	0.054260389	0.875834345	0.17503812	0.69035403	0.17048602
0.877587017	0.470337968	0.419759255	0.170794857	0.559761656	0.520891892
0.846886546	0.847649699	0.848742048	0.257340883	0.25691054	0.257206609
0.425637116	0.87740981	0.464147914	0.573555654	0.170587503	0.609890208
0.844383069	0.14183818	0.860857451	0.149851323	0.564506319	0.153792297
0.855346083	0.068899038	0.071430818	0.148960675	0.649722977	0.629298865
0.864130305	0.855041716	0.116730216	0.155370733	0.155306304	0.590288495
0.842857299	0.133741632	0.860298219	0.147887751	0.567801439	0.154942086
0.855493528	0.103057774	0.078874145	0.149567127	0.643508707	0.62362029
0.862868837	0.862435622	0.863639522	0.219520129	0.219094705	0.219312843
0.863227463	0.857044083	0.130376967	0.154837391	0.15681224	0.586567567
0.435890444	0.877345472	0.4481088	0.54279449	0.170616543	0.575738366
0.210933488	0.208783976	0.825570158	0.609822065	0.582704987	0.118723173
0.845330818	0.141808407	0.860821363	0.149729046	0.564449185	0.153396143
0.041140329	0.040936187	0.881478741	0.692311856	0.692821279	0.175488544
0.444967701	0.876554573	0.437946889	0.563001672	0.169974561	0.591884391
2.78027E-06	3.18507E-06	3.01588E-06	0.699380622	0.699321616	0.699140952
0.077246122	0.86808081	0.86497881	0.623147221	0.160064413	0.161598615
0.062543681	0.062398702	0.062458069	0.638754428	0.6386115	0.638525477
0.874655924	0.873869375	0.872747974	0.188794801	0.18906407	0.188666482
0.875964837	0.065214317	0.873197491	0.169200088	0.652785017	0.164891716
0.863525226	0.86487725	0.863416953	0.219073778	0.220070643	0.219348761
0.44787607	0.432462618	0.877182377	0.590928078	0.558128917	0.170575613
0.116738929	0.864429739	0.855954387	0.590360423	0.155643307	0.155760439
0.069090626	0.079538553	0.855139393	0.651914561	0.632426073	0.148841783
0.041069881	0.041048951	0.041156734	0.692766713	0.692862935	0.692417672
5.49603E-06	0.874456794	0.884014398	0.699172581	0.170716792	0.175656447
0.411836609	0.877368924	0.470253048	0.551185935	0.170362758	0.589860543
0.872794696	0.874434449	0.047229414	0.165133635	0.168303678	0.657029969
0.081048876	0.07898897	0.869011046	0.674381906	0.66222834	0.16250539
0.072503735	0.069988162	0.074927454	0.649166213	0.649918418	0.649055001
0.429555893	0.877437633	0.459528237	0.524224244	0.170573459	0.559938471
0.055016297	0.054551358	0.055218494	0.689803104	0.690398245	0.689971975
0.485011317	0.39316607	0.877923855	0.625485913	0.5824145	0.17083775
0.027480914	0.028452726	0.028156645	0.695179464	0.694831307	0.69527797
0.087821419	0.866365084	0.865665638	0.61968968	0.15875312	0.161843942
2.78974E-06	3.10654E-06	2.91526E-06	0.698967567	0.699083128	0.699457708
0.846608732	0.846640145	0.84634711	0.257346501	0.256955136	0.256851795
0.822366375	0.823504717	0.823659422	0.298989771	0.29885068	0.300098456
0.084147531	0.86913519	0.099627024	0.654439025	0.162602433	0.667837648
0.841510697	0.092688391	0.099882649	0.134913966	0.629318581	0.604013763
0.084798192	0.07664839	0.854765646	0.646638404	0.626962027	0.148682335
0.878012907	0.450708978	0.427289377	0.170709537	0.626498977	0.593048496
0.868946806	0.0801603	0.077288487	0.162521936	0.67460909	0.663574556
0.444679524	0.877476587	0.438725468	0.56192646	0.170693575	0.591651298
0.445625294	0.448522186	0.877242673	0.608768824	0.578430656	0.170542346
0.076116279	0.869304516	0.084148398	0.66130381	0.162501001	0.673534475
0.872530006	0.874240487	0.046752714	0.16525956	0.168310526	0.658917666
0.459188633	0.425515974	0.877345596	0.575542838	0.539448038	0.170533097
0.884297367	0.013705703	0.875952932	0.176080699	0.697299909	0.171004116
0.13385118	0.12493697	0.826081292	0.606276018	0.576878547	0.118743229
0.082793552	0.868932519	0.09300932	0.656854232	0.16261099	0.670227317
0.884471249	0.02732532	0.875099653	0.175165815	0.695172427	0.169885232
0.146982311	0.129818334	0.825981785	0.60410782	0.575623186	0.119363873
0.884294339	0.013705437	0.876015258	0.176086571	0.697287102	0.171012105
0.841584362	0.083395691	0.102234379	0.134792041	0.631014805	0.605909186
0.480583466	0.401188987	0.877103859	0.589960303	0.548235496	0.170003528
0.87758132	0.87625635	0.877649807	0.170664843	0.170593329	0.170688223
0.046716747	0.872149366	0.875095791	0.658704777	0.164799828	0.168114446
0.048207527	0.041902901	0.073730617	0.677501309	0.677990593	0.680201748
0.877895709	0.459184929	0.422363712	0.170875516	0.591036124	0.554875812
0.876702238	0.450055868	0.426631491	0.170480021	0.626571481	0.592997178
0.874723391	0.874235338	0.873349038	0.188838853	0.189238622	0.18875031
0.865269446	0.077088189	0.867849157	0.161166736	0.623321729	0.160011934
0.106324802	0.082880213	0.855139095	0.643358882	0.623456697	0.149655566
0.881749032	0.054671933	0.054240624	0.175435218	0.690399806	0.690722418
0.855569562	0.066817001	0.078467186	0.148856227	0.652553166	0.632244772
0.422305074	0.877471817	0.459045547	0.554634692	0.170559622	0.59048275
0.130507633	0.862882909	0.856989167	0.586512871	0.154816298	0.156893305
0.480887446	0.405619143	0.877392732	0.57506557	0.532616864	0.170575734
0.877399314	0.461991433	0.42169608	0.17058502	0.608149932	0.571664187
0.877462313	0.462027145	0.415462353	0.170499426	0.626158854	0.589751869
0.825440786	0.196930452	0.194538691	0.118733592	0.607669157	0.577307098
0.103553134	0.841728899	0.124982248	0.598193826	0.135196862	0.62333109
0.862846565	0.84404742	0.133778573	0.155426968	0.148460215	0.567826183
0.877358746	0.459019194	0.425601928	0.170625077	0.575711176	0.539632768
0.855608951	0.068843047	0.071425897	0.149200528	0.649686319	0.629578772
0.469760629	0.415737255	0.877340583	0.575345466	0.536078154	0.170544286
0.248318684	0.248060529	0.82506797	0.608729305	0.576231756	0.118691792
0.84185261	0.124999044	0.10333239	0.13516347	0.623650202	0.59846192
0.874892417	0.882686601	0.027327133	0.170376585	0.175093253	0.695190547
0.866745871	0.865087516	0.077121736	0.159533871	0.160787527	0.623004947
0.1371654	0.862169064	0.846138709	0.566144836	0.154276369	0.148925479
0.083297389	0.075857631	0.853646416	0.647893467	0.627668641	0.148697365
0.125174578	0.103217741	0.841726072	0.623581114	0.598477672	0.135318809
5.49629E-06	0.87466523	0.883988968	0.699192732	0.170742526	0.175720507
0.826465782	0.187907213	0.188249982	0.118817451	0.611595439	0.580933882
0.053534378	0.051440844	0.056739183	0.654276719	0.654102011	0.654081962
0.095558039	0.866700523	0.866951837	0.617270161	0.159164575	0.162627934
0.130516995	0.862739768	0.857103797	0.586464801	0.154645674	0.156726693
0.855245419	0.066776364	0.078944887	0.148855021	0.652536985	0.632418087
0.415354693	0.877250959	0.461923151	0.589586187	0.170529234	0.626289619
0.214806786	0.213323376	0.826060058	0.607597092	0.580531275	0.118876709
0.412288283	0.877998305	0.470338925	0.551792875	0.170690972	0.590742451
0.855285233	0.091353369	0.074128242	0.149288747	0.645701709	0.62583939
0.855511733	0.103030865	0.078886092	0.149577804	0.643467697	0.623675465
0.113789751	0.100132941	0.841777295	0.626136326	0.600838939	0.135061648
0.074901985	0.077860591	0.855516623	0.650192199	0.629716291	0.149385529
0.084387683	0.076067621	0.856096764	0.647627044	0.628157448	0.149245149
0.877496896	0.44886678	0.439558779	0.170694531	0.559682305	0.527747512
0.884144585	0.054272377	0.875794963	0.175621394	0.690525931	0.170490733
0.054578579	0.054512506	0.054568792	0.690082148	0.690201441	0.69018743
0.874994982	0.050203449	0.872651501	0.168308313	0.659308646	0.165255456
0.323690849	0.82567935	0.313682744	0.588837557	0.118519691	0.617016967
0.866992314	0.865984744	0.081555454	0.159459992	0.161638147	0.621275942
0.855753914	0.103031537	0.078841526	0.149643899	0.643484165	0.623631038
0.86646875	0.866406038	0.103972712	0.159190579	0.162382252	0.615315236
0.432703651	0.87739547	0.448122191	0.557961275	0.170462238	0.59033011
0.123175633	0.86333509	0.855543637	0.588419652	0.155222882	0.156502487
0.154024776	0.85931716	0.84771083	0.560823753	0.15188099	0.151242126
0.082627161	0.855199417	0.067818536	0.631959841	0.148838312	0.652967434
2.77578E-06	3.11992E-06	2.9779E-06	0.698934702	0.699244408	0.699353597
0.083451369	0.083654645	0.083916337	0.632095528	0.632129196	0.632487836
0.863108757	0.863619264	0.863832624	0.219101109	0.21873394	0.219184251
0.866107202	0.087707389	0.867299696	0.161761128	0.619752342	0.159761175
0.106397144	0.082702102	0.856142772	0.643340081	0.62368345	0.149542615
0.867534668	0.866117178	0.07717296	0.159845081	0.161305796	0.623137797
0.401442418	0.877303685	0.480828371	0.547996831	0.17001617	0.589578738
0.877084268	0.46976271	0.411437827	0.170082121	0.59042188	0.55162448
0.86629012	0.095464635	0.867161893	0.162425062	0.617353792	0.159106687
0.866035453	0.081731292	0.867702602	0.161908613	0.620880097	0.15970828
0.067314892	0.079262303	0.855297607	0.652023275	0.632545756	0.149021105
0.48053424	0.401149617	0.876988714	0.590081369	0.548097942	0.170593995
0.104155734	0.865715079	0.866135682	0.615305886	0.158396541	0.162771874
0.087486171	0.079283607	0.868917741	0.671989623	0.660771158	0.162561596
0.108082726	0.865173294	0.85451696	0.593513352	0.15647046	0.154669778
0.028587164	0.027892921	0.882280989	0.694985658	0.695382883	0.175529994
0.855725579	0.079692124	0.071601503	0.149632276	0.647888151	0.627703389
0.429555945	0.877437737	0.459528272	0.524224401	0.170573387	0.559938381
0.822923864	0.823320917	0.82294104	0.298262346	0.298614041	0.298321327
0.856034654	0.116677035	0.862694701	0.155823604	0.590374121	0.155640036
0.860988489	0.844297261	0.141756379	0.153690885	0.149766334	0.564635914
0.843443962	0.133724186	0.861409254	0.147810116	0.567784594	0.154904584
0.863278222	0.862663235	0.86351948	0.2200227	0.21921029	0.219272015
0.099370594	0.841797371	0.103156038	0.602385993	0.135148057	0.62794188
0.081052893	0.079017166	0.869017775	0.674384783	0.662227754	0.162504743
0.154054254	0.85866525	0.847091357	0.56095069	0.152133682	0.151475169
0.880796893	4.93485E-06	4.8049E-06	0.175271758	0.698881088	0.699193579
0.102263718	0.841660519	0.083379279	0.605964848	0.134771573	0.631442619
0.040952478	0.041598867	0.041524893	0.692189282	0.692803567	0.692242015
0.066679904	0.05245622	0.081146453	0.673118705	0.672350746	0.673913672
0.048289653	0.041805575	0.073707797	0.677454235	0.677955085	0.679988336
0.877106687	0.877605818	0.87744932	0.170571781	0.170750959	0.170719675
0.412086327	0.877588468	0.470138146	0.551823611	0.170587885	0.590646141
0.874577686	0.875282956	0.874127489	0.188910978	0.189326082	0.188898678
0.877335447	0.473418564	0.404028088	0.17058733	0.625946291	0.58607308
0.113804978	0.099899877	0.841816628	0.626111283	0.600898069	0.135082118
0.860370339	0.846473754	0.147467083	0.153347809	0.151122712	0.562585734
0.07476516	0.074970211	0.075157658	0.634213859	0.634442543	0.634668087
0.865974422	0.855688941	0.10768862	0.15718805	0.154999152	0.593909508
0.855865366	0.079954696	0.071563151	0.149316895	0.647861744	0.62778933
0.86896176	0.080604812	0.078646873	0.162536072	0.675182796	0.662543308
0.841679312	0.092676193	0.099828601	0.134853354	0.629408204	0.603986862
0.87759637	0.473542236	0.404165673	0.170378979	0.625889963	0.585973825
0.102230119	0.841558281	0.083365789	0.606004218	0.134839212	0.63116424
0.869064856	0.099272688	0.081728174	0.162717159	0.667723438	0.656142888
0.041055142	0.041236702	0.041316902	0.692688516	0.69280459	0.692508666
0.055330447	0.87153464	0.87540851	0.655012962	0.164638981	0.168495911
0.877524078	0.437483111	0.444181165	0.170509137	0.59169439	0.562112133
0.864569504	0.854746712	0.111450986	0.156237456	0.154786056	0.591910379
0.014206631	0.881992621	0.014325296	0.697399746	0.175126035	0.697258905
0.137246882	0.861114105	0.845786591	0.566190399	0.154704057	0.149516758
0.877161838	0.473319888	0.403954221	0.170409858	0.625829047	0.585926525
0.13069435	0.826896291	0.138442877	0.57687385	0.119990494	0.605500286
0.129108491	0.825923399	0.145914186	0.574375161	0.118829347	0.603595464
0.077744662	0.869076118	0.08553141	0.661268944	0.162497799	0.673518593
0.875176926	0.065210415	0.871459676	0.168690617	0.652950597	0.164534227
0.014222306	0.01409599	0.881128439	0.69701764	0.696942148	0.175239303
0.028012226	0.881269623	0.028439497	0.695311998	0.175589564	0.695272895
0.413279166	0.877505812	0.475751732	0.568421988	0.170589606	0.608289529
0.854066034	0.108081046	0.864817044	0.154638946	0.593777466	0.156861777
0.825770935	0.296659906	0.314271306	0.118572248	0.612495688	0.584053825
0.48082844	0.405703356	0.877440927	0.575035904	0.532606348	0.17056262
0.876153969	0.882565615	0.040857662	0.170669475	0.175264704	0.693056378
0.881891382	0.054539249	0.054137754	0.175553959	0.689520003	0.690301877
0.084718404	0.868418977	0.081872848	0.664283659	0.162555594	0.675490763
0.102233547	0.841464357	0.083367681	0.605933677	0.134816252	0.631248837
0.871379844	0.875295401	0.047261944	0.165241481	0.169185751	0.657001579
0.864727986	0.855392043	0.111437292	0.156512524	0.155010979	0.591964931
0.862732376	0.842931924	0.13374485	0.155467015	0.148325183	0.567714104
0.88344431	0.027327062	0.875645362	0.174991628	0.695283341	0.170280943
0.121555843	0.120691964	0.192882365	0.616603086	0.619436526	0.617114525
0.06821327	0.079973335	0.855833954	0.652093032	0.632446207	0.149179268
0.855631453	0.079891474	0.071539541	0.149300283	0.647708109	0.627693822
0.844877767	0.141791958	0.860750229	0.149734992	0.564479352	0.153418086
0.874428674	0.873317379	0.87398594	0.18885316	0.189334838	0.188883056
0.825759507	0.223666909	0.226201001	0.119151327	0.608974901	0.582982837
0.111414564	0.864331444	0.856432596	0.592075406	0.156166342	0.155587443
0.437078639	0.446346246	0.877358264	0.575743148	0.546079052	0.170601689
0.134370146	0.825271668	0.14238982	0.576544327	0.119064425	0.605333415
0.065228888	0.871080415	0.874950344	0.652582508	0.164592038	0.168651787
0.104085658	0.866407867	0.867465177	0.615302496	0.158753849	0.162895528
0.877179893	0.459395435	0.429436165	0.170581377	0.559831793	0.524313348
0.401609997	0.877420887	0.480817602	0.548256251	0.169973731	0.589731019
0.093760071	0.337684455	0.288366149	0.622499787	0.625755964	0.621929052
0.825777828	0.285789844	0.286663459	0.118779527	0.613486357	0.585675365
0.877694792	0.480884184	0.410341173	0.170775301	0.559471881	0.517371171
0.459674918	0.42964247	0.87767179	0.55982884	0.524420663	0.170685562
0.063822672	0.059896873	0.06576204	0.651870887	0.651965524	0.651686054
0.866914019	0.10435012	0.867246515	0.162770947	0.615237015	0.15909974
0.877336822	0.447946158	0.432585429	0.170446907	0.591228473	0.5585237
0.41017109	0.877355617	0.480717708	0.517550808	0.170542544	0.559211705
0.480715211	0.40131913	0.877355745	0.590270504	0.547984465	0.170499491
0.868932419	0.082734485	0.072996344	0.162658956	0.673495005	0.66077832
0.040983623	0.041278389	0.041156231	0.692490839	0.692187962	0.69237409
0.071606314	0.854975346	0.079616654	0.627687954	0.148926411	0.647711907
0.876482837	0.882078971	5.49553E-06	0.171166381	0.175583401	0.699201392
0.876479064	0.882758115	0.027326112	0.171194275	0.175535815	0.695160011
0.422255292	0.877455634	0.459080546	0.554565663	0.170558605	0.590376943
0.868966109	0.099419199	0.081882666	0.162811448	0.665103151	0.653479488
0.844004197	0.133760817	0.863038622	0.148369253	0.567891363	0.155483554
0.09926332	0.841861121	0.103165157	0.602391204	0.135117826	0.627951085
0.486396204	0.402583206	0.877528934	0.608505801	0.565516205	0.170505283
0.256611085	0.253575312	0.825725065	0.615510412	0.583067779	0.118674955
0.877374727	0.469952606	0.415455878	0.170556881	0.575527713	0.536215572
0.054685817	0.051193595	0.057260797	0.653932218	0.654428565	0.65501948
0.874393028	0.874009622	0.87417483	0.188968341	0.189430984	0.188877109
0.866705801	0.095580784	0.86699577	0.162575449	0.617202628	0.159464439
0.083415218	0.083717268	0.084067257	0.632375986	0.632068033	0.632508258
0.040744611	0.88100137	0.041250469	0.69283032	0.175037467	0.692464469
0.410155164	0.877475278	0.480842983	0.517723038	0.170609887	0.559383474
0.130137801	0.128194228	0.09872836	0.611047893	0.61009793	0.614668982
0.429507493	0.877431346	0.459566379	0.524223064	0.170565809	0.559911144
0.41557471	0.877396748	0.470048559	0.535929903	0.170552904	0.575227345
0.847151376	0.153945164	0.86047681	0.151807646	0.560927101	0.15244582
0.130497476	0.862732096	0.857538881	0.586496623	0.154676463	0.156748515
0.154033893	0.859222102	0.847740777	0.560849365	0.152090495	0.151405565
0.113844639	0.099901431	0.841755797	0.626157421	0.600972114	0.135067057
0.107959416	0.865172444	0.855158282	0.593669203	0.156932056	0.154757732
0.074993859	0.07489674	0.075085702	0.634159271	0.634303002	0.634777409
0.869116321	0.091831136	0.079474112	0.162634217	0.671887393	0.658697326
0.054240035	0.881209469	0.054619852	0.69037434	0.175418451	0.690074131
0.881245893	0.01419141	0.014276341	0.175478177	0.697613271	0.697630911
0.405739876	0.877331418	0.480553878	0.532987808	0.170486037	0.575345015
0.876420302	0.883623194	0.040850711	0.170966356	0.175730425	0.692917979
0.85525352	0.068916952	0.071433506	0.149200386	0.649669653	0.629321254
0.027182946	0.075640749	0.075195785	0.679069354	0.679935623	0.679501736
0.877898313	0.459184731	0.422368076	0.170877507	0.59103618	0.554876042
0.077206803	0.869159471	0.085628522	0.661261453	0.162586092	0.673575098
0.865517513	0.076972127	0.867830129	0.161283299	0.623169558	0.160079898
0.213485249	0.211768038	0.826067339	0.60759854	0.580834276	0.118922722
0.874175959	0.881800733	0.040854219	0.17009118	0.174619096	0.693037456
0.103167537	0.099161167	0.841483206	0.627693674	0.602767278	0.13501008
0.882054632	0.014268556	0.014218049	0.175466081	0.697113353	0.697442185
0.862520323	0.846148582	0.141695672	0.153921296	0.149955686	0.564543782
0.147460896	0.860216274	0.84564272	0.562814205	0.152729702	0.150377908
0.877417445	0.48413069	0.399548416	0.170610913	0.607643016	0.564991464
0.450242683	0.426817595	0.877074963	0.626503398	0.593093479	0.170661415
0.863288341	0.863705686	0.863488872	0.218583524	0.218726045	0.219301157
0.053758983	0.051398935	0.057055887	0.654055777	0.654267423	0.654266267
0.464890037	0.425166173	0.877349818	0.610035933	0.573137452	0.1705416
0.480543075	0.401213364	0.877077126	0.589954356	0.548229318	0.170004498
0.450536405	0.427111047	0.877662236	0.626468972	0.593075194	0.170628731
0.825680437	0.287315744	0.29711735	0.118635374	0.614074889	0.587606141
0.877084234	0.469762721	0.411437749	0.170082108	0.590421876	0.551624482
0.111453555	0.863497538	0.85427366	0.592212191	0.155976963	0.154996088
0.82230482	0.82333452	0.822430464	0.298196852	0.298653528	0.297991084
0.865347135	0.077079962	0.86798377	0.161162511	0.623151348	0.160036698
0.880922014	0.02767734	0.027433832	0.17483771	0.694867248	0.695207682
0.459120281	0.425676269	0.877420836	0.57544443	0.539300622	0.170638121
0.07837212	0.868960964	0.086140276	0.661064037	0.162484678	0.673503475
0.480513551	0.401114971	0.876951727	0.589961753	0.548263157	0.170066373
0.877484357	0.448865859	0.439546926	0.170686216	0.559681433	0.527746861
0.866162698	0.095717703	0.866828954	0.162134884	0.617366882	0.159367942
0.470478318	0.419903544	0.877873155	0.559631949	0.521051167	0.170555585
0.877674995	0.484894457	0.39303199	0.170734392	0.625233845	0.582622537
0.465044434	0.424399896	0.877306235	0.60859102	0.571838326	0.170524988
0.877355498	0.43945839	0.44448317	0.17056231	0.6093757	0.579289931
0.082324255	0.080120125	0.868814156	0.674299449	0.662561556	0.162570198
0.125127698	0.103149724	0.841568998	0.623970058	0.598867818	0.135330531
0.877331002	0.448059935	0.435900523	0.170591368	0.575688409	0.542846589
0.877716253	0.470316772	0.419920237	0.170783134	0.559755145	0.520890435
0.040833279	0.881576481	0.041068794	0.692492367	0.175209244	0.692636143
0.133775586	0.861146222	0.842885268	0.567783327	0.154576015	0.147619957
0.871977219	0.874253263	0.065200729	0.164723039	0.168240587	0.652732575
0.07559433	0.077053596	0.854805213	0.649876556	0.62956262	0.148564343
0.145552841	0.128347192	0.826062031	0.603202659	0.574874137	0.119355967
0.882526359	0.054264144	0.876074104	0.175054497	0.690382212	0.170475161
0.462601158	0.877705262	0.447884144	0.531530518	0.170748463	0.560476258
0.470294972	0.419778817	0.877558324	0.559556171	0.520986391	0.170611259
0.099271312	0.841737584	0.10317323	0.602436748	0.135170239	0.627913596
0.077015687	0.867640368	0.865714093	0.623177609	0.159995226	0.161957991
0.883388483	0.027328991	0.875519857	0.175179282	0.695296831	0.17030003
0.099164532	0.841265459	0.102858664	0.602567059	0.135040395	0.627717853
0.438120367	0.44529544	0.877610002	0.592395004	0.562878223	0.170903906
0.425152819	0.877361733	0.464129142	0.573488553	0.170618885	0.609705722
0.439762531	0.877670358	0.448833659	0.52758491	0.170601164	0.559874881
0.082391594	0.855225145	0.067796453	0.631982527	0.148839076	0.652972498
0.881680255	0.054633855	0.054143591	0.175320427	0.689955046	0.690470803
0.05532084	0.871607588	0.874149603	0.65463763	0.164255031	0.168622665
0.841723434	0.092760152	0.099870267	0.134784297	0.629487166	0.603963606
0.877397275	0.437097466	0.446365601	0.170575598	0.575767142	0.546078647
0.855886023	0.079918058	0.071556727	0.149310617	0.64787939	0.627812858
0.08489465	0.869207983	0.100725178	0.655678282	0.162772484	0.667447328
0.422164166	0.877363139	0.45912706	0.555185179	0.170428622	0.590948301
0.480900407	0.401565949	0.877789493	0.590143371	0.548245344	0.170677714
0.448161018	0.432778052	0.877787361	0.591028081	0.558189824	0.170845131
0.88224616	0.040851019	0.874909544	0.174911642	0.692907884	0.170697207
0.876589302	0.88225333	0.040862413	0.17021878	0.174833696	0.693139181
0.877340104	0.451216866	0.431903253	0.170565048	0.610104078	0.576606978
0.866732588	0.087907717	0.867782643	0.162085641	0.619336879	0.159782168
0.048687277	0.045004475	0.052197075	0.656041175	0.656361571	0.656322232
0.85584563	0.103051078	0.078849776	0.149380809	0.643601611	0.623613059
0.028519498	0.882138212	0.028358922	0.695034516	0.175479328	0.695815937
0.415559818	0.877386906	0.470073526	0.535931822	0.170572367	0.575265176
0.872554617	0.874937811	0.046389062	0.165127028	0.16851854	0.658963402
0.877111309	0.480714125	0.401196181	0.170454033	0.590018292	0.547767427
0.861379348	0.845339035	0.141698172	0.153921407	0.149911417	0.564574444
0.869045096	0.083551543	0.074964885	0.162535094	0.671022983	0.659030962
0.091309438	0.074567372	0.855760295	0.645681275	0.62604095	0.149199253
0.867421719	0.866527713	0.087793656	0.159931121	0.162404803	0.619370211
0.429773541	0.877917102	0.459780551	0.524344273	0.170801743	0.559947344
0.865433594	0.095530433	0.865839938	0.162334145	0.617318879	0.158912379
0.884792612	0.027330112	0.877169703	0.176039236	0.695264287	0.170762806
0.081776004	0.867028963	0.865105291	0.621031201	0.159297993	0.161561235
0.876725049	0.877702135	0.877489114	0.170425927	0.170516741	0.17069602
0.24161157	0.826076252	0.23570091	0.582867475	0.118811141	0.611823804
0.874874366	0.076017786	0.871360128	0.168835419	0.650430537	0.164542287
0.48069532	0.405833921	0.87741297	0.575165131	0.532688666	0.170595734
0.87739429	0.448690387	0.439626809	0.170520952	0.559836033	0.527612499
0.877401454	0.448068866	0.43595227	0.17062853	0.575718583	0.542883411
0.877305007	0.448645988	0.439589264	0.170433923	0.559860215	0.527620889
0.15402872	0.858901367	0.847039772	0.560971943	0.152331589	0.15169024
0.866810468	0.104218959	0.866795459	0.162777168	0.61521018	0.159203669
0.07606334	0.871188869	0.875473646	0.650510513	0.164509063	0.168643206
0.878009968	0.884665909	0.054279057	0.170844065	0.175743131	0.690582071
0.076012903	0.870816814	0.876036675	0.650364378	0.164313178	0.169106603
0.027326536	0.875171144	0.883021408	0.695257258	0.169994922	0.175435272
0.856183846	0.130455334	0.862109999	0.156528005	0.586457202	0.154277695
0.844950569	0.141819365	0.860441579	0.149799088	0.564603117	0.153420747
0.877350283	0.459505107	0.429495462	0.170565921	0.559794388	0.524343291
0.883439752	0.054275746	0.875772666	0.175487235	0.690576643	0.170428366
0.869220224	0.092495088	0.080043284	0.162662675	0.672274233	0.658644408
0.14745093	0.860343572	0.845452306	0.562650051	0.152801838	0.150386302
0.014298803	0.881493734	0.014360753	0.697555565	0.175268492	0.696699142
0.875736041	0.076056483	0.871041777	0.169458018	0.6504975	0.164787949
0.47355394	0.404166001	0.877608917	0.625796716	0.586189661	0.170706533
0.06524374	0.871209068	0.875454035	0.652748548	0.164830761	0.16913744
0.855452918	0.102950639	0.078830372	0.149339108	0.643456535	0.623674954
0.0821393	0.855496893	0.067611783	0.632048388	0.148860772	0.653182528
0.866152188	0.866442787	0.103964843	0.159313765	0.162445895	0.615288805
0.104049061	0.866351063	0.867247434	0.615275562	0.158916925	0.162802294
0.085667172	0.07755376	0.869252214	0.672681363	0.660541363	0.162536773
0.075126286	0.077833899	0.855188996	0.650416888	0.629538773	0.1490932
0.846913603	0.846667233	0.84681016	0.256935634	0.256635204	0.256760963
0.47572712	0.413854302	0.877443935	0.607919858	0.568343936	0.170588446
0.14693174	0.129990087	0.82604207	0.604158218	0.575620523	0.119353751
0.877321291	0.451237607	0.431884805	0.17056394	0.610029142	0.576564846
0.877499709	0.469948098	0.41165974	0.170471967	0.590407678	0.551708595
0.448409853	0.439319336	0.876795932	0.559776893	0.527647557	0.170465532
0.867727838	0.86578269	0.081595436	0.160010299	0.161798617	0.621332379
0.480806575	0.410076857	0.877348173	0.55936874	0.517530167	0.17057389
0.877413156	0.480527566	0.405649616	0.170578476	0.575337015	0.532948889
0.881734509	0.054673047	0.054221943	0.175467089	0.690383691	0.690795671
0.078875137	0.855644563	0.102983311	0.623617447	0.149642101	0.643479518
0.31938565	0.825763897	0.308809423	0.582803877	0.118737916	0.61207792
0.067741204	0.067653816	0.067946031	0.636334555	0.636462528	0.636739715
0.825798148	0.135652387	0.129098081	0.119051048	0.605288557	0.576110072
0.877299779	0.480814476	0.401258369	0.170381527	0.590097422	0.547857227
0.114035508	0.10005529	0.841710027	0.625774415	0.600479596	0.135056984
0.869167462	0.098533705	0.081532862	0.162718332	0.667680046	0.656067353
0.054749258	0.054657392	0.055380801	0.689912139	0.690260494	0.689904027
0.095560241	0.866641871	0.866075431	0.617111101	0.159030487	0.162382981
0.856326978	0.123169771	0.863808246	0.156105764	0.588601288	0.155321146
0.86622017	0.866430267	0.103966181	0.159274104	0.162416694	0.615288026
0.047206573	0.871807826	0.87474703	0.657057295	0.165083175	0.168625986
0.860789757	0.844385565	0.141779544	0.153107458	0.149166151	0.564524659
0.422137922	0.877532765	0.459293783	0.554583931	0.170534453	0.590401077
0.470190103	0.419612258	0.877274279	0.559585158	0.521060463	0.170599578
0.445773344	0.448314498	0.877358117	0.608554004	0.578254599	0.170561381
0.877523926	0.87652693	0.877653379	0.17048465	0.170504929	0.170685131
0.869194517	0.092236157	0.079731199	0.162665351	0.672344229	0.658660207
0.883243167	0.05427253	0.875828172	0.1749979	0.690509413	0.170480687
0.876423328	0.884109249	0.027327563	0.171074294	0.175739454	0.695205908
0.84173033	0.113824002	0.100256708	0.13505383	0.625728433	0.600540878
0.079310765	0.869269775	0.0822723	0.662824497	0.162537109	0.674849387
0.877360846	0.45899281	0.425633417	0.170564913	0.575591069	0.539539172
0.071647598	0.855227548	0.079627071	0.627541869	0.14893122	0.647909133
0.080602656	0.083454108	0.8687767	0.675436947	0.663561305	0.162712582
0.847480762	0.845710153	0.846618373	0.256824404	0.256949331	0.256661255
0.863946996	0.856287567	0.116668402	0.155746719	0.155903041	0.590241669
0.484849348	0.392996563	0.877593406	0.625530336	0.582421194	0.170857144
0.065227213	0.871048557	0.875070422	0.652443759	0.164350871	0.168430336
0.446339928	0.877335411	0.437063276	0.546052666	0.170621629	0.575690555
0.877335666	0.437068926	0.446335886	0.170621567	0.575743202	0.546105962
0.877304376	0.436934898	0.444488589	0.170446094	0.59190341	0.562284902
0.448558288	0.439422138	0.87705762	0.559894243	0.527594796	0.170577425
0.877025898	0.473263755	0.403873157	0.170613783	0.625954851	0.586099178
0.877409243	0.437099285	0.446375932	0.170580891	0.575754577	0.54608601
0.123211588	0.862959715	0.857091079	0.588456206	0.154946697	0.156201627
0.425098081	0.877315513	0.464668997	0.572134391	0.170570456	0.608649036
0.866492634	0.095572237	0.866786471	0.162517883	0.61762815	0.159062364
0.103532942	0.841651352	0.12499763	0.598143607	0.135185545	0.623268031
0.859847494	0.846491513	0.154035371	0.152483857	0.15160156	0.560938954
0.107925377	0.864999642	0.85483176	0.593642918	0.156665059	0.154730918
0.865608143	0.076968094	0.867847908	0.161265955	0.623241082	0.160075325
0.87776471	0.447987548	0.432982412	0.170536772	0.590969513	0.558285017
0.091913246	0.079535128	0.869156823	0.670218008	0.657731021	0.162583866
0.013706439	0.875106135	0.882318923	0.697342925	0.170209685	0.175287179
0.413142355	0.877433829	0.475785467	0.568256593	0.170605301	0.608085599
0.076050547	0.871166293	0.87478671	0.65052584	0.164500051	0.168749476
0.413137655	0.877502518	0.475820465	0.568483397	0.170561393	0.608309963
0.060036391	0.060021573	0.05999879	0.640042726	0.640215963	0.640264246
0.841896382	0.113643357	0.100449521	0.135191375	0.626009263	0.600379631
0.448551696	0.877339671	0.444799799	0.578597468	0.170606303	0.60883982
0.41214223	0.877565749	0.470023262	0.551849564	0.170639306	0.590724359
0.475289598	0.413869913	0.877469423	0.607954198	0.568406015	0.170599842
0.077059159	0.867808792	0.865820461	0.623303936	0.159981133	0.161802291
0.861243235	0.844357886	0.141807859	0.153136044	0.149191311	0.564456838
0.884489464	5.49603E-06	0.874966782	0.175194681	0.699271393	0.169915601
0.867202818	0.866421749	0.08781376	0.159670433	0.162337765	0.619164618
0.821599316	0.823735818	0.824897654	0.299119182	0.298616787	0.299220317
0.078945713	0.855449846	0.102969623	0.623737608	0.149393702	0.643308482
0.855546171	0.07976082	0.071535991	0.149113582	0.648015244	0.627723316
0.868928309	0.080154807	0.077101414	0.162523762	0.674574813	0.66358177
0.081754904	0.855060664	0.066276219	0.631290578	0.148770637	0.653202035
0.486865615	0.401993694	0.877404555	0.608229797	0.565157145	0.170508564
0.027302735	0.076336244	0.076351027	0.678732969	0.680022549	0.678571405
0.013708216	0.875904907	0.883778199	0.697451688	0.170739	0.175552069
0.824490451	0.823316461	0.824283166	0.298270168	0.298638832	0.297992497
0.459137491	0.425667998	0.877427467	0.575413199	0.539296415	0.17062074
0.866767694	0.866466778	0.08787944	0.159312934	0.162108957	0.619274463
0.040835336	0.87497124	0.883098491	0.692681101	0.169899163	0.175163303
0.877323727	0.469874385	0.411568802	0.170043734	0.590462131	0.551755024
0.877380587	0.469907889	0.415470985	0.1705402	0.57536966	0.536094761
0.877368922	0.46161292	0.422160438	0.170576488	0.609516893	0.57313465
0.074366695	0.855831976	0.091175054	0.625857082	0.149237154	0.645851154
