Va	Vb	Vc	Ia	Ib	Ic
0.883143419	0.054280639	0.875909678	0.175032466	0.69057719	0.170775753
0.102232725	0.841296974	0.083316555	0.605887046	0.134804971	0.631320484
0.027568049	0.02742281	0.881134841	0.694879872	0.695684354	0.175197175
0.846138818	0.147494355	0.860536034	0.150731734	0.562867787	0.152992135
0.027587679	0.881875501	0.02771738	0.695311253	0.175352891	0.695158889
0.877180919	0.450295218	0.426871343	0.170455011	0.626410597	0.593208407
0.469739812	0.41140249	0.877058685	0.590521417	0.55211551	0.169983098
0.87670743	0.883315092	0.040860447	0.170784671	0.175893233	0.693140756
0.415419415	0.877386437	0.461993657	0.589849544	0.170440393	0.626080073
0.102217073	0.84150256	0.08336638	0.605602489	0.134717853	0.630646984
0.073852065	0.855473243	0.082363219	0.62789456	0.149338472	0.648278624
0.419798521	0.877422159	0.470144078	0.520867607	0.170756082	0.559710577
0.877185193	0.480710292	0.41000941	0.170448036	0.559337841	0.517536018
0.877754429	0.877496098	0.878973632	0.170999684	0.170687007	0.171069804
0.824942114	0.823041721	0.825051428	0.298555026	0.298586239	0.298173552
0.404426744	0.878129332	0.473814029	0.586291954	0.170717683	0.625772155
0.045483928	0.048858874	0.051969072	0.657182131	0.658385831	0.659067465
0.826329044	0.146866833	0.13192079	0.119169428	0.604743371	0.575366915
0.44456469	0.877686995	0.438767115	0.56204355	0.170499499	0.591421698
0.825511128	0.264512302	0.278494295	0.1184567	0.611267824	0.584468559
0.43589236	0.877270008	0.448044952	0.542844036	0.170551727	0.575750578
0.825606247	0.137272833	0.128480827	0.118753096	0.606538421	0.577794311
0.470204851	0.4196159	0.87731022	0.559652245	0.520991396	0.17060219
0.868991234	0.080129473	0.077214309	0.162548483	0.674714156	0.663111261
0.877609491	0.884675205	0.054276261	0.171426776	0.175300349	0.69055346
0.877669377	0.480964782	0.401666075	0.170695972	0.59029886	0.547978119
0.208282678	0.826090203	0.212961085	0.5806598	0.119363619	0.609402152
0.075971381	0.871791217	0.874519347	0.650543576	0.164589187	0.16855965
0.877352105	0.437188073	0.444244442	0.170342584	0.591470846	0.561970176
0.411578317	0.877544383	0.470043364	0.551728121	0.170330986	0.590553131
0.074823383	0.855750862	0.091394814	0.626020559	0.149392742	0.6456828
0.855777562	0.123110676	0.8627471	0.155984522	0.588434187	0.155007941
0.481001985	0.410234737	0.87772267	0.55937322	0.51751702	0.170674353
0.081648456	0.867740182	0.865731084	0.621380968	0.159888527	0.161438831
0.855462194	0.111416108	0.864414089	0.154986954	0.592044118	0.155899071
0.844048373	0.137146169	0.86163504	0.148874172	0.566170905	0.154357864
0.882617988	0.040847556	0.875518751	0.17453429	0.692854788	0.170551818
0.095380062	0.867022317	0.866316156	0.617399821	0.159238339	0.162376473
0.140891567	0.128786103	0.826005788	0.60427492	0.57611671	0.119123054
0.854134418	0.107621	0.86521946	0.154808523	0.593797293	0.156892962
0.866165692	0.08151856	0.867498525	0.161967093	0.621664726	0.159806944
0.062497549	0.062481109	0.062479489	0.638262049	0.638419828	0.63852243
0.298598637	0.82565681	0.292076454	0.590494939	0.118840294	0.618948674
0.847722011	0.153912697	0.860533878	0.151293183	0.560918973	0.152102025
0.103235649	0.078825519	0.856365313	0.64321802	0.623721205	0.14966262
0.107732072	0.865381482	0.855085609	0.59397807	0.157134792	0.154948558
0.069199221	0.065446709	0.084725487	0.670474909	0.670705318	0.672843813
0.459565911	0.429580916	0.877509889	0.559896678	0.524361326	0.170641526
0.877749782	0.480919924	0.410371947	0.170897997	0.559573459	0.517352294
0.856539126	0.130380402	0.862408921	0.156311531	0.586409	0.15437596
0.123090065	0.862639608	0.855439585	0.588489657	0.155250382	0.156238182
0.856454121	0.079543355	0.071866722	0.149403151	0.64802064	0.627469261
0.8664952	0.104131676	0.866673301	0.162708723	0.615426693	0.159181893
0.877133522	0.437126703	0.444040193	0.170449243	0.591571156	0.562246356
0.860780466	0.844587574	0.137245281	0.154214765	0.148966767	0.566223075
0.415625447	0.877785203	0.462186671	0.589616306	0.170840202	0.626190474
0.041490379	0.881805261	0.041654352	0.692941829	0.175270729	0.692824877
0.039772436	0.04657918	0.073624326	0.677245698	0.676648541	0.677536433
0.877407603	0.483552469	0.400435453	0.170591523	0.608638581	0.566072405
0.344314054	0.826319861	0.330450452	0.58391791	0.118788153	0.615179215
0.8772994	0.47309127	0.410613504	0.170540204	0.609267073	0.569381894
0.074532062	0.855727225	0.091454963	0.625654478	0.149858672	0.645631351
0.458839628	0.421807054	0.877086119	0.590943408	0.555033958	0.170315459
0.070690716	0.06515673	0.085231292	0.669932165	0.670803358	0.67187444
0.133717738	0.861737092	0.843629229	0.567801104	0.155220368	0.14822473
0.873651736	0.873485789	0.872366312	0.188472594	0.189036979	0.188477931
0.575804769	0.877380917	0.537218047	0.533572164	0.170571078	0.562634886
0.855428924	0.06423657	0.078114994	0.14876101	0.653525559	0.632549863
0.462100295	0.415539264	0.877612253	0.626098035	0.589695	0.170469708
0.137138439	0.861644546	0.843428064	0.566078666	0.154354093	0.148846697
0.411485881	0.877237581	0.469835334	0.55164201	0.17021635	0.590539207
0.447820558	0.43250878	0.877187498	0.590793984	0.558458023	0.170183022
0.424158497	0.877389243	0.465197364	0.573174131	0.170546816	0.609861337
0.239637113	0.238801605	0.825351508	0.610003944	0.582265962	0.118330596
0.860310631	0.845015769	0.147503198	0.152712487	0.150291744	0.562880522
0.141752927	0.860730063	0.845738045	0.564506491	0.154027231	0.150252398
0.825737151	0.252722348	0.254064111	0.118970485	0.612698744	0.584370198
0.450526026	0.427094309	0.877635202	0.626589288	0.593091412	0.170614673
0.107769907	0.8650122	0.855595819	0.593849781	0.15686677	0.154620302
0.027326606	0.87552708	0.88344614	0.695234254	0.170919149	0.175757038
0.874217221	0.047193408	0.872362784	0.168475194	0.656911892	0.164825344
0.87245865	0.874686846	0.047407658	0.16580257	0.168680485	0.656882396
0.054515906	0.055129426	0.054711597	0.690239192	0.690163989	0.69022813
0.104261207	0.866640354	0.867052398	0.615380489	0.159248309	0.162845942
0.120933328	0.111823402	0.141058686	0.615651358	0.614797662	0.61605153
0.862278597	0.863371411	0.863294182	0.219153539	0.219124325	0.219499688
0.00000478	0.881062758	0.00000488	0.699145636	0.175051599	0.698947731
0.877564125	0.473524058	0.404151621	0.170660548	0.625759793	0.586062768
0.448835404	0.439811612	0.87772535	0.559880614	0.527554238	0.17045736
0.00000479	0.881423283	0.00000493	0.699118968	0.175438286	0.699040584
0.059409465	0.063997539	0.063188274	0.652155733	0.652781735	0.652070234
0.092758202	0.099652085	0.841433044	0.629588496	0.604399576	0.134858821
0.102217673	0.841310558	0.083390117	0.605836212	0.13476981	0.631382952
0.874975167	0.075980339	0.871443268	0.168902444	0.650414018	0.164514507
0.877447638	0.473497455	0.410095481	0.170618033	0.609295633	0.569487841
0.104120311	0.86677235	0.867268083	0.615518911	0.159222418	0.162826857
0.072992425	0.855306903	0.071498862	0.629437529	0.149103021	0.649530725
0.875035542	0.055420669	0.871721955	0.168661435	0.655038221	0.164749604
0.103954897	0.866998182	0.86699443	0.615696161	0.159374777	0.162873776
0.866501173	0.865693988	0.104043012	0.159281856	0.162485173	0.615210607
0.85439059	0.107626439	0.865253801	0.154815063	0.593834931	0.156902229
0.877615405	0.44879009	0.4397412	0.170716956	0.559966438	0.527628908
0.074003536	0.855512602	0.08257793	0.627879746	0.149318504	0.648275421
0.429613232	0.877653599	0.459687996	0.524430413	0.170844351	0.559752686
0.449152934	0.440047455	0.878281137	0.559786052	0.527744281	0.170654027
0.841469469	0.124787312	0.103917078	0.135342394	0.622911112	0.597811975
0.027863273	0.027744221	0.881636562	0.694871661	0.695097542	0.17489529
0.864812353	0.076942875	0.867307836	0.161016515	0.622745008	0.159826708
0.858303233	0.845192383	0.153945475	0.151588313	0.150796001	0.560980065
0.462010605	0.415444522	0.877428127	0.626341946	0.589650724	0.170592282
0.08033269	0.855177245	0.104517715	0.623580327	0.149338695	0.643276264
0.877415768	0.483570496	0.400426325	0.170588425	0.608639024	0.566075796
0.102989658	0.078894698	0.855767106	0.643354142	0.62338195	0.149257059
0.865085043	0.85412511	0.1077933	0.156756864	0.154653919	0.593803286
0.099219436	0.84168807	0.103079008	0.602432282	0.134920449	0.627622029
0.86453799	0.854889557	0.11145657	0.155790125	0.154684983	0.591902255
0.866628715	0.103970543	0.867257402	0.162648554	0.615519232	0.159205307
0.44636475	0.877389468	0.437091436	0.546052951	0.170612549	0.575749341
0.275120281	0.287223592	0.825658663	0.613757417	0.582699165	0.118681497
0.874420802	0.049830138	0.872263595	0.168430019	0.659257252	0.165229128
0.841728735	0.103014193	0.099025824	0.134992248	0.627677877	0.602610762
0.100344698	0.841794987	0.113939109	0.600941829	0.13501471	0.625956751
0.87703789	0.469962675	0.411814348	0.170088134	0.591444326	0.552734679
0.877237564	0.461911866	0.415353198	0.170519237	0.626131272	0.589807716
0.051913573	0.0540861	0.058987351	0.654195377	0.654467425	0.653638663
0.476220971	0.412949094	0.877342248	0.610630013	0.57086136	0.170535795
0.027324425	0.87640402	0.883264165	0.695168618	0.171205869	0.175666446
0.227861368	0.238247679	0.825618973	0.611149318	0.581629822	0.118849932
0.865961515	0.077056601	0.868009407	0.161590195	0.623210226	0.160363199
0.059996306	0.060035953	0.059987349	0.639895904	0.640179054	0.639784089
0.458985369	0.421945139	0.877367751	0.590775877	0.555091231	0.170375556
0.866293779	0.081552951	0.867364119	0.161731218	0.621439823	0.159624693
0.84137353	0.083369216	0.102186377	0.134839153	0.631358484	0.606241392
0.111503963	0.863947992	0.854947494	0.592074291	0.155942084	0.155124846
0.092790227	0.080760237	0.869001274	0.667808977	0.656831161	0.16271961
0.083678276	0.868819817	0.085539429	0.660660585	0.162614339	0.675355602
0.843663685	0.133799964	0.862438269	0.147898923	0.567762338	0.155075559
0.447763229	0.432435205	0.877054875	0.590833059	0.55834939	0.170149732
0.111393384	0.864637758	0.854780405	0.592065677	0.156363111	0.155308811
0.861240274	0.845425896	0.141731296	0.153852142	0.149868097	0.564563202
0.877365723	0.473945334	0.409942393	0.170534072	0.60932255	0.56943296
0.480700041	0.401351932	0.877377359	0.590161516	0.548029869	0.170482593
0.153931872	0.860158364	0.846498064	0.560900277	0.152511987	0.151697565
0.867200656	0.866226625	0.088267621	0.159520083	0.162464554	0.619623636
0.48665935	0.52750772	0.87734354	0.559158345	0.530785013	0.170950827
0.271453271	0.283000572	0.825442461	0.613927272	0.58627745	0.118688691
0.435972435	0.877384221	0.448075729	0.542752309	0.170567281	0.575645577
0.082768479	0.869220991	0.100298188	0.657267821	0.162631465	0.669373107
0.846224009	0.845320544	0.848436371	0.25722398	0.256851576	0.257552051
0.882472022	0.040848141	0.877145829	0.174654387	0.692859707	0.170606856
0.074675518	0.855430892	0.091452319	0.625730892	0.14920581	0.645531286
0.87683558	0.473163032	0.403784421	0.170567009	0.62593005	0.586034024
0.877230464	0.459058087	0.422059721	0.170311906	0.590451751	0.554563824
0.073052398	0.855347643	0.082016212	0.627677314	0.149311158	0.6475654
0.439695644	0.877602413	0.448823989	0.527486318	0.17075607	0.559986408
0.047149583	0.871397121	0.874774051	0.656850542	0.164641498	0.168237069
0.027323118	0.876563448	0.883670116	0.695147162	0.171208025	0.175667588
0.841709678	0.113662025	0.100456707	0.135044037	0.625937851	0.600495586
0.221186616	0.826266786	0.212943147	0.580071461	0.119153975	0.608808604
0.874568327	0.065235931	0.871379637	0.168674883	0.65275685	0.16464553
0.041250402	0.881830086	0.041452687	0.692440395	0.175438766	0.692085012
0.438771301	0.877573609	0.43877601	0.596448076	0.170697006	0.626561135
0.868774555	0.084568766	0.076493185	0.162673027	0.672630935	0.661504155
0.054594286	0.054227256	0.882022311	0.689930038	0.690643912	0.175523026
0.480830728	0.410109623	0.87741211	0.559332162	0.517537472	0.170560383
0.068977677	0.071304259	0.855894858	0.649995233	0.629750524	0.149070798
0.874130455	0.872689037	0.873525526	0.18902816	0.18835005	0.18824397
0.121823064	0.297981334	0.209233968	0.622448883	0.62701567	0.623250175
0.072909439	0.855866526	0.071362665	0.629407636	0.149270195	0.650047421
0.877495048	0.439839111	0.444920816	0.170625352	0.609710378	0.579253358
0.881213409	0.00000484	0.00000482	0.175399318	0.699118074	0.699580679
0.841453066	0.124879075	0.10430661	0.135325281	0.622938616	0.597758578
0.857301204	0.13047515	0.862653725	0.156726779	0.586557334	0.154579499
0.841662973	0.113585883	0.10055124	0.135155529	0.625835713	0.600903626
0.865059471	0.854362371	0.107793692	0.15667033	0.154626119	0.593788161
0.013890227	0.014530476	0.014015099	0.696765844	0.697382336	0.696179187
0.065230611	0.87233604	0.875429265	0.652811594	0.165096434	0.168623736
0.877087787	0.470309388	0.411712589	0.170207996	0.589685964	0.551198388
0.10775713	0.865102869	0.855743485	0.593946762	0.157028378	0.154749924
0.843411078	0.137183705	0.860799157	0.148373895	0.56617546	0.154143189
0.864109896	0.85608982	0.116633206	0.155647205	0.155650649	0.590347854
0.87722411	0.437788738	0.443448198	0.170497512	0.591688153	0.562507164
0.045620274	0.048026592	0.054031012	0.655649511	0.656542335	0.655559425
0.062434642	0.062493015	0.06241186	0.638262537	0.638296883	0.638594516
0.876664647	0.877758352	0.878021584	0.170558315	0.17073492	0.170763741
0.079505027	0.082766215	0.868906354	0.679338833	0.666340641	0.162500679
0.438801552	0.438796852	0.877624536	0.626686808	0.596322644	0.170715055
0.401605869	0.877595524	0.480732639	0.548225892	0.170460674	0.589948655
0.45039397	0.426968719	0.87737709	0.626476421	0.593074004	0.170416439
0.41548001	0.877494805	0.462042151	0.5898332	0.170514043	0.626052919
0.865206585	0.85581281	0.111468399	0.156369719	0.155273673	0.592029353
0.872277317	0.874616991	0.065216982	0.165350204	0.168984119	0.652876073
0.153937202	0.859723833	0.846437825	0.560806683	0.152331265	0.151465909
0.862406039	0.845382746	0.13724104	0.154396116	0.148999812	0.566230915
0.099421291	0.841925487	0.10324495	0.602321817	0.134908308	0.627729956
0.077065206	0.867434366	0.865961108	0.623206142	0.159859106	0.16139253
0.070221715	0.064860568	0.08496879	0.670305148	0.670685265	0.67188892
0.868974112	0.08293085	0.075176285	0.162637383	0.673802953	0.66168077
0.402993953	0.877273986	0.485697529	0.564862904	0.170522945	0.607577155
0.071006915	0.064932096	0.085566743	0.669982025	0.670752284	0.67189383
0.124637229	0.103184615	0.841642635	0.624122809	0.598467801	0.135109309
0.131320281	0.826099676	0.148613249	0.575384791	0.118964459	0.603971919
0.130589229	0.825975678	0.149422708	0.575306624	0.118948778	0.603800865
0.087946319	0.866811301	0.866604374	0.61960256	0.159637651	0.161985226
0.059346111	0.064425024	0.063646924	0.652202308	0.651851787	0.651942068
0.877771536	0.484932178	0.393092021	0.170712584	0.62519485	0.582601098
0.861951622	0.844664081	0.137224219	0.154586356	0.148932629	0.566176149
0.848195502	0.847596678	0.846370039	0.256768044	0.257409416	0.256787051
0.87370704	0.873587037	0.874809546	0.189004809	0.18881374	0.189803014
0.877409444	0.473427243	0.41049962	0.170544868	0.609303614	0.569440236
0.881450086	0.00000495	0.00000479	0.175327753	0.699545012	0.699653283
0.866385915	0.087758179	0.866924628	0.16228095	0.619959017	0.159415963
0.00000486	0.882042242	0.00000483	0.699160295	0.175437707	0.699278243
0.140206464	0.134227022	0.825580993	0.605954526	0.577487651	0.118800625
0.825115229	0.823038139	0.825342214	0.29853589	0.298591776	0.298129211
0.045199454	0.871819737	0.873864795	0.659042574	0.165238937	0.168151698
0.881481511	0.027637813	0.02751428	0.175448395	0.694299548	0.694931107
0.872558262	0.874176197	0.055326655	0.165388739	0.168630731	0.654684603
0.877901855	0.437498491	0.444467647	0.170922807	0.59241603	0.562805548
0.875770362	0.882689826	0.040862026	0.170350683	0.174894434	0.693165813
0.864333459	0.854743044	0.107781466	0.156332224	0.15439217	0.5938997
0.859198153	0.846217756	0.153968368	0.152345332	0.151454971	0.560889361
0.863942238	0.856235324	0.116628174	0.155642155	0.155647596	0.590340811
0.476021103	0.413051241	0.877322766	0.610436932	0.570824389	0.170527973
0.872583555	0.874354126	0.872449269	0.188566888	0.189074715	0.188587036
0.881811583	0.041364723	0.041007997	0.17548305	0.692594912	0.692973819
0.448142217	0.435911887	0.877412643	0.57582637	0.542883903	0.170552157
0.86698239	0.104004346	0.866418554	0.162832616	0.615241596	0.159118105
0.076008633	0.870883154	0.875386269	0.650526047	0.164481456	0.168925237
0.100432144	0.842149063	0.113969294	0.601002697	0.135110298	0.625796648
0.054541061	0.055334387	0.054919138	0.690218146	0.690132837	0.690352327
0.425651652	0.877469673	0.459242724	0.539380039	0.170623607	0.575486686
0.103024896	0.078900434	0.855934923	0.643231278	0.623596251	0.149643098
0.062504191	0.062485466	0.062477788	0.638294776	0.638298272	0.638471873
0.091807387	0.074279017	0.855244894	0.645421524	0.625792184	0.148967709
0.060031598	0.060031676	0.059922814	0.639909769	0.640157407	0.64023408
0.877869396	0.87713019	0.877383584	0.171161809	0.170539008	0.170711643
0.883568203	0.01370795	0.875924388	0.175075087	0.697389102	0.170412746
0.882714621	0.013708119	0.874902479	0.1750402	0.697408882	0.170424204
0.877311121	0.437123735	0.444160542	0.170386509	0.591458684	0.56193489
0.426863304	0.877170616	0.450292369	0.59307404	0.170416591	0.626503036
0.868973401	0.083290438	0.075663615	0.162674351	0.674367696	0.661274815
0.877188527	0.462281737	0.420836269	0.170605468	0.609112066	0.572498418
0.285846875	0.29708161	0.825718227	0.612608874	0.582644046	0.118716082
0.860710307	0.845136121	0.141743908	0.153596561	0.149670644	0.564520875
0.459009781	0.421989079	0.877440543	0.59078499	0.555092339	0.17045651
0.055365147	0.872252785	0.874709751	0.654957942	0.164923944	0.169008257
0.113738719	0.100373932	0.841958111	0.625911543	0.600575238	0.13510959
0.880639168	0.054617742	0.054263532	0.175034824	0.689928653	0.690818319
0.484980888	0.39312092	0.877850788	0.625185252	0.582627142	0.170721131
0.147453203	0.859985793	0.845155563	0.562769367	0.152687081	0.150584526
0.087806774	0.079418395	0.868522334	0.672850962	0.662052267	0.162799248
0.877155395	0.462128935	0.421015645	0.170584684	0.608851326	0.572306094
0.87412014	0.872520947	0.873221155	0.189050972	0.18824655	0.188252173
0.041132928	0.040962489	0.880827311	0.692604339	0.693149868	0.174985149
0.859592792	0.845008159	0.147562418	0.152637154	0.150224957	0.562838738
0.14171857	0.860639651	0.845856223	0.564528893	0.153927288	0.150145366
0.480765232	0.401457717	0.877540849	0.590037244	0.548259246	0.170438612
0.23396486	0.221470278	0.825673276	0.607610401	0.581333707	0.119095728
0.877595241	0.438786571	0.438781952	0.170819469	0.626732239	0.596330185
0.875716783	0.88266418	0.040859976	0.170295477	0.17495044	0.693126346
0.083827046	0.868616702	0.085537127	0.661839104	0.16260585	0.676581394
0.054484216	0.055091488	0.054923711	0.690377767	0.69025099	0.690886168
0.459086971	0.425656963	0.877319431	0.575497275	0.539367114	0.170578946
0.856750655	0.130438388	0.863168692	0.156670655	0.586486942	0.1545162
0.884179316	0.013709242	0.876429137	0.175856252	0.697525119	0.170889527
0.874910875	0.055407426	0.871731939	0.168608932	0.65503561	0.164687054
0.426998376	0.877437033	0.450423764	0.593042498	0.170483099	0.626487896
0.425546824	0.877216288	0.459067256	0.539475119	0.170536207	0.575547867
0.422361085	0.878297588	0.45958182	0.555055174	0.170353222	0.590518917
0.877270991	0.448099356	0.435779356	0.170599832	0.575683245	0.542812157
0.876381058	0.884049843	0.054273999	0.170887517	0.175731168	0.690487378
0.099688637	0.841617561	0.092695108	0.604558445	0.134866558	0.62977245
0.14708879	0.133109218	0.82581639	0.601332341	0.571941211	0.119887213
0.874497118	0.047249853	0.870607868	0.168570053	0.656760627	0.164267921
0.841325296	0.102857	0.099039774	0.134987449	0.627722709	0.602776571
0.871397923	0.874947598	0.046349644	0.165043443	0.168492449	0.658056749
0.86902845	0.090047563	0.076575719	0.162674874	0.672101659	0.659830592
0.111438986	0.86416336	0.855640374	0.592129735	0.155837796	0.155067621
0.44778889	0.43251204	0.877158139	0.591121286	0.558101505	0.170473382
0.855471575	0.079621965	0.071988482	0.149039878	0.647928708	0.627851044
0.884846612	0.027329072	0.877014943	0.176323975	0.695291889	0.170703658
0.881423304	0.00000481	0.00000493	0.175438357	0.69889406	0.699211877
0.091735122	0.07417182	0.855277267	0.645312856	0.625829768	0.148702658
0.860985572	0.844795978	0.141755084	0.153920917	0.149852776	0.564530606
0.100285847	0.842159621	0.114095265	0.600983231	0.135103215	0.625748987
0.00000487	0.8813104	0.00000484	0.699151477	0.175252985	0.69891073
0.856363723	0.091244087	0.074239336	0.149427075	0.645788081	0.625481293
0.103189982	0.099233216	0.841627279	0.627701978	0.602540791	0.134990814
0.845729926	0.141759021	0.861095427	0.150220996	0.56457664	0.153980546
0.868883561	0.075873064	0.078711189	0.16252486	0.676598594	0.664457824
0.422173895	0.877681517	0.459110328	0.555366985	0.170522925	0.591155254
0.877393721	0.462262676	0.421256924	0.170666558	0.608634809	0.572220516
0.04536044	0.048975345	0.051528014	0.657269395	0.658331255	0.658985753
0.00000549	0.874547567	0.88263611	0.699311821	0.170320943	0.174833572
0.882306647	0.013703873	0.876144016	0.17551855	0.697211447	0.171044552
0.868872823	0.081317294	0.078195258	0.162613477	0.673339514	0.661698744
0.041609275	0.041105199	0.042226233	0.693212557	0.691946442	0.693019959
0.459058199	0.422125144	0.877614907	0.590856026	0.555016827	0.170567393
0.858639491	0.845384069	0.153943342	0.151576241	0.150757808	0.560998452
0.0770138	0.868050187	0.865584897	0.623001512	0.160444247	0.161452112
0.24281211	0.242834829	0.825898154	0.608917009	0.58316509	0.119087025
0.040243619	0.047277058	0.074994652	0.676466662	0.677371848	0.67733057
0.497008258	0.512421527	0.877472371	0.559547838	0.531390949	0.170609458
0.873627071	0.873647074	0.874834834	0.189030192	0.188802878	0.189772397
0.438743577	0.877517391	0.438748278	0.596502716	0.170613976	0.626445499
0.473552926	0.404179381	0.877619825	0.625903743	0.58613859	0.170727487
0.87168052	0.875417695	0.055330812	0.165145425	0.168756056	0.654858225
0.480869087	0.410202496	0.877545591	0.559261628	0.517666897	0.170464248
0.484866714	0.393016081	0.877630267	0.62525912	0.582602997	0.170789792
0.470041573	0.411746078	0.877695543	0.590649417	0.551447145	0.170612842
0.434803908	0.877443437	0.454933032	0.574328435	0.170574038	0.607775966
0.099237857	0.841896684	0.103063272	0.602345377	0.134894107	0.627684233
0.00000549	0.876140979	0.884153863	0.699349077	0.170576679	0.176045432
0.393179776	0.877949681	0.485022516	0.58263888	0.170819714	0.625176139
0.125631889	0.302442892	0.20915522	0.621948331	0.624106668	0.623582114
0.133743255	0.861878929	0.844329078	0.567776925	0.155435763	0.148403278
0.469736727	0.411570712	0.877226988	0.590576907	0.551721148	0.170398283
0.877641566	0.448781274	0.439784533	0.170568746	0.559770701	0.527766954
0.868756032	0.076634083	0.080436241	0.162578928	0.676028054	0.664339808
0.881564922	0.041098353	0.040894748	0.175452856	0.692795823	0.692916435
0.877385625	0.469842741	0.415538409	0.170594077	0.575604593	0.536332917
0.140334812	0.131901686	0.8257586	0.606043807	0.577397849	0.119363011
0.133804237	0.86144765	0.842874845	0.567705378	0.154696868	0.147817128
0.05936766	0.064169051	0.063364068	0.652173262	0.65156944	0.651849709
0.047160148	0.872120704	0.873645339	0.656879648	0.165243395	0.168279473
0.870499694	0.873514318	0.055338206	0.164517362	0.167612494	0.654786824
0.439666257	0.877571563	0.448822028	0.527486119	0.170756437	0.559986869
0.106114193	0.12359941	0.172475152	0.616285213	0.620639859	0.617187926
0.073392202	0.855283829	0.071821771	0.629119293	0.148853576	0.649155485
0.123095236	0.864301218	0.857052553	0.588489472	0.15575022	0.156850759
0.872593436	0.874946622	0.055339575	0.165626282	0.168718344	0.654794489
0.496724029	0.512161954	0.877528611	0.560603868	0.531681714	0.17063385
0.841670451	0.113729504	0.100217762	0.135086298	0.625637584	0.600472245
0.43705491	0.446292979	0.877278573	0.575694664	0.545984277	0.17057891
0.863666138	0.862941902	0.863891298	0.219519118	0.219200258	0.219604341
0.040857502	0.87705543	0.883654217	0.69309326	0.170560301	0.175743308
0.87819444	0.485151747	0.393293708	0.170736281	0.625223306	0.58264691
0.027832645	0.027700565	0.028382304	0.695462412	0.695188609	0.695000238
0.825517149	0.265318743	0.277689956	0.118498292	0.611677699	0.586023773
0.074903506	0.074947535	0.075220824	0.63427195	0.634449313	0.634434751
0.877396956	0.483773023	0.400089482	0.170565185	0.60853981	0.565859094
0.00000277	0.00000288	0.00000285	0.699294947	0.699301152	0.69949819
0.877266339	0.44869246	0.439474698	0.170507974	0.559758895	0.527727855
0.427287585	0.87801318	0.450710999	0.59310822	0.170824528	0.62647405
0.411486987	0.877252921	0.469843422	0.551641678	0.170214895	0.590539642
0.077000258	0.868043167	0.864956066	0.623027251	0.160150953	0.161094552
0.439036642	0.878104161	0.439041366	0.596308977	0.171215384	0.626726225
0.113673362	0.100486791	0.842092732	0.626067485	0.600569767	0.135026893
0.862112157	0.863434418	0.862450205	0.218493535	0.219326735	0.218953981
0.877181879	0.447875019	0.432822487	0.17023477	0.590939759	0.558566702
0.028592142	0.028125218	0.881016739	0.695007102	0.695827034	0.175153056
0.876289515	0.882866488	0.040844926	0.170989522	0.175377002	0.692853525
0.877422971	0.46991459	0.415469394	0.170593128	0.575614693	0.536337384
0.083464735	0.299238294	0.277336469	0.620067238	0.61888982	0.618284666
0.439666257	0.877571563	0.448822028	0.527486119	0.170756437	0.559986869
0.880455467	0.054598181	0.054270254	0.175363591	0.689883706	0.690676393
0.863499104	0.863657474	0.863353166	0.219080143	0.219518121	0.218980176
0.066724759	0.079434789	0.85563728	0.653469599	0.633471488	0.148822782
0.866822961	0.866867726	0.095314142	0.15927793	0.162462087	0.617351123
0.060002312	0.060032992	0.059992721	0.639859316	0.640205798	0.639780048
0.883389608	0.040848318	0.876482974	0.175056896	0.692867388	0.170986497
0.06245262	0.062490216	0.062418055	0.638268243	0.638275444	0.638598939
0.841874063	0.103001196	0.099057278	0.13502002	0.627748923	0.602578268
0.88346072	0.040855573	0.87538608	0.175305668	0.693002261	0.169962683
0.091450346	0.074253915	0.855601455	0.645300555	0.625765436	0.149153134
0.458961156	0.425685155	0.877309748	0.575484345	0.539359159	0.170593867
0.450293294	0.426867906	0.877175813	0.626414993	0.593132807	0.170409885
0.866341882	0.08776811	0.866822495	0.16227959	0.619911266	0.159423122
0.102923863	0.078843058	0.855348766	0.643635478	0.623691834	0.149262865
0.864868279	0.863431878	0.864156522	0.219591447	0.219183055	0.219560689
0.883306695	0.013706646	0.875782375	0.175144317	0.697333238	0.170516575
0.877135973	0.48461957	0.392768182	0.170782324	0.6252289	0.582641034
0.141790112	0.860402899	0.844418336	0.564483849	0.15325355	0.149276008
0.079309507	0.868728659	0.088291419	0.663145215	0.162685635	0.674650114
0.00000279	0.00000296	0.00000284	0.699319917	0.698918356	0.698498198
0.077099843	0.867581083	0.864621055	0.623211723	0.160068207	0.161122636
0.877121515	0.44864508	0.43939139	0.170673565	0.55996905	0.52757083
0.877874372	0.462233456	0.41566802	0.170713041	0.626336126	0.589659745
0.113857117	0.100108235	0.84208439	0.625853282	0.600720371	0.13510525
0.877355881	0.473569536	0.410191214	0.170543583	0.609096205	0.569257583
0.876929181	0.461760166	0.415196027	0.170733326	0.626313724	0.589639118
0.860747304	0.843902147	0.14177531	0.153825212	0.149809397	0.56449991
0.856234958	0.116766795	0.8631549	0.155513278	0.590293257	0.155420349
0.446235885	0.877346984	0.444394603	0.576456388	0.170558824	0.606937273
0.060017616	0.060022723	0.0599957	0.639701523	0.640323348	0.639781065
0.40260318	0.877384496	0.485880002	0.564912821	0.170491771	0.607585666
0.14549897	0.132102966	0.825166936	0.60208472	0.572988396	0.119431559
0.127205573	0.303934885	0.208702721	0.62131617	0.624502527	0.624731837
0.874426361	0.87331764	0.875320187	0.188953988	0.188239144	0.188310673
0.111414528	0.864089917	0.855807194	0.592068663	0.156328635	0.155238487
0.877326554	0.437126087	0.444128603	0.170400766	0.591491891	0.56194585
0.427012139	0.877463646	0.450436656	0.593042389	0.170486608	0.626488824
0.868841337	0.097618499	0.080859514	0.162787443	0.666328843	0.654015677
0.00000279	0.000003	0.00000286	0.699131999	0.699199344	0.698526608
0.415650866	0.877397221	0.469869017	0.536200541	0.170535714	0.575456414
0.027600594	0.027535634	0.027945534	0.695063324	0.695628068	0.695355304
0.841624406	0.083375007	0.102203138	0.134852609	0.631127059	0.606268949
0.423726988	0.877358199	0.465294601	0.572778767	0.170572843	0.609538691
0.047137029	0.871273189	0.873922922	0.656966905	0.164386977	0.168069722
0.88223832	0.0000055	0.874233603	0.174574905	0.69939569	0.170148189
0.860526115	0.845929453	0.147428587	0.153218867	0.150883403	0.56253072
0.865635375	0.081503366	0.867167274	0.161505605	0.621401107	0.159322976
0.473316393	0.403951462	0.877155524	0.62571724	0.586013464	0.170424349
0.874480092	0.076024962	0.871382182	0.168514902	0.650469515	0.164566316
0.881006006	0.054531398	0.054157067	0.174939326	0.690126749	0.690451386
0.882268912	0.027865765	0.027740671	0.175415525	0.695063235	0.695099279
0.279011717	0.289897804	0.825998925	0.611851382	0.583608696	0.118603758
0.079748586	0.071473283	0.855043035	0.647506328	0.627701793	0.149371496
0.432803349	0.877820832	0.448203137	0.558310661	0.17056725	0.591153469
0.070196521	0.065619327	0.085900621	0.670338081	0.670937339	0.672372248
0.8673711	0.865911247	0.077470413	0.160128753	0.161829929	0.622828136
0.877273362	0.459103511	0.422032996	0.170348733	0.590758463	0.554956427
0.876705825	0.884557673	0.054273853	0.170965633	0.17561476	0.690508536
0.08426954	0.868602469	0.085785679	0.662262731	0.162580853	0.676873462
0.876359189	0.88332839	0.013707073	0.170391436	0.175317536	0.697336487
0.863768289	0.855979703	0.116642453	0.155437322	0.155457825	0.59038775
0.855805201	0.066591074	0.078744985	0.148770788	0.652165924	0.631707283
0.874281019	0.047232174	0.870382315	0.168203753	0.65702928	0.164645804
0.055356033	0.872882947	0.874057474	0.654760977	0.165430164	0.168859478
0.00000485	0.00000481	0.881971051	0.699239998	0.699431391	0.175360833
0.085799704	0.869117621	0.082348637	0.664907559	0.162360621	0.677163853
0.448124037	0.435903237	0.877366214	0.575562708	0.54261084	0.170575841
0.040864022	0.875110014	0.883176863	0.693187839	0.169754753	0.175134549
0.865262839	0.077189417	0.867988535	0.161662489	0.622987555	0.160291631
0.14181499	0.860933166	0.844150929	0.564598437	0.15429041	0.150132754
0.877346448	0.459021793	0.425587135	0.170598279	0.575689229	0.539652781
0.088060656	0.867490713	0.865941412	0.619243856	0.159743925	0.161939652
0.876823995	0.884253654	0.013707146	0.170866281	0.176141592	0.697382699
0.142734101	0.825833002	0.146367764	0.575723769	0.118887717	0.602543485
0.473569294	0.404185455	0.877643416	0.625802248	0.586132818	0.170671452
0.868730994	0.080576273	0.077629204	0.162568435	0.674668258	0.66279882
0.847177859	0.147469562	0.859956596	0.150316	0.562781652	0.152475994
0.107653938	0.864679863	0.85444196	0.593702042	0.156733565	0.154439437
0.137265461	0.861988289	0.844770701	0.566070654	0.154687553	0.149140573
0.103119949	0.099139966	0.841620897	0.627704693	0.602527087	0.134997108
0.298813284	0.825704817	0.29323133	0.584863324	0.118895247	0.614652967
0.099277351	0.841709676	0.103161223	0.602404538	0.134925179	0.62765535
0.877292021	0.440342612	0.44404636	0.170516298	0.608050377	0.57772377
0.877229181	0.877745366	0.876705556	0.170286038	0.170758273	0.170289466
0.450480276	0.427056874	0.877551608	0.626495749	0.593057938	0.170666348
0.47355398	0.404180651	0.877622126	0.625913588	0.586133764	0.170778108
0.842846525	0.133820302	0.8615252	0.147384575	0.567693571	0.154402199
0.079780493	0.869029944	0.092684894	0.65838518	0.162579527	0.670069762
0.871899179	0.875515257	0.047464518	0.165313273	0.169214133	0.657099268
0.855124889	0.111452664	0.863842107	0.154683388	0.592176629	0.155735148
0.877853028	0.437416094	0.444566605	0.170670441	0.59125163	0.561599112
0.123107138	0.863559588	0.856798998	0.588389753	0.155360149	0.156514463
0.065216148	0.870968292	0.873618155	0.652842859	0.164660869	0.16842011
0.462421588	0.415855057	0.87824942	0.626079744	0.589875142	0.170623277
0.00000277	0.00000292	0.00000286	0.699409836	0.698811447	0.698861751
0.08181571	0.867660938	0.865619356	0.621274418	0.160052947	0.161618379
0.876964141	0.884483215	0.013708098	0.170902103	0.175904061	0.697414262
0.068714348	0.071344271	0.855601506	0.649902788	0.629379418	0.149211471
0.432570566	0.877604412	0.448231254	0.558396989	0.170460439	0.591014204
0.846167722	0.84681047	0.846166293	0.256297733	0.257307885	0.256589969
0.876898599	0.883930931	0.054283382	0.171350159	0.175824123	0.690640706
0.877361093	0.459053112	0.425551244	0.17057864	0.575639856	0.539627075
0.876946939	0.473224951	0.403833248	0.170551058	0.625974671	0.586055208
0.447820812	0.432529056	0.877209386	0.590783068	0.558449479	0.17022722
0.438773117	0.877577362	0.438777828	0.596447347	0.170665426	0.626584114
0.059269301	0.03864907	0.077955119	0.679801521	0.679095467	0.680122536
0.877302574	0.462453125	0.421022957	0.170578524	0.60861299	0.572162683
0.277708686	0.281065095	0.826081809	0.610876141	0.58316786	0.119069785
0.864440848	0.856431784	0.116644839	0.155793202	0.15568219	0.590393502
0.079588412	0.082694115	0.868941191	0.679007971	0.666108581	0.162490591
0.87743781	0.450423951	0.426999421	0.170490039	0.626367099	0.593212744
0.841355699	0.102907396	0.098998185	0.134986271	0.62775175	0.602779006
0.054687971	0.055111248	0.05473817	0.690296031	0.690303864	0.690046891
0.877163726	0.438571442	0.438566717	0.170341136	0.626413178	0.596501688
0.487017414	0.401464108	0.877438329	0.607419581	0.564314976	0.170529736
0.00000549	0.874764217	0.882838195	0.69932689	0.170315894	0.17499788
0.081961362	0.272884258	0.257028539	0.620217286	0.623218471	0.624523769
0.071203873	0.064921565	0.085648394	0.67026184	0.670643577	0.671877932
0.473389441	0.403999628	0.877277514	0.626002016	0.586102716	0.170468173
0.855744135	0.079503655	0.071799921	0.149107532	0.648030707	0.627327863
0.487051934	0.401399545	0.877438337	0.607419222	0.56431527	0.170529301
0.872116804	0.874466562	0.047204634	0.165033212	0.168146622	0.656995621
0.878148768	0.485130975	0.39326935	0.170717935	0.625260109	0.582661311
0.877577219	0.472036787	0.479060599	0.170692884	0.561264409	0.532266268
0.052001466	0.053668938	0.058530919	0.654358439	0.65429406	0.654419007
0.437101993	0.446329064	0.877363139	0.575754376	0.546046133	0.17059855
0.149535467	0.134893898	0.825529527	0.60395417	0.574548038	0.119321353
0.874345103	0.873272569	0.87504956	0.18893002	0.188267163	0.18833719
0.099675155	0.841806637	0.09265072	0.604443085	0.134889853	0.629764342
0.422066852	0.877926409	0.459546852	0.554712247	0.170673527	0.590805734
0.101577425	0.124341149	0.167010613	0.616636288	0.619477154	0.617332613
0.822863332	0.823484977	0.822598962	0.29804929	0.298758862	0.298888788
0.148501194	0.143072139	0.095736639	0.618813514	0.616529779	0.615343645
0.872842569	0.875592043	0.055341766	0.165624243	0.168730722	0.654762419
0.08274093	0.255973169	0.237224054	0.620052146	0.624410019	0.625162823
0.401705739	0.877905665	0.480928485	0.548397111	0.17067746	0.590036216
0.459071137	0.42566193	0.877300466	0.575462559	0.539350997	0.170580537
0.067728536	0.067606697	0.067873441	0.636446233	0.636483959	0.636751961
0.444602088	0.8773687	0.438544252	0.561812248	0.170408303	0.591285555
0.067024593	0.079852017	0.855107053	0.652517248	0.632036736	0.148663369
0.077681594	0.080980607	0.86896632	0.678254919	0.666147257	0.162531923
0.826601195	0.263066958	0.284334552	0.11873324	0.611526435	0.584125909
0.87733328	0.458970595	0.425611487	0.170586551	0.575637327	0.539618603
0.871242088	0.874211676	0.065178181	0.164786586	0.168584024	0.652780339
0.092226368	0.079393615	0.869018511	0.667800087	0.657134033	0.162632602
0.826079051	0.22078363	0.227046366	0.118750997	0.608922949	0.580810977
0.078665712	0.86901094	0.088058336	0.660222046	0.162604599	0.670626411
0.881423304	0.00000481	0.00000493	0.175438357	0.69889406	0.699211877
0.080651837	0.08400555	0.868953458	0.679559428	0.666527222	0.162496074
0.223680146	0.219593834	0.825279511	0.607370409	0.582960193	0.118859702
0.028165309	0.027601544	0.881439994	0.694963583	0.694907888	0.174977587
0.876990478	0.473246144	0.403855496	0.170691062	0.625806951	0.586199259
0.073118993	0.854270641	0.071431564	0.629512034	0.148850866	0.649752849
0.027322003	0.876441824	0.882951258	0.695104294	0.170729657	0.175295274
0.877427335	0.469874583	0.415520001	0.170589776	0.57562346	0.536328965
0.424007514	0.877450062	0.465593595	0.573119975	0.170555163	0.609852032
0.415451691	0.877440846	0.462016233	0.589795055	0.170520804	0.626071082
0.873754983	0.876495935	0.055330974	0.16535012	0.168869775	0.654916932
0.11374913	0.100226037	0.841987484	0.625935197	0.600563706	0.135123075
0.054286566	0.881247476	0.054610395	0.69094547	0.175468145	0.689952858
0.826197377	0.82304116	0.824887783	0.298436819	0.298518271	0.297571866
0.041468818	0.881718742	0.041643443	0.692839365	0.175337039	0.692795147
0.073728919	0.854898859	0.082007447	0.627745727	0.149422302	0.647475128
0.864172609	0.854730189	0.107708245	0.156251313	0.154274405	0.593744868
0.866592251	0.095484152	0.867248167	0.162299327	0.61716625	0.159384814
0.147411072	0.860575795	0.845859954	0.562770286	0.153096338	0.150836261
0.40565085	0.87731167	0.480740316	0.532777411	0.170540593	0.575112696
0.42708099	0.877599344	0.450503547	0.593003065	0.170673071	0.626438273
0.410346363	0.878060382	0.481219753	0.517538511	0.170570819	0.559355692
0.09968635	0.081134446	0.868911633	0.667576672	0.657154454	0.162574362
0.124563722	0.10327891	0.841969905	0.623824284	0.598631504	0.135239632
0.487210759	0.401121796	0.877462937	0.607563595	0.564572066	0.17049502
0.075995694	0.871120868	0.874119912	0.650504832	0.164467299	0.168730133
0.877398766	0.480828729	0.410096221	0.170443904	0.55932488	0.51758854
0.86705792	0.104050651	0.866412203	0.162735938	0.615246368	0.159013627
0.148695829	0.133175909	0.825603294	0.603872571	0.574983153	0.119468347
0.202685512	0.826037696	0.209936525	0.578676899	0.119043671	0.60669059
0.111441953	0.864184526	0.856028124	0.592081006	0.155872334	0.155101162
0.855168404	0.064231003	0.077951916	0.148822414	0.653232378	0.632697014
0.06252243	0.062485589	0.062433592	0.638357301	0.638410224	0.638539548
0.866501388	0.865692617	0.104043474	0.1592818	0.162485413	0.615209386
0.864734848	0.863558855	0.863943274	0.219086657	0.219491466	0.219029269
0.062496448	0.062480889	0.062420622	0.638304979	0.638315827	0.638486099
0.868357705	0.865834913	0.077172214	0.160171226	0.161583331	0.62312358
0.877523195	0.470287688	0.419744945	0.170832164	0.559728794	0.52102567
0.086832869	0.869345865	0.083208648	0.665446595	0.162470245	0.67755501
0.044468141	0.049966013	0.051488799	0.658611788	0.659638178	0.658660309
0.845048346	0.137204857	0.861571473	0.148717604	0.566251849	0.154081494
0.083324746	0.102164233	0.841306193	0.630786165	0.605935353	0.13484544
0.480564489	0.405894592	0.877268213	0.57431562	0.531912618	0.170491084
0.027426325	0.881508202	0.027578471	0.695011953	0.175028482	0.694838345
0.111385733	0.865549192	0.855979703	0.592264264	0.156313048	0.155550205
0.855632567	0.07950463	0.071895886	0.149088902	0.647844998	0.627400275
0.11377104	0.100322947	0.841849895	0.626241902	0.600887457	0.135025026
0.099901294	0.081376577	0.869210016	0.669231359	0.657463557	0.16274274
0.841928849	0.11374107	0.100374612	0.135151922	0.62620478	0.600873739
0.099719414	0.841779137	0.092661532	0.604301874	0.134870663	0.629775093
0.87744874	0.473491758	0.410125428	0.170616322	0.609295883	0.56948771
0.013837301	0.014210781	0.013933994	0.696993721	0.697432567	0.697563114
0.074792616	0.074961673	0.075082104	0.634082692	0.634328514	0.634597272
0.342715653	0.825196009	0.330124379	0.587287889	0.11849501	0.614919793
0.409887257	0.877021198	0.480658399	0.517507457	0.170440844	0.559484199
0.877479356	0.45089672	0.432170083	0.170543285	0.609441399	0.576111337
0.074718289	0.855894694	0.09142064	0.62564313	0.149869297	0.64569887
0.86303328	0.856713783	0.130380745	0.15508897	0.156900316	0.586508738
0.860814107	0.84526945	0.141741546	0.153598398	0.149662165	0.564500099
0.86041426	0.84495729	0.147460881	0.153152196	0.150768978	0.562539211
0.877099378	0.470603487	0.411489968	0.170422375	0.59054086	0.551496266
0.462036143	0.415475931	0.877485053	0.626267723	0.589602394	0.17068557
0.163844692	0.154055351	0.095048375	0.617525258	0.616361891	0.615976596
0.877341152	0.448067501	0.435841827	0.170626708	0.575762113	0.542869746
0.107709439	0.865417834	0.85503462	0.593939217	0.156879396	0.154460285
0.87726012	0.459095002	0.422020953	0.170349848	0.5907388	0.554946802
0.877388339	0.437232408	0.444125947	0.170309097	0.591531797	0.562100932
0.872087045	0.874081377	0.047766431	0.165116715	0.168145008	0.658665088
0.876800116	0.884252694	0.013707148	0.170866075	0.176142576	0.69738256
0.349016495	0.825441365	0.34270132	0.584459096	0.118473288	0.61306464
0.841642344	0.113791293	0.100229408	0.135057296	0.625802406	0.600457468
0.442860755	0.448134382	0.877336314	0.60692856	0.576666384	0.170609594
0.079676437	0.869038858	0.088789541	0.664326427	0.162635526	0.674100252
0.051802222	0.054021289	0.058641628	0.654153478	0.654421592	0.653717111
0.103024896	0.078900434	0.855934923	0.643231278	0.623596251	0.149643098
0.875873426	0.065228075	0.871353999	0.168698587	0.652824519	0.16433269
0.480714677	0.401409295	0.877443176	0.590285614	0.547941826	0.17046456
0.435949942	0.877419503	0.44813016	0.54269086	0.170624365	0.575603188
0.877489684	0.484806583	0.392934304	0.17072312	0.625343571	0.582672888
0.882249835	0.054364437	0.054274247	0.175354659	0.68984415	0.690263557
0.143091341	0.826099322	0.148969255	0.576203073	0.119266677	0.605659118
0.013703461	0.876180203	0.882891992	0.697146883	0.17068961	0.175545249
0.864132206	0.85565733	0.123148372	0.155880892	0.156669539	0.588420435
0.4462463	0.877347049	0.444389137	0.576456653	0.170558743	0.606936991
0.875847922	0.883301201	0.013707429	0.170372692	0.175470868	0.697359005
0.047136212	0.871204661	0.87394138	0.656922314	0.164495048	0.16802672
0.062507165	0.062486345	0.062416737	0.638197085	0.638267408	0.638545288
0.091644695	0.074295266	0.856376659	0.645383936	0.625838958	0.149833895
0.876868051	0.481171691	0.473772004	0.170730627	0.560070756	0.531426622
0.054612839	0.055150866	0.054636053	0.690247036	0.690165484	0.690215874
0.054303913	0.881270054	0.054637678	0.6910545	0.175449825	0.690023877
0.846255084	0.845683042	0.847825077	0.257094411	0.256786599	0.257560039
0.846889991	0.153922436	0.859186476	0.151482996	0.560953894	0.152108199
0.438880169	0.438875449	0.877781841	0.62668639	0.596328538	0.170648433
0.872716254	0.873917507	0.055336215	0.164757636	0.167993101	0.654717536
0.429683384	0.877802727	0.459759528	0.524446914	0.170547801	0.559705816
0.469833913	0.411498696	0.877250498	0.590568541	0.551701043	0.170397166
0.470051321	0.411753373	0.877695707	0.590665225	0.551452809	0.170699376
0.091747891	0.074399516	0.855096346	0.645367803	0.625631734	0.148734935
0.027810395	0.027598094	0.028084034	0.695257309	0.695604554	0.695396096
0.074335553	0.855358702	0.091326007	0.625750982	0.149101401	0.645522134
0.435247177	0.877277193	0.454827814	0.574044775	0.170550025	0.607764419
0.87402388	0.872478528	0.872697191	0.188690266	0.188678352	0.187854137
0.052098397	0.053409262	0.058512913	0.653805967	0.654226112	0.653507469
0.06521404	0.871535817	0.873902931	0.652808903	0.164647422	0.168229132
0.445269834	0.877372509	0.438023555	0.562846762	0.170466101	0.592564465
0.074863704	0.074973123	0.075211266	0.634254018	0.634437169	0.634435485
0.077093338	0.867427742	0.865806256	0.623105425	0.160278463	0.1617383
0.863047434	0.843994182	0.133699354	0.155126877	0.147919673	0.56788728
0.862318675	0.845281934	0.137229398	0.154660247	0.148961164	0.566156064
0.065202739	0.871679346	0.875282498	0.652839533	0.164459477	0.168667172
0.841736239	0.103031317	0.099040188	0.134993763	0.627681585	0.602614766
0.040860975	0.875794039	0.883338013	0.693157986	0.1704449	0.175610701
0.425643721	0.877341111	0.459104633	0.539484847	0.170479248	0.575604318
0.82620317	0.147040409	0.133086257	0.11917375	0.604834992	0.575487846
0.877323434	0.459462487	0.429499465	0.170397044	0.559798346	0.524421292
0.415579962	0.877392281	0.469952061	0.536200438	0.170544005	0.575461842
0.470040849	0.41174395	0.877692999	0.590649648	0.551446284	0.170613889
0.27081101	0.283543305	0.825619504	0.613701973	0.583332162	0.118676745
0.041229068	0.881870159	0.041556696	0.692947642	0.175193521	0.692874196
0.13040471	0.862835561	0.857488064	0.586319274	0.155111836	0.15741002
0.08252439	0.257305742	0.23905126	0.620366946	0.627253969	0.624945782
0.103959286	0.867217044	0.866853874	0.615834722	0.159200591	0.162853303
0.068844714	0.071291609	0.855560916	0.650102225	0.62938871	0.149047111
0.874400585	0.049394625	0.87201399	0.168435181	0.659291426	0.165229793
0.091822932	0.074390115	0.854840887	0.645310632	0.625722908	0.149489142
0.87751656	0.44810879	0.43288005	0.17053714	0.590754214	0.557804568
0.877361819	0.473586054	0.410176375	0.170543165	0.609097064	0.569259481
0.841931644	0.092697787	0.09968507	0.134786766	0.629646198	0.604392957
0.11389453	0.100055234	0.84182935	0.625864025	0.600548898	0.135030118
0.841694618	0.113578439	0.100653097	0.135177824	0.625917904	0.600921144
0.014131441	0.881441699	0.014307726	0.697309307	0.17541341	0.69703812
0.041736561	0.041051293	0.042008725	0.69293185	0.692973629	0.693718104
0.877669555	0.473581136	0.40419991	0.170571899	0.625888135	0.586064337
0.09933512	0.841708934	0.103235037	0.602394676	0.134925415	0.62765283
0.871532282	0.875365138	0.065180376	0.164613213	0.168925286	0.652696201
0.876436836	0.883419663	0.040860665	0.170774537	0.17588949	0.693143132
0.137255221	0.861296609	0.844783021	0.566364162	0.154333328	0.149206074
0.081078935	0.855505942	0.066697933	0.630759335	0.14885549	0.6521955
0.054605406	0.054185815	0.88200695	0.689972789	0.6905921	0.175722025
0.055375768	0.87181124	0.87437856	0.654914476	0.164666786	0.168458294
0.103086086	0.099087657	0.841644797	0.627742798	0.602599766	0.134987782
0.074875171	0.074981835	0.075406884	0.634396297	0.634318848	0.634463582
0.123130913	0.863241462	0.856275188	0.588618056	0.155220601	0.156316608
0.014283775	0.881455342	0.014162363	0.697275279	0.175443874	0.697059087
0.083873544	0.080737334	0.868992798	0.675592157	0.662935845	0.162518524
0.027928523	0.027632485	0.028138179	0.695046107	0.695111948	0.695674687
0.881960276	0.00000479	0.0000049	0.17548454	0.699319929	0.699140195
0.141733964	0.860287319	0.846018992	0.564532347	0.153773647	0.149966301
0.067559913	0.067720655	0.067782507	0.636441117	0.636642633	0.636776646
0.881510537	0.041159047	0.040854136	0.175365173	0.692898722	0.692803172
0.419626817	0.877412682	0.470289295	0.521039614	0.170634937	0.559661418
0.877687145	0.480929385	0.401814102	0.170804528	0.590286742	0.547959623
0.465813138	0.42423488	0.877406176	0.608799771	0.572137433	0.170569489
0.123102026	0.86392764	0.855884304	0.588555685	0.155859224	0.15679222
0.230742658	0.229973714	0.825455032	0.605857195	0.58169209	0.118987261
0.874390065	0.049432983	0.871795028	0.16846096	0.659289392	0.165242754
0.855784235	0.123099486	0.863457031	0.155831818	0.588346339	0.155035538
0.883176017	0.054272424	0.875904648	0.174935269	0.690505879	0.170618524
0.497008589	0.512421775	0.877472373	0.559547712	0.53139094	0.170609443
0.424010606	0.877440279	0.465440745	0.57301194	0.170560031	0.609771616
0.485055715	0.39319804	0.878002214	0.625289656	0.582553188	0.170576915
0.877232485	0.462318368	0.421019048	0.170547809	0.608646342	0.572184321
0.877487502	0.480607264	0.405736632	0.170593206	0.57539154	0.532969854
0.081596176	0.867711206	0.865726297	0.621379428	0.15989305	0.161450618
0.877346828	0.484734082	0.39286337	0.170587638	0.625305812	0.582581944
0.866845895	0.104006937	0.866650372	0.162603525	0.61515175	0.159114549
0.040854973	0.873932878	0.881135184	0.693055721	0.170013527	0.175080114
0.06521653	0.870806392	0.873621827	0.652870041	0.164660537	0.168294871
0.041979304	0.04105156	0.042523427	0.692794674	0.691726061	0.692370612
