Vam	Vbm	Vcm	Iam	Ibm	Icm
0.422230585	0.877418808	0.459138597	0.555200806	0.170393714	0.590991598
0.08060664	0.199854634	0.202822433	0.620381109	0.62229754	0.625621447
0.405759365	0.877336666	0.480592347	0.532994582	0.170489989	0.57536567
0.884058221	0.013705415	0.875541144	0.175678395	0.697278318	0.170736442
0.048197582	0.045185236	0.052688803	0.656254038	0.656125991	0.656061122
0.877363832	0.451010083	0.432568114	0.17053939	0.608991217	0.575718793
0.095464884	0.866893501	0.866266584	0.617402686	0.159277295	0.162455786
0.435554514	0.877341393	0.454043953	0.57677956	0.170537993	0.61019413
0.881732653	0.05467133	0.054226648	0.17547136	0.69037813	0.690842291
0.873017348	0.881317361	0.01370757	0.170189717	0.175016914	0.697359544
0.869070666	0.098580765	0.081492184	0.162717001	0.667730142	0.656146793
0.048000935	0.045671592	0.053016396	0.656266018	0.656183338	0.656055735
0.877380717	0.469953052	0.415443189	0.170565054	0.575480509	0.536175933
0.0993022	0.840927522	0.102959414	0.602515987	0.135035362	0.627600133
0.86018251	0.846989273	0.153986369	0.152556263	0.151654412	0.560921099
0.054862496	0.054484046	0.054859264	0.6897423	0.690274055	0.690122422
0.877405364	0.469898085	0.415507845	0.170557132	0.575444627	0.536151138
0.480583025	0.40118851	0.877102854	0.589960292	0.548235172	0.170003435
0.106080118	0.082112944	0.855208245	0.642203468	0.623625182	0.149084008
0.878536701	0.449314028	0.440135413	0.170696298	0.559883416	0.527596628
0.137177886	0.861058715	0.845246245	0.566311503	0.153771895	0.148598383
0.445968749	0.449116336	0.877354641	0.608489675	0.578286747	0.170592265
0.135718816	0.126613629	0.826708163	0.604169571	0.5756673	0.119189323
0.429573624	0.877456423	0.45953009	0.524224328	0.170577807	0.559938944
0.844784553	0.147403795	0.860512688	0.150917972	0.562780726	0.153371109
0.446374472	0.87740144	0.43709312	0.546092933	0.17057646	0.575766133
0.877426348	0.484755588	0.392923737	0.170414549	0.625246879	0.582442958
0.881762047	0.041089198	0.040794782	0.175405528	0.692039572	0.692456397
0.425442291	0.877494543	0.464541181	0.573339685	0.170576515	0.609806324
0.874486659	0.055307193	0.871983578	0.16847182	0.6547304	0.164881004
0.041010487	0.041242927	0.041105889	0.692722653	0.693122249	0.692579616
0.47453365	0.415061611	0.877385203	0.608743487	0.569179203	0.170553403
0.877315718	0.451558616	0.431499569	0.170563786	0.609863838	0.576464854
0.06928067	0.079567401	0.855570076	0.652073979	0.632507076	0.148993848
0.014398692	0.881152496	0.014322875	0.697126428	0.17515421	0.697424944
0.013763373	0.014315504	0.014200661	0.697231621	0.697553827	0.697245526
0.437068454	0.446320707	0.877321001	0.575746175	0.546058486	0.170603139
0.079310765	0.869269775	0.0822723	0.662824497	0.162537109	0.674849387
0.108033589	0.865146388	0.854835634	0.59366605	0.156913259	0.154777531
0.867309287	0.104207259	0.867151415	0.162847808	0.615204942	0.159144272
0.875597786	0.883108845	5.49528E-06	0.170426244	0.175362071	0.699309545
0.091420104	0.074553878	0.855697874	0.645731676	0.625715773	0.149478833
0.874684231	0.065211591	0.871703139	0.168651449	0.652912215	0.164474541
0.877895915	0.459789199	0.429740755	0.170595683	0.559814776	0.52431983
0.027055444	0.07565118	0.075414549	0.679070986	0.679886606	0.679478848
0.107902457	0.864602377	0.854648776	0.593640917	0.156521756	0.154649419
0.054715708	0.051191242	0.056890537	0.654050023	0.654320866	0.654389821
0.84595879	0.153907045	0.858912784	0.150546926	0.560892946	0.151431544
0.865145302	0.077079903	0.867790442	0.161179804	0.62319187	0.160041989
0.047144194	0.871147823	0.875844237	0.65678558	0.164124789	0.168440587
0.469745102	0.411472554	0.877121223	0.590593145	0.551543675	0.170814281
0.873145261	0.055332304	0.869394356	0.16826415	0.654868034	0.164285513
0.874163999	0.055322325	0.871584907	0.167842932	0.654815513	0.164353845
0.875930608	0.065210385	0.873106764	0.168868233	0.652750837	0.164846335
0.873514819	0.873638696	0.873858531	0.188687822	0.188617268	0.188495173
0.883642153	0.013707528	0.876460291	0.175585708	0.697359399	0.171535166
0.871966878	0.876022181	0.075925225	0.165076367	0.169256877	0.650375818
0.862278935	0.842900837	0.13710174	0.154576284	0.149054457	0.566216099
0.877409736	0.484748084	0.392914435	0.170410821	0.625246615	0.582442724
0.448050676	0.877334415	0.445150342	0.578772728	0.170596732	0.608897317
0.876112863	0.884054805	0.054274585	0.170755709	0.17590924	0.690505646
0.067677554	0.067638413	0.067868248	0.63653677	0.63644555	0.636884415
0.874493371	0.065156366	0.87267348	0.168720502	0.652675526	0.164791498
0.877812244	0.876767972	0.877465854	0.170815922	0.170580859	0.170597299
0.877131406	0.448507024	0.439550774	0.170570572	0.559851018	0.527597939
0.866009815	0.087615852	0.86700707	0.161655721	0.619757629	0.159452873
0.081726203	0.855232385	0.066149675	0.631246198	0.149300555	0.653185349
0.063489165	0.059765327	0.065286966	0.652009466	0.652029253	0.651959044
0.054286631	0.875917703	0.883064772	0.690732891	0.17094248	0.175171473
0.869037403	0.082555934	0.073569007	0.162646946	0.672574864	0.660454705
0.877460786	0.877191765	0.877469609	0.17061204	0.170368884	0.170610698
0.079032666	0.855872774	0.102948854	0.623561125	0.149831875	0.643323093
0.027324157	0.875800042	0.883565235	0.695164727	0.170561752	0.175434847
0.872664625	0.875373784	0.075963553	0.165295373	0.168612776	0.650598911
0.474977554	0.414691825	0.877372978	0.608514018	0.568913211	0.170562763
0.099809432	0.841721459	0.092877825	0.604231451	0.134868567	0.629565156
0.062475274	0.062479904	0.062403275	0.638541169	0.638738144	0.638483567
0.071727125	0.855817065	0.079690262	0.627454005	0.149405996	0.64775787
0.130497101	0.862957454	0.857017667	0.586426021	0.154874549	0.157002019
0.425532847	0.87738244	0.459173692	0.539749292	0.170626976	0.575793493
0.448107874	0.432721738	0.877679881	0.591136804	0.558151595	0.170641899
4.83542E-06	0.881150708	4.80172E-06	0.699162027	0.175101475	0.699281821
0.881777278	0.054670642	0.054224304	0.175402002	0.690392849	0.690694205
0.866993132	0.866238456	0.077220569	0.159821746	0.161207889	0.623066365
0.111455667	0.864433068	0.854941084	0.592285628	0.155969727	0.154918109
0.027505197	0.076629869	0.076432075	0.678741648	0.67977375	0.679451359
0.882065126	0.054603108	0.054127214	0.175638877	0.690280625	0.69034884
0.415500141	0.87754287	0.462069811	0.589770389	0.170535683	0.626222151
0.331513937	0.337372457	0.825594778	0.610282194	0.583096457	0.11887867
0.841742968	0.113559468	0.100391841	0.135145285	0.625921359	0.600500801
0.875249197	0.047095807	0.87288462	0.168515644	0.6569751	0.165890157
0.079119573	0.855761187	0.102971726	0.62363303	0.149442959	0.64344626
0.877338421	0.448058619	0.435911972	0.170587896	0.57568169	0.542849457
0.859059877	0.84651469	0.153970944	0.152459071	0.151667846	0.560817466
0.867710614	0.865575482	0.087792068	0.159776838	0.162047541	0.61954086
0.841644106	0.103020133	0.099229803	0.13495836	0.627795667	0.60278896
0.868996175	0.082426351	0.073641225	0.162651141	0.672598465	0.660465314
0.2034873	0.208282405	0.825573313	0.608044996	0.579916482	0.118570981
0.0810899	0.855653823	0.067913879	0.632066865	0.14904389	0.652577116
0.448114116	0.435986572	0.877390401	0.575547335	0.542803322	0.17057616
0.877376495	0.45149394	0.431693099	0.17055582	0.610120086	0.576619439
0.844005158	0.133757956	0.862920632	0.148380827	0.56789128	0.155494936
0.847240973	0.846895434	0.847820518	0.257360675	0.257003343	0.257037277
0.874025884	0.076017889	0.870375729	0.16888361	0.650456531	0.164507335
0.87768599	0.459075141	0.4222353	0.170493978	0.590902256	0.555349207
0.825574475	0.286289566	0.297204431	0.118651269	0.613928967	0.587237397
0.866214171	0.081518451	0.866738745	0.161780351	0.621570782	0.159515957
0.855457279	0.116705255	0.864885993	0.155922454	0.590302413	0.156257677
0.876844951	0.469617189	0.411327786	0.170227479	0.590481725	0.551521982
0.877237816	0.480967212	0.501352198	0.170091386	0.561767778	0.532808505
0.470269185	0.419791711	0.877542464	0.559564191	0.520979193	0.170624544
0.883383705	0.027326906	0.876524586	0.175492441	0.695195771	0.171291443
0.856077989	0.107912351	0.864766125	0.154916524	0.593696569	0.156670328
0.041088543	0.040816157	0.881752179	0.692332832	0.692771886	0.175449752
0.10622331	0.082444211	0.855071502	0.642675441	0.62375778	0.149305587
0.099287295	0.841271926	0.102946853	0.602569768	0.135090964	0.627721985
0.133741939	0.862879361	0.844382251	0.567750861	0.155471444	0.148282849
0.43702898	0.446341719	0.877300736	0.575650689	0.546029332	0.170648419
0.13377867	0.862162786	0.844074806	0.567786729	0.154582645	0.147627795
0.401943255	0.877353988	0.487080317	0.564029222	0.170553016	0.606913205
0.85579347	0.130454841	0.861695816	0.156392104	0.586514702	0.154545275
0.473250573	0.403884672	0.877022933	0.625722318	0.586091363	0.170617192
0.863658477	0.85712252	0.130370619	0.155499932	0.157349293	0.586495943
0.86036638	0.84425228	0.141784327	0.153097573	0.149148983	0.564499745
0.25811011	0.266317124	0.825853652	0.6172316	0.586769993	0.119015678
0.448125143	0.436007629	0.877421775	0.575567663	0.542788035	0.170621078
0.404207261	0.877675879	0.473579375	0.585949439	0.170512954	0.62570009
0.094426718	0.320256675	0.269470589	0.622015529	0.626323038	0.624966639
0.866805898	0.104313554	0.866845856	0.162578947	0.61518381	0.15915829
0.867498825	0.104191949	0.867066442	0.162832081	0.615312551	0.159141111
0.87801094	0.459814047	0.429836252	0.170846832	0.559879696	0.524393065
0.014230209	0.881808961	0.014088791	0.697398886	0.175116855	0.697175938
0.877380419	0.480568935	0.405740916	0.170594882	0.575057217	0.532677742
0.450142666	0.426716756	0.876874035	0.626565608	0.593052655	0.170659441
0.875169249	0.884320374	5.4978E-06	0.170504226	0.175778966	0.699352322
0.154013425	0.859374249	0.846649636	0.560879364	0.152297121	0.151571111
0.85663161	0.130456761	0.863713977	0.156704465	0.586477838	0.154803049
0.881138813	0.014365725	0.014090705	0.175430088	0.696642729	0.697279081
0.425584353	0.877437648	0.45914233	0.539801788	0.170634805	0.575855434
4.914E-06	4.83399E-06	0.881226701	0.699056798	0.699386563	0.175432322
0.435679554	0.877407575	0.454081098	0.57642576	0.170550644	0.60973111
0.072213884	0.069912964	0.073867109	0.64964705	0.649800169	0.64971007
0.872625246	0.875213374	0.07595353	0.165324479	0.168630493	0.650552418
0.083499874	0.083701888	0.084027612	0.632368864	0.632124973	0.63246241
0.071659987	0.855931186	0.079708491	0.627461192	0.149367039	0.647812514
0.48061583	0.401226419	0.877150471	0.589996101	0.548062368	0.170584514
0.244306406	0.825258775	0.239522589	0.584915596	0.118517047	0.613277597
0.111537724	0.864595895	0.856233809	0.592177507	0.156300861	0.155310348
0.459169824	0.425631801	0.877438812	0.5754944	0.539399885	0.170537377
0.877459554	0.437458227	0.443998095	0.170444586	0.590798528	0.561174474
0.877399457	0.480583769	0.405741203	0.170587992	0.575056804	0.532685526
0.426042158	0.87740101	0.46359741	0.573568374	0.170602579	0.609758588
0.874191481	0.047103702	0.871892025	0.16792075	0.65685631	0.164985909
0.309260058	0.826147624	0.30828278	0.582311819	0.118515188	0.610789494
4.84889E-06	4.95842E-06	0.881041726	0.699121326	0.699557976	0.175145313
0.877410434	0.47310709	0.410293788	0.17063017	0.608991049	0.569398034
0.047197374	0.870926825	0.875710493	0.656735772	0.16472414	0.168934641
0.45058193	0.427157065	0.877753812	0.626508224	0.593045862	0.1706599
0.047232609	0.872140874	0.875597884	0.656831893	0.164824002	0.169112542
5.49553E-06	0.875299089	0.885393042	0.699475095	0.169985323	0.175754168
0.435575356	0.877329019	0.454239557	0.576762066	0.170516155	0.610280257
0.881176446	4.95842E-06	4.78203E-06	0.17523435	0.699348834	0.698957006
0.103172398	0.099181775	0.841492362	0.627729983	0.602767619	0.13501072
0.078307516	0.868787016	0.085581626	0.660531172	0.162576242	0.673454996
0.8466348	0.847224678	0.847048281	0.257122529	0.256718031	0.257201342
0.415647755	0.877403602	0.469897864	0.536282019	0.170562936	0.575622722
0.147297849	0.131169611	0.825894763	0.603626474	0.573978397	0.119316647
0.883488999	0.013711356	0.87663641	0.175652649	0.697644622	0.170708975
4.84861E-06	0.881243477	4.87173E-06	0.699194094	0.175399827	0.69892863
0.868830857	0.077974185	0.080749205	0.162479958	0.677443836	0.665666302
0.470094311	0.411771432	0.877773375	0.590767603	0.551617245	0.170744235
0.863140021	0.856567117	0.123122574	0.155284197	0.156487763	0.588598156
0.081086028	0.07929849	0.869107207	0.674164177	0.662197914	0.162530583
0.867487828	0.866435043	0.095424263	0.15925938	0.162377875	0.617663555
0.028180831	0.028245983	0.881859248	0.694783229	0.695332419	0.175345377
0.877389548	0.45901202	0.425642867	0.170563785	0.575615619	0.539573386
0.103146722	0.099321543	0.841538611	0.627818116	0.602725639	0.135022731
0.081034511	0.078952517	0.868954713	0.674350468	0.662231268	0.162511612
0.135545177	0.125864402	0.827607484	0.605770126	0.57672744	0.119312362
0.086595991	0.077826108	0.869133274	0.671816519	0.660672431	0.16263501
0.881627048	0.014013163	0.014116572	0.175468985	0.697338948	0.697725754
0.874262364	0.874046518	0.873435037	0.188908116	0.18902774	0.18861464
0.845309841	0.153978225	0.859163929	0.151338424	0.560842009	0.152262436
0.855595131	0.107955366	0.864488772	0.15493065	0.593850551	0.156561982
0.884343137	0.013704689	0.875025915	0.175993964	0.697244693	0.170968941
0.461988372	0.415436715	0.877397572	0.626230609	0.589587895	0.170685686
0.135163836	0.827906203	0.139678417	0.577285775	0.119589702	0.605692499
0.877135386	0.461869056	0.415292957	0.170526123	0.626154952	0.589771521
0.860149929	0.846420985	0.153986137	0.152417068	0.151611782	0.56079573
0.014301605	0.881525387	0.014658586	0.69705656	0.17507294	0.697655641
0.04721861	0.871956402	0.875428748	0.65706391	0.165098188	0.168616291
0.481106035	0.401748944	0.878186224	0.590250875	0.548320157	0.170540861
0.329182413	0.339677841	0.824788074	0.609384699	0.580608388	0.118640709
0.041107605	0.040829438	0.881893639	0.691817349	0.692796624	0.175439761
0.116677696	0.864408636	0.85554658	0.590346417	0.155630515	0.155924989
0.091235386	0.074594899	0.855827698	0.645655484	0.625949627	0.149466706
0.435859599	0.877294422	0.448085547	0.54272571	0.170520019	0.575631652
0.823182035	0.823332785	0.823354155	0.298263054	0.29861639	0.298273052
0.883604766	0.013711717	0.876478971	0.17560106	0.697655316	0.170696207
0.083425529	0.083788714	0.083885504	0.632193923	0.632203523	0.632457977
0.065243852	0.871151985	0.874827378	0.652415281	0.164574781	0.168604663
0.872128443	0.875093651	0.065205073	0.165275112	0.168872162	0.652783504
0.877154615	0.458925121	0.42185074	0.170167239	0.590670367	0.554707766
0.870869904	0.874974235	0.0652109	0.164025626	0.1684584	0.652679211
0.855516048	0.068983935	0.07134769	0.149057135	0.64969513	0.629478318
0.048628303	0.871357486	0.874372711	0.658437717	0.164811969	0.168302492
0.855367391	0.103096875	0.07887037	0.149694299	0.643425669	0.623823929
0.071423839	0.065831559	0.085454248	0.670038254	0.670084593	0.670465475
0.445942196	0.449260398	0.877345348	0.608497167	0.578294216	0.170593981
0.825847404	0.221706482	0.224860378	0.119180653	0.609028909	0.583196287
0.865323298	0.077099578	0.867907246	0.161164638	0.623155215	0.159999419
0.863044465	0.862720816	0.863457825	0.219387354	0.218514595	0.219316014
0.877390585	0.469897515	0.415488725	0.170535753	0.575553983	0.536238678
0.825665509	0.136682165	0.128374736	0.119072245	0.605831153	0.576910821
0.127384644	0.827337392	0.145142096	0.574608917	0.119336468	0.603551161
0.855537599	0.103066276	0.0788855	0.149559175	0.643524039	0.623565422
0.448413486	0.877337575	0.444893985	0.578597234	0.17060449	0.608839413
0.131490523	0.126007475	0.098406959	0.610041247	0.610098741	0.614502833
0.877673975	0.480934587	0.410263638	0.170802727	0.559484226	0.517374153
0.874299272	0.055308733	0.87207493	0.168533294	0.654790146	0.165002145
0.12588384	0.825512603	0.144213913	0.575109066	0.119195593	0.603585552
0.028433798	0.028079615	0.883023883	0.694828097	0.695468027	0.175391781
0.257538826	0.265611815	0.825848573	0.617274068	0.586622369	0.119007087
0.459137465	0.425668095	0.877427449	0.575413212	0.539296402	0.170620759
0.841590092	0.102983702	0.099336477	0.134956119	0.62787961	0.60287941
0.865252939	0.85366371	0.107759719	0.1568895	0.154802761	0.593902095
0.086965642	0.079246948	0.868915097	0.671812978	0.660617302	0.162571201
0.311015954	0.82607642	0.303616064	0.583534322	0.118643429	0.615288877
0.405871743	0.877353894	0.480570618	0.533009951	0.170528944	0.575365831
0.86603773	0.081817488	0.86773677	0.161935477	0.620871827	0.159730057
0.092309004	0.080381513	0.869234091	0.668823291	0.655924311	0.162671747
0.059654825	0.043167956	0.077216106	0.674743166	0.675154409	0.676723897
0.855363115	0.107951555	0.86460169	0.154991214	0.593909047	0.156551422
0.080945312	0.078621922	0.868907329	0.674192208	0.662275381	0.162459686
0.079702912	0.869230079	0.081618028	0.663079188	0.162397213	0.675914748
0.87621161	0.88435265	5.4973E-06	0.170774703	0.176287469	0.699512887
0.872658625	0.875408413	0.065204036	0.165271504	0.168879594	0.6527869
0.844491599	0.137299944	0.862228876	0.149456091	0.566345777	0.154984761
0.253974071	0.253248077	0.825867493	0.617291112	0.58689622	0.118700408
0.43571823	0.877344503	0.454132925	0.576790248	0.170515706	0.610266808
0.154029524	0.858981304	0.846256353	0.560896465	0.151917893	0.151040129
0.076020604	0.871157071	0.875673424	0.650376976	0.164464831	0.169233144
0.821578421	0.82327589	0.821984228	0.298420464	0.298684559	0.298839541
0.11674277	0.864062814	0.856133827	0.590395487	0.155719176	0.155987661
0.877253964	0.448649477	0.439535101	0.170431182	0.55986386	0.527619395
0.866125227	0.087774742	0.867311072	0.161773212	0.619748277	0.159767808
0.826278514	0.146429807	0.129692509	0.119145585	0.602935026	0.574200005
0.861065132	0.844541047	0.141767709	0.153658093	0.149747985	0.564614142
0.425609663	0.877420093	0.45913397	0.539789508	0.170629877	0.57585669
0.426975798	0.877392436	0.450402014	0.593086231	0.17036112	0.626469151
0.877399258	0.461992757	0.421693245	0.170584959	0.60814971	0.571664449
0.445756437	0.877413605	0.437657965	0.562556744	0.170434082	0.591734005
0.841639049	0.092811961	0.099825718	0.134804363	0.629530801	0.604116551
0.102264476	0.841796106	0.083366961	0.606044945	0.134715809	0.631486717
0.884261903	0.027325913	0.875697707	0.17621097	0.695199489	0.170756668
0.872065527	0.874895179	0.055275867	0.164947061	0.169000234	0.654975807
0.147499449	0.860650589	0.844985729	0.562740507	0.152493277	0.150191117
0.062885369	0.060226338	0.065945818	0.652081396	0.65192017	0.651642763
0.100162194	0.082052617	0.868907664	0.668551639	0.656995373	0.162836427
0.113766624	0.100000261	0.841843859	0.626134669	0.600905399	0.135074555
0.874049608	0.872486113	0.872879705	0.188798065	0.188836497	0.188484456
0.846166167	0.84723946	0.846807642	0.257468867	0.256993458	0.257313887
0.100267556	0.081659306	0.868807216	0.665767793	0.655469835	0.162748481
0.063169757	0.059888325	0.065121889	0.652003876	0.651904605	0.651570706
0.445107092	0.877545516	0.438409435	0.561968926	0.170506648	0.591657304
0.242488235	0.825855698	0.233959505	0.58388559	0.118894959	0.612049477
0.845794923	0.137285654	0.861511488	0.148851753	0.566265763	0.154273007
0.842939151	0.13724016	0.86057684	0.147973715	0.566195122	0.153824514
0.877291438	0.461254896	0.422486752	0.170554985	0.608537988	0.572298242
0.866625484	0.865919664	0.095415166	0.159166827	0.162255143	0.617328344
0.429414168	0.877310634	0.459536538	0.524379294	0.170833761	0.55992716
0.147419436	0.861922817	0.847037326	0.562739961	0.153094481	0.150772156
0.855544065	0.068937781	0.071435497	0.14898755	0.64984738	0.629221279
0.877225061	0.436628233	0.444685161	0.17053755	0.591568045	0.561944173
0.054621163	0.051237096	0.057598035	0.653842048	0.654249637	0.654025594
0.072075345	0.065619506	0.085834518	0.670272562	0.670051993	0.671062306
0.448898241	0.439577458	0.877556486	0.559687393	0.527827459	0.1704203
0.86051293	0.845762884	0.14746764	0.152892438	0.150617583	0.562752145
0.875928222	0.884105053	0.027325177	0.171075864	0.175820529	0.695157167
0.041103254	0.040784138	0.881395493	0.692408116	0.692680236	0.175394299
0.845941431	0.847332376	0.846941978	0.257357244	0.257007152	0.25717792
0.047237901	0.872301765	0.87448009	0.65839311	0.164851634	0.168445376
2.78327E-06	3.19073E-06	3.01449E-06	0.698950155	0.699284208	0.699349628
0.438425341	0.876881395	0.438430059	0.596532511	0.16998156	0.626452478
0.047836534	0.04251775	0.074030039	0.678051936	0.677598241	0.680437689
0.877275184	0.484821598	0.398793536	0.170614105	0.608078089	0.565454992
0.869212611	0.09260559	0.079949853	0.162657061	0.672241523	0.658623331
0.871702812	0.874509028	0.046530311	0.16474872	0.168607019	0.659019761
0.113871889	0.099916456	0.841745624	0.62616863	0.60106402	0.135048303
0.241362304	0.826036784	0.235865299	0.585746216	0.118903786	0.612723804
0.414236655	0.877332197	0.474690991	0.569117621	0.170508126	0.608797184
0.13395362	0.125056521	0.826056164	0.60627805	0.576914468	0.118836379
0.412067608	0.877590235	0.470100472	0.551840567	0.170598303	0.590701319
0.855787109	0.102923736	0.078903716	0.149729482	0.643419523	0.62377636
0.867292023	0.866227203	0.077218007	0.15979355	0.161472411	0.622982562
0.321446784	0.332099134	0.825102046	0.614920729	0.586771949	0.118512183
0.099282937	0.841046707	0.102979124	0.602518261	0.135014889	0.627638705
0.869084182	0.091197156	0.079513469	0.16255475	0.672338907	0.660106011
0.427086472	0.87760568	0.450504505	0.59289266	0.170660813	0.626525066
0.027492353	0.028342538	0.027888554	0.694964435	0.694919064	0.695325256
0.437080326	0.446384115	0.87739698	0.5757495	0.546187965	0.170625491
0.872890637	0.875316652	0.047193535	0.165776935	0.168865627	0.656904267
0.825680437	0.287315744	0.29711735	0.118635374	0.614074889	0.587606141
0.486617754	0.401963267	0.877351917	0.607540166	0.564630861	0.170442412
0.092624821	0.099699246	0.841532141	0.629537699	0.604345768	0.1349192
0.432767809	0.877278199	0.447902225	0.557917247	0.170412534	0.5902216
0.862180594	0.84331425	0.137087039	0.154344632	0.148857875	0.566225506
0.863855745	0.863954352	0.863082261	0.219068537	0.219044979	0.219057617
0.041123964	0.040750028	0.881390823	0.692384523	0.692732555	0.175455757
0.459096849	0.422085539	0.877622515	0.590723184	0.555072926	0.170542622
0.083987376	0.869161616	0.080212298	0.664635677	0.162688941	0.677589199
0.464593909	0.424784031	0.877324893	0.608544284	0.57180471	0.170520795
0.048319555	0.045557163	0.05293232	0.656269031	0.655860634	0.655832739
0.041115468	0.040920742	0.882052542	0.691827194	0.692878495	0.175671365
0.868974192	0.080353714	0.077413142	0.162522955	0.674753531	0.663528233
0.847518201	0.846906588	0.848184623	0.257368845	0.256993502	0.257082744
0.866405008	0.856068106	0.107726418	0.157139793	0.155006366	0.593795392
0.855611679	0.068938901	0.071421769	0.148914585	0.649889527	0.629361515
0.469730171	0.411516619	0.877174515	0.590821981	0.551517957	0.170437588
0.877267469	0.473382773	0.403995631	0.170497419	0.625894387	0.585996636
0.874803332	0.050123894	0.872500866	0.168239786	0.659213355	0.165260485
0.873249112	0.875881305	0.075914429	0.165026422	0.16925577	0.65050547
0.877549263	0.470196678	0.419876928	0.170882893	0.559650538	0.520841599
0.878124218	0.450767687	0.427341613	0.170747324	0.626416377	0.593065216
0.060007667	0.06002288	0.060013999	0.640063319	0.640234497	0.640075821
0.470351608	0.419813901	0.877650616	0.559584502	0.520987585	0.170645676
0.086669634	0.078034694	0.869047452	0.671787096	0.660499275	0.16261698
0.071933529	0.069994079	0.073998416	0.64946154	0.649858953	0.64964102
0.46986488	0.415688875	0.877371343	0.575368985	0.536115321	0.170507746
0.054207001	0.881746425	0.054613718	0.690226374	0.175375976	0.690483383
0.413059159	0.877444514	0.475864478	0.568260381	0.170573662	0.608116343
0.047207821	0.872214112	0.874009271	0.657107499	0.164999348	0.168538428
0.266766864	0.268954459	0.826447444	0.617597182	0.589935969	0.118993829
0.881556567	0.041103583	0.0409136	0.1751109	0.691828847	0.692801379
0.100679876	0.082065662	0.868820824	0.666945223	0.655334712	0.162740697
0.480835562	0.405738951	0.877395308	0.575107847	0.532648682	0.170603406
0.054623324	0.054246714	0.881957472	0.69009437	0.690102071	0.175448708
0.862104207	0.843420054	0.133775579	0.155210958	0.148086787	0.567804622
0.054220561	0.881432491	0.054583747	0.690195811	0.175385723	0.690060276
0.084297075	0.075797958	0.855403979	0.647508566	0.628126917	0.148793108
0.874410165	0.873910873	0.873069366	0.18880429	0.189146702	0.188700291
0.100455196	0.082170954	0.868800428	0.66702261	0.655354705	0.162748152
0.515644939	0.526027343	0.877444566	0.562060422	0.53230797	0.1706062
0.459125606	0.425718272	0.877473114	0.575502189	0.539364897	0.170593657
0.135299749	0.131304838	0.098710692	0.611574697	0.61171094	0.614107729
0.078720555	0.869370361	0.081311441	0.663300437	0.162452484	0.674990348
0.12935618	0.826188952	0.145506816	0.574491321	0.119467457	0.603373418
0.102244952	0.841556918	0.083365968	0.60601108	0.134842352	0.631185768
0.484997634	0.393139179	0.877884282	0.625509205	0.582458244	0.170895362
0.054935657	0.054540173	0.05515869	0.690057714	0.690236114	0.69021577
0.824927344	0.246366339	0.248457409	0.118697948	0.606007034	0.58122163
0.32787197	0.344731817	0.825985478	0.61430053	0.582705102	0.118736597
0.048146562	0.045245771	0.052450782	0.65613008	0.656249678	0.656220147
2.79372E-06	3.20808E-06	2.99046E-06	0.699246231	0.699510075	0.69902399
0.862689687	0.863748962	0.863670515	0.219048474	0.218688298	0.219217022
0.874027748	0.055323892	0.872028764	0.167866831	0.654781045	0.164374927
0.459790565	0.429723508	0.877873376	0.559704422	0.524385869	0.170613042
0.106105258	0.083197438	0.855590411	0.643494013	0.623495904	0.149754107
0.470420452	0.419919567	0.877822752	0.559664558	0.521135909	0.170650377
0.438504386	0.438499619	0.877029824	0.626588533	0.596405375	0.170503173
0.438580542	0.438575833	0.877182207	0.626574699	0.596364553	0.170279367
0.448039102	0.432654507	0.877549734	0.590980308	0.558231998	0.170679421
0.455856145	0.435822245	0.877233778	0.609039514	0.575199328	0.170572862
0.872293534	0.875806318	0.075933459	0.165104456	0.169283713	0.650389456
0.484777644	0.392908996	0.877436271	0.625467612	0.582373211	0.170777226
0.439720597	0.877674415	0.448872643	0.527563077	0.170800061	0.559861408
0.08133841	0.084640748	0.868541999	0.676020307	0.663664824	0.162664941
0.013709309	0.875977019	0.88392757	0.697499843	0.170733751	0.175503624
0.401519907	0.877293259	0.480809223	0.547992537	0.170035304	0.5895913
0.047198929	0.871684974	0.874474618	0.657125973	0.164894586	0.168407181
0.047198674	0.047792236	0.053224524	0.657599182	0.658359407	0.658285848
0.481134706	0.410343646	0.87796736	0.559368042	0.51749613	0.17061238
0.04605376	0.04944055	0.053458871	0.657682797	0.658506799	0.658802308
0.14180365	0.861107818	0.844944209	0.564595881	0.153558869	0.149666731
0.877194157	0.448647082	0.439477905	0.170439786	0.559865818	0.527619462
0.108018694	0.865498905	0.854395143	0.593512549	0.156524161	0.154657304
0.076015245	0.870980408	0.875319023	0.650405174	0.164073051	0.168915459
0.133771915	0.86285133	0.843270129	0.567891157	0.154941916	0.147735872
0.882813213	0.054267401	0.875082101	0.175092423	0.690429619	0.170531268
0.099994922	0.081322057	0.868711067	0.666207642	0.655243264	0.162742459
0.877659906	0.436792049	0.444966699	0.170513281	0.591405476	0.561813158
0.254354619	0.825506026	0.248011903	0.583750635	0.118447332	0.612430844
0.87174672	0.874576936	0.046361601	0.164729315	0.168616694	0.659033726
0.103950649	0.866728293	0.866920421	0.6154629	0.158878444	0.162863329
0.459119153	0.425673032	0.877421694	0.575424579	0.539296713	0.170638034
0.866189701	0.104343876	0.865960382	0.162623348	0.615269474	0.159106052
0.842101577	0.125139372	0.103524751	0.135207271	0.623740683	0.598214917
0.041000995	0.041436171	0.041599602	0.692401823	0.692864582	0.692094969
0.100171894	0.082365192	0.868887993	0.667830209	0.655929812	0.162763205
0.027416176	0.028077518	0.027887862	0.694816979	0.69507611	0.695430932
0.054281128	0.876388696	0.882960298	0.690657932	0.170965521	0.175374313
0.111458522	0.864975804	0.855157063	0.592264729	0.155971982	0.154915379
0.855545731	0.06561312	0.078145121	0.149043375	0.652376211	0.632268481
0.028318928	0.027769701	0.881829172	0.694441657	0.694864674	0.175142475
0.877272347	0.473054933	0.410267966	0.17058757	0.608845692	0.569253982
0.072042463	0.070011433	0.074331034	0.649584584	0.649784112	0.649898351
0.215764994	0.826023583	0.227675431	0.582393449	0.118882925	0.610097448
0.866736048	0.866318687	0.103944428	0.159027867	0.16244977	0.615229199
0.154021013	0.859367128	0.846792285	0.560852195	0.152291949	0.151573038
0.855607181	0.066584127	0.079134772	0.148833019	0.65262625	0.632304059
0.401387828	0.877360014	0.487318537	0.564717967	0.170535352	0.607785383
0.448120139	0.436001198	0.877405675	0.575570444	0.542813087	0.170585616
0.874884373	0.065219693	0.871785682	0.168708043	0.65290187	0.164571205
0.859175974	0.846476259	0.153990046	0.152420864	0.151608613	0.560787264
0.449014297	0.439770627	0.877872753	0.559776127	0.527702456	0.170466752
0.876512822	0.076050149	0.87312099	0.169423893	0.650535671	0.164966401
0.863649053	0.857152484	0.130370067	0.155340478	0.157267304	0.586522898
0.876590073	0.469535941	0.411174201	0.170229811	0.590247286	0.551352478
0.0852084	0.86878605	0.081868041	0.663140092	0.162434593	0.675279666
0.054269165	0.875869625	0.883855226	0.690422585	0.170745803	0.175591061
0.06256115	0.062418611	0.062437137	0.638688175	0.638511607	0.638546725
0.87724292	0.436581938	0.444810154	0.170421927	0.591992117	0.562377159
2.80463E-06	3.22964E-06	2.97744E-06	0.699316314	0.699349716	0.699148296
0.866537027	0.867279741	0.103998325	0.159040527	0.162843336	0.615309984
0.080142184	0.207238369	0.205330407	0.620418011	0.620934899	0.624553204
0.84477006	0.147396098	0.860532629	0.150955572	0.562779831	0.15343342
0.027512479	0.028012581	0.027765469	0.695022657	0.695102701	0.695228243
0.147425869	0.860740111	0.845550327	0.562651572	0.15315426	0.15075221
4.79363E-06	0.881315353	4.91795E-06	0.699090582	0.175365945	0.699072875
0.862532036	0.856812542	0.130433524	0.154760302	0.156768137	0.586504848
0.864278264	0.864113093	0.863099726	0.219053553	0.219046536	0.219083148
0.083482475	0.083733396	0.084158853	0.632190549	0.632196232	0.632420254
0.873868188	0.065223694	0.87165514	0.168740257	0.652893694	0.164642808
0.083385092	0.102243453	0.841705341	0.631331535	0.606070315	0.134668691
0.07716389	0.867499677	0.865012716	0.623085285	0.160007391	0.161602241
0.113834881	0.099903943	0.841697683	0.626151398	0.6009761	0.135066973
0.072503735	0.069988162	0.074927454	0.649166213	0.649918418	0.649055001
0.877378642	0.484272748	0.399508858	0.170630588	0.60760203	0.564895296
0.402729061	0.877343327	0.486214188	0.564565984	0.17053826	0.607653369
0.469831071	0.415703782	0.877350475	0.575362178	0.536087368	0.170543809
0.026952447	0.075218926	0.075579194	0.679161575	0.680317168	0.679419806
0.882196668	0.054591488	0.054172725	0.175636949	0.690308084	0.690459085
5.49755E-06	0.87676784	0.884569744	0.699484149	0.170783295	0.175732276
0.071705376	0.856050691	0.079704306	0.627326649	0.149371719	0.647945128
0.459021527	0.422015826	0.877473179	0.590706418	0.555013257	0.170483754
0.871710433	0.874251493	0.046743279	0.164723116	0.16851583	0.659020825
0.877302124	0.437049006	0.446320434	0.170578551	0.575763407	0.546061526
0.435540375	0.877334676	0.45401288	0.576733428	0.170544449	0.610111796
0.469848658	0.411616756	0.877406232	0.590878492	0.551639194	0.170548751
0.877727649	0.470397877	0.419832725	0.170881207	0.559700357	0.521068066
0.845638922	0.141848044	0.861347184	0.149986658	0.564496698	0.153976699
0.079809336	0.869236928	0.081646007	0.663235677	0.162386811	0.675902505
0.87715895	0.438568681	0.438563997	0.170502277	0.626414574	0.596405711
0.480900407	0.401565949	0.877789493	0.590143371	0.548245344	0.170677714
0.877448041	0.480806419	0.410181781	0.17051136	0.559512501	0.517430639
0.882695437	0.054270819	0.876346743	0.174583637	0.690450886	0.170442768
0.062587107	0.062381633	0.062428989	0.638388458	0.638420074	0.638475662
0.086397983	0.077420082	0.869231975	0.672693233	0.66054979	0.16253544
0.106391498	0.082485637	0.856147144	0.643155516	0.623761158	0.149347336
0.435889141	0.877305864	0.44808666	0.542732117	0.170522384	0.575631762
0.134583912	0.12568035	0.826868745	0.604229682	0.576154724	0.119268594
0.081939953	0.869005404	0.09319188	0.657125742	0.162637208	0.670548137
0.865455225	0.076973222	0.86781946	0.161296414	0.623119301	0.160082943
0.067151926	0.052004807	0.080498423	0.673080156	0.672474692	0.674186423
0.07207135	0.065942615	0.086383249	0.670466063	0.670018962	0.670749651
0.159295268	0.091736923	0.165806303	0.619700366	0.616600777	0.620757159
0.865940265	0.095669465	0.866507691	0.162318089	0.617226706	0.15882933
5.49553E-06	0.875614084	0.882568113	0.699257812	0.170961742	0.175329927
0.086631789	0.077221832	0.869167354	0.671886056	0.66056181	0.162639847
0.486538569	0.401810313	0.877405251	0.607590251	0.564691221	0.170433008
0.842163049	0.125210275	0.103511011	0.135189489	0.623681622	0.598163024
0.146236037	0.129147232	0.826312121	0.603821009	0.575535589	0.119399063
0.877676053	0.437100921	0.444806624	0.170613126	0.591568187	0.562039649
0.448160822	0.435983948	0.87744568	0.575561088	0.542773902	0.170624426
0.876876736	0.076048116	0.873591973	0.169353862	0.650530157	0.16499919
0.872568548	0.873725241	0.065195227	0.164989795	0.168520162	0.652693745
0.872256552	0.873168933	0.046829576	0.165327081	0.168247727	0.658823002
0.448049849	0.877368995	0.445061203	0.578550963	0.170590373	0.608774862
0.869013423	0.078268795	0.082542745	0.162585508	0.676896611	0.665081537
0.842085855	0.125235764	0.103362724	0.135180025	0.623522402	0.598080322
0.448193922	0.435905285	0.877415054	0.575492662	0.542577847	0.170635704
0.474963431	0.414686424	0.877276106	0.607934718	0.568371095	0.170569229
0.877368141	0.44865209	0.439641776	0.170512685	0.559833544	0.527612949
0.856154498	0.123157068	0.86415073	0.156150797	0.5885829	0.15535083
0.123190367	0.863435652	0.856216149	0.588423443	0.155535879	0.156645907
0.113789751	0.100132941	0.841777295	0.626136326	0.600838939	0.135061648
0.013869108	0.013834938	0.881160428	0.696943398	0.697035259	0.175248082
0.87510892	0.882435111	0.040859938	0.170127651	0.174632566	0.693097526
0.435866259	0.877298708	0.448091511	0.542726178	0.170511854	0.575634482
0.87738098	0.451284097	0.432265991	0.170531094	0.608811723	0.575521161
0.855072884	0.107781472	0.864754655	0.154628053	0.593927655	0.156586094
0.855084722	0.107959125	0.86455697	0.154667521	0.593914158	0.156581627
0.480826589	0.401490512	0.877645124	0.590000128	0.548153358	0.170607136
0.866921107	0.087851417	0.867210936	0.161867035	0.61945678	0.159545002
0.862770186	0.864543992	0.863537355	0.219072967	0.219522982	0.219381478
0.82587641	0.281912204	0.304268628	0.118660716	0.612016814	0.584246348
0.877338976	0.437180534	0.444331503	0.170406504	0.591988612	0.56234529
0.147345417	0.13039666	0.82580562	0.604201811	0.575445901	0.119222958
0.857321739	0.130434359	0.863564162	0.156901589	0.586518545	0.154902068
0.077958723	0.868967123	0.086084346	0.661254733	0.162501364	0.673395523
0.401314567	0.876758592	0.480459466	0.547745468	0.170360153	0.589570212
0.081689028	0.867664464	0.865279195	0.621117409	0.159637022	0.161552356
0.877296453	0.437048384	0.446315485	0.170579951	0.575760992	0.546058133
0.867467413	0.865559102	0.081543788	0.159806894	0.161747421	0.621490449
0.867717615	0.865646293	0.077263574	0.159794055	0.161275422	0.622932037
0.881840834	0.054514479	0.054145208	0.175444049	0.689635915	0.690376769
0.4255871	0.87741088	0.459123538	0.539752604	0.170615189	0.575789745
0.473519083	0.404134337	0.877541867	0.625749702	0.586207978	0.170528184
0.877393217	0.4699358	0.415460479	0.170555036	0.575430932	0.53613778
0.8575729	0.123065184	0.865227011	0.156658782	0.588493849	0.155903821
0.425599225	0.877439397	0.459164077	0.539803745	0.17063658	0.575861766
0.877364536	0.45119365	0.432032617	0.170555991	0.610110601	0.576618699
0.06818291	0.080008276	0.855944769	0.652141418	0.632489102	0.149207716
0.027275814	0.076560242	0.076389248	0.67882056	0.679730826	0.679463708
0.864202582	0.856656356	0.123082175	0.155269601	0.156516474	0.588700742
0.868999643	0.080049673	0.076636267	0.162506611	0.674504773	0.663588608
0.84608208	0.153906553	0.85953511	0.15057594	0.560880436	0.151450325
0.124877447	0.122168686	0.098648381	0.612937001	0.611449211	0.615093002
0.077150432	0.867586324	0.865542027	0.623130895	0.160007973	0.161537936
0.063298918	0.059853457	0.064978112	0.651918443	0.652019121	0.651637817
0.425459296	0.877304986	0.459167904	0.539676022	0.17057657	0.57568456
0.86104536	0.844548406	0.141729962	0.15376352	0.149864688	0.564380098
0.865825636	0.095553919	0.865768625	0.162200611	0.617439686	0.159021895
0.065241444	0.87076385	0.874368048	0.652792753	0.164526109	0.168740483
0.154034621	0.859204274	0.847666234	0.560882595	0.152052201	0.151368768
0.480325623	0.401062797	0.876705612	0.589975061	0.548064382	0.170276059
0.01425985	0.014335805	0.881446762	0.696691475	0.697374423	0.175181972
0.863820719	0.855179484	0.116741059	0.155530661	0.155421898	0.590285967
0.040799279	0.88099164	0.041225616	0.692918149	0.175034163	0.692396355
0.842863775	0.137253381	0.860081241	0.148375291	0.566217845	0.153947854
0.06243338	0.062522061	0.062374464	0.63817869	0.638428978	0.638483281
0.84558014	0.141812895	0.86028624	0.149983176	0.564531709	0.153711347
0.82668385	0.200414706	0.202679014	0.119428569	0.610950114	0.579901619
0.429314844	0.877073233	0.459403717	0.524316405	0.170765019	0.559943777
0.869103339	0.099119714	0.081549581	0.162715113	0.667705076	0.656093448
0.141813701	0.858913688	0.843330209	0.56459452	0.153021949	0.149173494
0.877379494	0.448670935	0.439632857	0.170518975	0.55983477	0.527612522
0.067194869	0.052098179	0.080799956	0.673056119	0.672630581	0.674306003
0.06108061	0.04256555	0.077548006	0.675691314	0.674972791	0.677635819
0.87720277	0.438590885	0.438586173	0.170459636	0.626430614	0.596438172
0.106023009	0.082670629	0.855614536	0.643393329	0.623663487	0.149609597
0.448918662	0.877344566	0.444387962	0.579478781	0.170603916	0.609715168
0.876030669	0.047102744	0.873041175	0.168592576	0.65696178	0.165617245
0.876443278	0.88345947	0.027326077	0.17112278	0.175490888	0.695163427
0.874193535	0.047120604	0.871969097	0.168127158	0.656984177	0.164892338
0.111419611	0.864353168	0.856005707	0.592077768	0.155668972	0.155140762
0.027327736	0.876047011	0.884225703	0.695266665	0.170133045	0.175261149
0.40399623	0.877275119	0.473389851	0.586180631	0.170445796	0.625909806
0.065221515	0.870911063	0.874737792	0.652698026	0.164190724	0.168293184
0.841682176	0.092797834	0.099895808	0.134884211	0.62937088	0.604303381
0.027324232	0.875914234	0.883040193	0.69516385	0.170538678	0.175414286
0.060033885	0.060022941	0.05998459	0.64010108	0.640113189	0.640223844
0.475622916	0.414163793	0.8774369	0.607894886	0.568339079	0.17058321
0.040882701	0.881470711	0.041137158	0.692953274	0.175526919	0.692352266
0.074174417	0.85566905	0.091192626	0.625887508	0.149290213	0.645649179
0.435792947	0.87721564	0.448081704	0.542706095	0.170561148	0.575655087
0.883641524	0.040855272	0.876606128	0.175323338	0.69297019	0.170629603
0.877208948	0.44864808	0.439491688	0.17043667	0.559865503	0.527618987
0.860540356	0.847232176	0.153987698	0.152523671	0.151689516	0.560872522
0.8773312	0.448055469	0.435907463	0.170587248	0.575681634	0.542845045
0.075401853	0.076779498	0.854710185	0.649744915	0.629681119	0.148766893
0.12753227	0.125319692	0.098739316	0.612035649	0.610578146	0.615103274
0.872833339	0.875054206	0.055276287	0.165059214	0.168822296	0.654933051
0.141812089	0.86064048	0.844818415	0.564567324	0.153210605	0.149463811
0.111414564	0.864331444	0.856432596	0.592075406	0.156166342	0.155587443
0.07428023	0.855566076	0.091229334	0.625854591	0.14930044	0.64573838
0.882813008	0.05426925	0.876253149	0.175098393	0.690447434	0.170529502
0.872093626	0.874439488	0.046765699	0.164776194	0.168096148	0.658919931
0.040837368	0.875372621	0.884162296	0.692653896	0.17068881	0.175683518
0.013708207	0.875593377	0.884322258	0.697433551	0.170152869	0.175356767
0.860852421	0.844583063	0.141793948	0.153131244	0.149203516	0.564543419
0.092176208	0.080157136	0.869228242	0.670500354	0.657414598	0.162506486
0.883635386	0.013704045	0.875738714	0.17538852	0.697206376	0.170313531
0.877344558	0.484089237	0.399392126	0.170582086	0.608764583	0.566081907
0.877369498	0.461613456	0.422146837	0.170576022	0.609515372	0.573135171
0.432683412	0.877409633	0.448137129	0.557963413	0.170467972	0.590328435
0.123219809	0.862421192	0.855712347	0.588438881	0.154813723	0.156100524
0.825864583	0.135153718	0.127374452	0.119186521	0.605807723	0.577005369
0.136086096	0.131275838	0.098810926	0.61163039	0.611797422	0.614103301
0.878510062	0.878109671	0.877328452	0.17104909	0.170724621	0.170650202
0.027451683	0.028063601	0.027959404	0.69520576	0.694852732	0.695152539
0.425579443	0.877362973	0.459086258	0.539731754	0.170604203	0.575755566
0.081752944	0.866081473	0.865168286	0.62130558	0.159573961	0.16160511
0.866483957	0.088118116	0.867539722	0.162264932	0.619305014	0.159848625
0.8715165	0.87434462	0.075979091	0.16469565	0.16807169	0.650549747
0.821896153	0.823660664	0.825061206	0.298292426	0.298696839	0.298841007
0.856809239	0.130435918	0.863998099	0.156555964	0.586512327	0.154676976
0.846856092	0.847395847	0.848303194	0.257294077	0.256977803	0.257255252
0.877602688	0.450505904	0.427081946	0.170486753	0.626545913	0.593003611
0.855659098	0.10325	0.078849528	0.149649777	0.643541821	0.623801265
0.083448714	0.083656557	0.083993663	0.632371	0.632117745	0.632417046
0.843820964	0.137297758	0.861541832	0.148868037	0.566285103	0.154584505
0.062463793	0.062514117	0.062400868	0.638139557	0.638627294	0.638434729
0.841911733	0.103007254	0.099239602	0.13487244	0.627852901	0.602527348
0.446355897	0.877360424	0.437071871	0.5460709	0.170626936	0.575709288
0.425534517	0.877420133	0.464176351	0.573576625	0.170575289	0.609857319
0.867356083	0.865669474	0.087805103	0.159500984	0.161835134	0.619469884
0.125270093	0.1032006	0.84147037	0.623775582	0.598610221	0.135343298
0.875820427	0.884350853	5.49704E-06	0.170783981	0.176274668	0.699450591
0.882307011	0.027325787	0.876399514	0.175448066	0.695216663	0.171234123
0.854925725	0.091336305	0.074281009	0.149159866	0.645534219	0.625786661
0.102225038	0.841590444	0.083390009	0.606104598	0.134746782	0.631292837
0.877330716	0.483948702	0.399488291	0.170569227	0.608752711	0.5660707
0.240606961	0.254918651	0.825191527	0.608251058	0.57587874	0.118673011
0.081630291	0.868942191	0.092100266	0.656510441	0.162644744	0.669180536
0.401682905	0.877951564	0.481286221	0.548342581	0.170533276	0.590323307
0.094513167	0.30775735	0.256555716	0.6223589	0.627472811	0.623508456
0.088048637	0.866588602	0.865715698	0.619520964	0.159040239	0.16202955
0.869015128	0.080642747	0.077950728	0.162522733	0.674909749	0.663402877
0.87560292	0.065167037	0.872924904	0.169168764	0.652510746	0.165362048
0.868992834	0.09778874	0.081840018	0.162828864	0.666596559	0.654175473
0.87305996	0.875927483	0.065206128	0.165302027	0.16886221	0.652758274
0.448208372	0.432872445	0.877929313	0.591053586	0.558231048	0.170772194
0.435851136	0.87724657	0.448044114	0.542714992	0.170543746	0.575639899
0.87814346	0.459831289	0.429956415	0.170617475	0.559801824	0.524477607
0.130522487	0.826881703	0.138386328	0.576816286	0.119977626	0.605524429
0.091309438	0.074567372	0.855760295	0.645681275	0.62604095	0.149199253
0.040755927	0.881494463	0.041050896	0.692741479	0.175199075	0.692409645
0.415589684	0.877715971	0.462153171	0.589542043	0.170722754	0.626249318
0.438412406	0.876855489	0.4384171	0.596504776	0.169938777	0.626379492
2.76727E-06	3.00712E-06	2.90859E-06	0.698891156	0.698985507	0.699556118
0.062795446	0.060025397	0.065000142	0.651976907	0.651914569	0.651534071
0.425479653	0.877365418	0.459211716	0.53971564	0.170590682	0.5757275
0.123187956	0.863670806	0.856786876	0.588513591	0.1556238	0.156821437
0.17480522	0.090731412	0.181135379	0.616145737	0.616885042	0.616751855
0.846477215	0.846533462	0.846240171	0.25687203	0.256593917	0.256514093
0.883496774	0.040846164	0.876557795	0.175291263	0.692811584	0.170937912
0.054635959	0.054287269	0.882221371	0.689850349	0.690235434	0.175451446
0.08171068	0.867741649	0.866129162	0.621343496	0.159551843	0.161801426
0.437820356	0.445376344	0.877277787	0.591194286	0.561118747	0.170753392
0.111407242	0.864636871	0.856217385	0.592077347	0.156219668	0.155643473
0.4103585	0.877711525	0.480886407	0.51769743	0.170713002	0.559329103
0.469840733	0.415691006	0.877343706	0.575359731	0.536110227	0.17052967
0.877678814	0.480935356	0.410267932	0.170803432	0.559484348	0.51737425
0.445400558	0.449220321	0.877342766	0.608469617	0.578271621	0.170602316
0.07480986	0.074969676	0.075064373	0.634303553	0.634538066	0.634673671
0.448206854	0.435901473	0.877423023	0.575495057	0.542581668	0.170634034
0.875807777	0.076044504	0.872260325	0.169759594	0.650587154	0.164932083
0.877387437	0.473437806	0.40406102	0.170473495	0.625870184	0.585951163
0.40157001	0.877692132	0.481190547	0.548301922	0.17059863	0.590281194
0.085735453	0.077386917	0.868883646	0.672988478	0.660877386	0.162521129
0.877443025	0.480811194	0.401375518	0.170359755	0.590073628	0.547623865
0.877442095	0.462015552	0.415453856	0.170542208	0.626219763	0.589610903
0.855591371	0.091322731	0.074186392	0.149334651	0.645670645	0.625590453
0.459673936	0.429653054	0.877682632	0.559718212	0.524382493	0.170630466
0.883980058	0.013705142	0.875677807	0.175659617	0.697262604	0.170648227
0.422295526	0.877607126	0.459253161	0.554791495	0.17031533	0.590617935
0.469843697	0.415677932	0.877342066	0.575364458	0.536116532	0.170531853
0.8715474	0.875326393	0.04728474	0.164837749	0.168702933	0.656974929
0.415684783	0.877421752	0.470020606	0.536152503	0.1705885	0.575466424
0.847390277	0.846563443	0.847463245	0.256908516	0.256591143	0.256636508
0.459735483	0.429573445	0.877671773	0.55986087	0.524427042	0.170799584
0.877458442	0.877354762	0.87759993	0.170631626	0.170523509	0.17067833
4.96345E-06	4.76517E-06	0.880961372	0.699148889	0.699388199	0.17523323
0.074137471	0.856285905	0.091137008	0.62598134	0.149278961	0.645749145
0.205548902	0.825439355	0.218590298	0.583015376	0.119048627	0.610009361
0.877581243	0.470337471	0.419753292	0.170807157	0.559762788	0.520892728
0.87496184	0.065197539	0.871373992	0.168769615	0.652968347	0.164556202
0.882888618	0.054273901	0.875281313	0.175302703	0.690528309	0.170560055
0.877370293	0.484168208	0.399342628	0.170591975	0.608764293	0.566102292
0.528158261	0.515001249	0.877605145	0.563452429	0.533673981	0.170922514
0.083507049	0.076039936	0.855028478	0.648369101	0.627636348	0.1486483
0.083997976	0.869293733	0.080228347	0.664845909	0.16260377	0.677335797
0.081012209	0.078689518	0.868893756	0.674192132	0.662241252	0.162471213
0.078605913	0.869026375	0.085995818	0.66086316	0.162492619	0.673546836
0.877282358	0.436476637	0.444923046	0.170467039	0.591844785	0.562305035
0.877505515	0.448134626	0.435975795	0.170644331	0.575722677	0.542781061
0.393191964	0.877996455	0.485056862	0.582595144	0.170794469	0.625475719
4.91682E-06	4.89022E-06	0.880880243	0.69900958	0.699339724	0.175423925
0.876895206	0.473187383	0.403820374	0.170381818	0.625878553	0.585959281
0.443949527	0.450075267	0.877258911	0.609082441	0.57872798	0.170533547
0.876781337	0.473425398	0.508157225	0.169836719	0.559645658	0.531264899
0.446357553	0.877367806	0.437076452	0.546075632	0.170621413	0.575726657
0.84155117	0.113689499	0.100477392	0.13505582	0.625707826	0.600563113
0.826066	0.146890294	0.129317786	0.119131255	0.60292803	0.574173748
0.448121577	0.435963269	0.877387856	0.5755719	0.54280025	0.170600538
0.862642388	0.864299609	0.863649367	0.218857501	0.218877848	0.219347011
0.446298291	0.877254744	0.437024031	0.546060938	0.170584862	0.575747907
0.883263842	5.49528E-06	0.875245521	0.175090263	0.699438331	0.170135627
4.86546E-06	4.89645E-06	0.881054457	0.699357239	0.699373776	0.175226196
0.427038484	0.877518344	0.450465235	0.593081598	0.1704671	0.626543226
0.046678101	0.872239183	0.874141617	0.658865154	0.164726164	0.168071585
