Vam	Vbm	Vcm	Iam	Ibm	Icm
0.448230653	0.435995744	0.877536238	0.575551748	0.542724257	0.170613576
0.071642369	0.855229214	0.079637451	0.627617861	0.149091815	0.647872207
0.877298181	0.473087146	0.410292602	0.17059592	0.608868352	0.569298072
0.081792489	0.866926426	0.864937676	0.620974476	0.159410113	0.161600124
0.855798274	0.065672272	0.078632299	0.148986644	0.652785359	0.633068962
0.87759961	0.462094605	0.415531885	0.170600079	0.626208574	0.589661992
0.448010366	0.432644668	0.877507585	0.591023398	0.558275076	0.170523365
0.267196913	0.280262342	0.82674916	0.615728518	0.58951368	0.118864854
0.866070758	0.081814152	0.866830259	0.161721941	0.621214019	0.159663551
0.846961624	0.846868825	0.84739794	0.257350296	0.257008811	0.256974951
0.068031658	0.07941308	0.855913561	0.651963292	0.632351831	0.148918887
0.071144293	0.854624606	0.068815689	0.629432247	0.148848012	0.649832506
0.876994855	0.461790547	0.415231271	0.170674855	0.626213774	0.58965327
0.825989157	0.229090622	0.234079282	0.119290286	0.607156082	0.581543824
0.846315431	0.846415039	0.846169955	0.25675026	0.25701057	0.256736922
0.067697609	0.067660605	0.067994129	0.636519397	0.636448867	0.636829375
0.414130795	0.877348517	0.47479981	0.569189829	0.170491769	0.608787358
0.881003639	0.014146103	0.014331422	0.175198256	0.696268054	0.697306874
0.013764219	0.014399697	0.014346843	0.69690473	0.696595623	0.697225069
0.081541796	0.866936827	0.865631141	0.621471664	0.159301249	0.161714575
0.865550076	0.095590225	0.866056689	0.162351933	0.617284345	0.158867072
0.865479495	0.855564069	0.107791754	0.157086246	0.15526673	0.593658363
0.047501493	0.872359647	0.874291764	0.658394213	0.164869098	0.168437207
0.877193972	0.448647031	0.439477786	0.170439818	0.559865949	0.527619266
0.884604131	0.013707608	0.876700727	0.17595727	0.697376194	0.171071039
0.859707464	0.846335334	0.154004959	0.152358333	0.151491504	0.560774691
0.864325583	0.862701446	0.863569684	0.219414519	0.218430392	0.219235048
0.432932515	0.877232162	0.447680013	0.558049869	0.170403342	0.590400345
0.877357838	0.473376251	0.410025684	0.170610398	0.608775602	0.569086069
0.027512551	0.02837985	0.027887463	0.694972041	0.694913018	0.695328222
0.458962913	0.425835233	0.877426555	0.575560554	0.53946629	0.170559677
0.099776365	0.08197936	0.869020426	0.668359444	0.656581851	0.162787861
0.071707456	0.06571615	0.085626902	0.669931791	0.670086488	0.670446716
0.425534745	0.877420394	0.464176356	0.573577379	0.170575299	0.609860517
0.083349151	0.083785209	0.083871852	0.632380703	0.632163256	0.632473082
0.059414196	0.042793383	0.076374922	0.67497235	0.674979904	0.676446855
0.092726974	0.099673927	0.841437451	0.629610488	0.604165271	0.13479538
0.486396204	0.402583206	0.877528934	0.608505801	0.565516205	0.170505283
0.392840099	0.877267078	0.484679401	0.58249895	0.170653425	0.625183048
0.095506578	0.867027467	0.866370828	0.617438788	0.159268873	0.162443994
0.883428894	5.49755E-06	0.876331946	0.175646621	0.699299047	0.170867415
0.131439501	0.125369677	0.098530403	0.610365956	0.610090261	0.614640762
0.027339111	0.076713996	0.076676889	0.678805908	0.679752556	0.679462353
0.0749785	0.074884677	0.075250345	0.634200544	0.63452266	0.634584002
0.826757863	0.193207731	0.192614226	0.119490708	0.611572611	0.579873183
0.823822061	0.822497096	0.821512385	0.298593312	0.29878837	0.298751342
0.13540191	0.127618863	0.826662687	0.604136261	0.575644776	0.119407214
0.126260994	0.122179693	0.200409659	0.617117162	0.619659681	0.618313638
0.821725804	0.823634922	0.823262809	0.298213998	0.298845341	0.298970503
0.154033987	0.859221454	0.847737985	0.560849549	0.152089421	0.151404636
0.125252011	0.103104461	0.841902648	0.623632889	0.598657219	0.135190517
0.080315744	0.206541754	0.211355642	0.620366866	0.621829898	0.625793089
0.435958243	0.877475347	0.448174146	0.542795145	0.170587884	0.575716498
0.046995277	0.872010122	0.87384812	0.658994371	0.164737274	0.167983219
0.092577057	0.08015774	0.869094031	0.669534873	0.656663064	0.162689811
0.409940238	0.876889254	0.480491513	0.517539221	0.170598461	0.559283447
0.855382404	0.116659412	0.864310568	0.155611968	0.590275617	0.15553259
0.877500777	0.462046398	0.415481543	0.170622372	0.626224755	0.589629776
0.876900368	0.483498525	0.495309892	0.169945932	0.559897306	0.531051923
0.869064712	0.08007104	0.077761759	0.162583637	0.674911952	0.662529154
0.856401856	0.123113887	0.863532039	0.156300335	0.588357857	0.155331754
0.876160719	0.882892572	0.054280065	0.170556282	0.174900206	0.690573445
0.401566983	0.877326243	0.487328564	0.564596372	0.170537108	0.607678363
0.077485924	0.080411351	0.868751327	0.676990255	0.665953174	0.162415889
0.841659427	0.092785364	0.09989372	0.134888019	0.629358696	0.604284628
0.01409775	0.014245594	0.881481451	0.696965319	0.69734365	0.17559501
0.071564617	0.856712038	0.068841972	0.629634875	0.149479522	0.649839071
0.438861497	0.438856897	0.877743809	0.626590939	0.596519092	0.170753714
0.071721017	0.855977434	0.079672869	0.627728353	0.149153692	0.647829488
0.872222713	0.874641483	0.046689868	0.164753879	0.168631114	0.659023253
0.875587684	0.065217011	0.872508685	0.168794195	0.652799839	0.164924172
0.077228363	0.867907158	0.865069735	0.623264194	0.160000251	0.161440646
0.141472954	0.133503653	0.098496016	0.610732237	0.611280031	0.614074486
0.125174578	0.103217741	0.841726072	0.623581114	0.598477672	0.135318809
0.082632518	0.855233151	0.067789488	0.631831774	0.148829165	0.653071978
0.146786941	0.130552135	0.825773806	0.604125495	0.575596945	0.119347634
0.014078163	0.013930986	0.881331425	0.696865415	0.697165066	0.175505026
0.882078695	0.041119095	0.040808436	0.17565337	0.692230454	0.692455401
0.867455269	0.104112572	0.866348448	0.162963662	0.61531546	0.158893706
0.223285267	0.826498348	0.224703597	0.5834641	0.119253645	0.612627561
0.877472014	0.480555466	0.405801493	0.170587963	0.575352555	0.532971991
0.161406596	0.09032311	0.162152149	0.61967756	0.616337701	0.621664183
0.154069481	0.858418784	0.845832882	0.560892245	0.151834744	0.151067773
0.865209749	0.854184787	0.107725984	0.157176897	0.154991358	0.593950952
0.450243302	0.426821523	0.877079254	0.626466977	0.593096442	0.170600388
0.067618634	0.067636313	0.0677615	0.63658767	0.636526874	0.636893774
0.87732067	0.439694843	0.443578109	0.170568721	0.608795046	0.578559755
0.865032573	0.85461886	0.111435506	0.155757195	0.154277639	0.591917485
0.877470569	0.448121651	0.435959088	0.17063884	0.575718265	0.542865662
0.877217419	0.473357449	0.403970933	0.170476642	0.625909751	0.585978796
0.141781299	0.860357113	0.844220867	0.564673194	0.152971113	0.149024379
0.861070682	0.844525616	0.141750673	0.153658438	0.149739153	0.564685715
0.410001062	0.877153676	0.480684817	0.517659359	0.170597711	0.55938713
0.876752783	0.438365905	0.438361179	0.170362963	0.626636831	0.596462872
0.14742515	0.860729403	0.845435654	0.562653474	0.153150682	0.15075036
0.865800641	0.855372575	0.107697581	0.157210098	0.155003436	0.593923958
0.877777308	0.448955631	0.439740244	0.170817669	0.559679518	0.52778714
0.048077294	0.872092121	0.874341011	0.658817618	0.165206348	0.168385726
0.393084556	0.877766425	0.484932622	0.582466963	0.170700234	0.625157257
0.882920923	0.040849395	0.876772114	0.175384135	0.692824437	0.171178413
0.086009804	0.077543424	0.869262394	0.672669861	0.660525829	0.162540843
0.877474264	0.448752253	0.439641937	0.170544732	0.559877883	0.527659794
0.074959403	0.074830063	0.074993978	0.634219551	0.634300781	0.63478088
0.04813686	0.045404943	0.052120687	0.655985373	0.656289934	0.656455574
0.425533243	0.877418414	0.46417626	0.573571396	0.170575212	0.609835077
0.405890836	0.877584251	0.480750708	0.532927494	0.170608794	0.575334737
0.40152253	0.877258321	0.48077794	0.547973606	0.170051032	0.58958346
0.859658821	0.846566197	0.153974046	0.152400192	0.151520948	0.560979664
0.865043658	0.85426348	0.111457073	0.156022747	0.154567097	0.591921645
0.066642659	0.052356026	0.080637088	0.672976685	0.672842474	0.674412585
0.859184341	0.84666406	0.153994017	0.15242099	0.151540573	0.561049345
0.081004327	0.07912542	0.869031652	0.674259852	0.662215383	0.162526681
0.06775867	0.067658226	0.067966169	0.63641942	0.63652591	0.63669438
0.877394954	0.480590534	0.405684616	0.170587053	0.575063841	0.532685022
0.826910871	0.191372811	0.197369788	0.119396783	0.611651588	0.579724661
0.128244838	0.123091966	0.204185425	0.617520401	0.619159461	0.618201153
0.414100352	0.877305658	0.474857174	0.568866102	0.170592329	0.608345741
0.071764397	0.855212733	0.079624954	0.627621331	0.149050292	0.647833758
0.053979187	0.051362245	0.057262634	0.654164066	0.654167329	0.654106341
0.841999635	0.103086576	0.099196043	0.134890246	0.627915008	0.602500064
0.076046314	0.87097396	0.874769431	0.650557481	0.164496627	0.168593386
0.86507791	0.863290233	0.863496705	0.219933408	0.219192216	0.21920912
0.450549984	0.427127734	0.877692144	0.626360931	0.593169068	0.170690369
0.43589931	0.877378201	0.448157238	0.542829095	0.170599437	0.575788761
0.027926513	0.882152817	0.028426791	0.694905894	0.175534784	0.69590673
0.083541142	0.076096323	0.855328337	0.648554327	0.62761192	0.148916547
0.104028328	0.865999634	0.867118955	0.615460813	0.158837871	0.16282256
0.091254428	0.07472998	0.855935865	0.645863331	0.625855128	0.149301777
0.877188593	0.473334677	0.40396581	0.170384703	0.625817819	0.585940967
0.450484496	0.427057942	0.877557128	0.626451249	0.593118113	0.170565032
0.885041446	0.027326587	0.877478949	0.175530075	0.695223711	0.171124618
0.470479067	0.419876191	0.877852211	0.559612791	0.521023114	0.170694767
0.877402287	0.461991348	0.421696825	0.170583381	0.608142993	0.571669062
0.87459039	0.076011334	0.870863094	0.168952324	0.650501238	0.164435237
0.027488882	0.028155423	0.027888546	0.695268751	0.694873819	0.695291979
0.446367326	0.877391321	0.437089739	0.546085788	0.170584125	0.575747691
0.844980165	0.137283532	0.861538098	0.149338703	0.566307387	0.154829912
0.241412224	0.82616761	0.238337985	0.585473214	0.118656236	0.611537527
0.216012631	0.205789175	0.825438498	0.60896013	0.580281203	0.118667301
0.877161168	0.458877225	0.421898187	0.17028177	0.59076397	0.554710821
0.881594227	0.041174979	0.040794461	0.175148476	0.692457164	0.692901633
0.426203408	0.877461234	0.46401872	0.573100681	0.170573564	0.609637588
0.877465401	0.462026562	0.415466237	0.170544133	0.626225263	0.589608298
0.147244765	0.128676512	0.826250066	0.604044286	0.575661314	0.119391046
0.877442466	0.459116073	0.42558253	0.17059472	0.575794859	0.53965017
0.067755683	0.06765823	0.067957329	0.636350495	0.636524312	0.636718025
0.878172827	0.459906508	0.429899777	0.17057604	0.559822905	0.524415867
0.877319905	0.451069174	0.432417149	0.170504477	0.608594309	0.575172081
0.867371228	0.865820545	0.087836915	0.15947962	0.161722713	0.619655477
0.877382417	0.484749181	0.392883865	0.170475123	0.625281079	0.582609364
0.877442183	0.473044407	0.410328167	0.170631039	0.608984239	0.5694121
0.448691444	0.439546963	0.877320497	0.559828777	0.527660954	0.17047161
0.86015862	0.844772849	0.14747605	0.152829171	0.150584992	0.562810116
0.87201676	0.875383976	0.047289675	0.165192878	0.169099464	0.656968523
0.077526243	0.081287169	0.868681269	0.676732734	0.665835637	0.162431249
0.866916397	0.867230014	0.104003975	0.159329407	0.163070504	0.615312603
0.875397221	0.055331426	0.871144804	0.168469964	0.654912197	0.163926174
0.884254652	0.027324463	0.875317814	0.175773651	0.695156983	0.170522176
0.062583602	0.062385655	0.062430192	0.638379506	0.638416715	0.63846436
0.4327057	0.878020219	0.448717022	0.55820192	0.170397677	0.590604203
0.514865515	0.52989646	0.877306326	0.561881688	0.532691892	0.170557908
0.084347527	0.076141636	0.856235909	0.647617064	0.6281745	0.149156239
0.877308603	0.437060794	0.446315976	0.170613292	0.575741158	0.546094501
0.881085829	0.027789495	0.02766673	0.175612387	0.694840383	0.695166588
0.091905325	0.07783909	0.86917449	0.671977873	0.657703616	0.162569088
0.047211794	0.870354633	0.873702734	0.656984098	0.164525352	0.168318074
0.874621276	0.874218622	0.873362664	0.188840977	0.189198468	0.188746288
0.113775581	0.100274376	0.84171201	0.625852989	0.600535928	0.135060274
0.84527485	0.147391577	0.860622421	0.150591519	0.562784613	0.153107067
0.861742568	0.861652236	0.863467104	0.218820065	0.218737761	0.219346043
0.465044434	0.424399896	0.877306235	0.60859102	0.571838326	0.170524988
0.877433795	0.448697636	0.439663681	0.170751994	0.55991211	0.527504207
0.855658604	0.068938655	0.071368126	0.149185952	0.649729517	0.62973683
0.88331794	0.040856058	0.876253748	0.175241711	0.693034735	0.17064529
0.103350149	0.841890308	0.125200598	0.598163258	0.135206409	0.62337739
0.046046567	0.047838412	0.051532251	0.657000931	0.658306193	0.658459006
0.0788096	0.855454243	0.10296084	0.623776795	0.149372595	0.643313876
0.405761151	0.877341539	0.480616543	0.532993988	0.17049844	0.575350752
0.135273974	0.828190843	0.140727815	0.577007017	0.119383727	0.605189562
0.07715295	0.867586033	0.865539242	0.623128853	0.160007763	0.161538456
0.846317313	0.846051227	0.845530417	0.256717538	0.256938109	0.256739298
0.081800065	0.868986403	0.092746504	0.656756132	0.16261639	0.670500675
0.877767362	0.447997445	0.432991733	0.170646607	0.591229557	0.558606578
0.103267073	0.099201019	0.841465959	0.627610944	0.602563916	0.135012962
0.867087983	0.866942869	0.087817793	0.159359303	0.162128966	0.619394486
0.071705912	0.065758173	0.085493715	0.670345816	0.670037144	0.670619668
0.841657278	0.083351745	0.102241214	0.134788815	0.631055766	0.605957371
0.448161039	0.432778077	0.877787416	0.591028081	0.558189824	0.170845128
0.866162698	0.095717703	0.866828954	0.162134884	0.617366882	0.159367942
0.01375294	0.014512758	0.014688282	0.697148381	0.696484666	0.697092082
0.862387648	0.845421799	0.137107149	0.154603077	0.149503392	0.566247669
0.514438756	0.524282582	0.87777924	0.557637212	0.528852905	0.170359249
0.435189534	0.877365415	0.455219956	0.576191936	0.170556176	0.609816634
0.126325078	0.825024892	0.144034063	0.575118165	0.118992235	0.603679988
0.872186108	0.873269679	0.046510655	0.165163278	0.168136229	0.658930015
0.448777043	0.43960245	0.87747594	0.559720666	0.527805392	0.1705482
0.877422077	0.461855893	0.421824646	0.170554099	0.60819787	0.571847267
0.425559964	0.877312402	0.459085953	0.539557422	0.170553288	0.575618499
0.873527921	0.055328551	0.869963894	0.167902463	0.654787204	0.1643641
0.862150595	0.846130488	0.141703272	0.153943107	0.149898306	0.564595796
0.855640906	0.079878057	0.071527946	0.149287217	0.647681366	0.627766189
0.072060799	0.070029069	0.074061235	0.649518474	0.64988998	0.64959469
0.445800916	0.877356306	0.437694312	0.562753513	0.170057769	0.592079797
0.06626116	0.052926571	0.081341994	0.67304785	0.672557073	0.67378418
0.825607016	0.146164462	0.129561473	0.119091795	0.603183498	0.574274554
0.877640559	0.470336381	0.419822761	0.170768746	0.559679291	0.520995854
0.480820396	0.410037377	0.877341571	0.559296954	0.51764645	0.170501178
0.868975538	0.092027127	0.078962527	0.162583078	0.671894917	0.660041562
0.881469095	4.83944E-06	4.91484E-06	0.175261476	0.698873225	0.699578536
0.877600295	0.459645916	0.429604092	0.170599451	0.559816264	0.524298962
0.873796227	0.873581441	0.874189766	0.188603374	0.188738004	0.188820534
0.88246481	0.02750313	0.027275687	0.175573019	0.69455234	0.695069395
0.866816229	0.104341635	0.867227329	0.16270749	0.615257927	0.159097258
0.867614173	0.866635533	0.077299636	0.159995102	0.161466535	0.622835572
0.8774898	0.469937831	0.411663601	0.170477186	0.590386957	0.551707581
0.843383322	0.137260026	0.860448171	0.148466702	0.566256297	0.153796657
0.080939143	0.07862986	0.868911741	0.67418809	0.662274163	0.162477092
0.055298973	0.870651268	0.873518699	0.654948142	0.164177283	0.168219054
0.099548562	0.082505839	0.868839404	0.667635819	0.655753656	0.162761794
0.825959972	0.229103065	0.242446539	0.119058478	0.610014756	0.582082303
0.054890151	0.054530493	0.055179597	0.68990479	0.69015906	0.690082274
0.054275382	0.876086503	0.882765191	0.690575969	0.170976403	0.175366365
0.06523415	0.87187236	0.875206541	0.652611002	0.164611166	0.1686674
0.040773546	0.881311606	0.040979563	0.693049442	0.175518955	0.692335524
0.855488277	0.06588879	0.078370243	0.148993463	0.65235096	0.632226109
0.881867929	0.04108838	0.040856748	0.175345732	0.692540908	0.692435129
0.881547183	4.88169E-06	4.85004E-06	0.175194774	0.699401053	0.699085721
0.87611603	0.882884254	0.054278575	0.170560276	0.17492838	0.690554608
0.857421016	0.116688476	0.865341026	0.156022534	0.590361757	0.156054065
0.099217486	0.841170314	0.102939018	0.602591588	0.135002437	0.627678735
0.134591996	0.124455422	0.825345721	0.605793647	0.57725049	0.118284396
0.855507423	0.111550501	0.864927105	0.155553335	0.592257145	0.156600951
0.877376332	0.439195664	0.44457169	0.170551136	0.609386699	0.579264206
0.072283195	0.069914373	0.07428802	0.649627749	0.649816405	0.649850665
0.425559979	0.877312411	0.459085954	0.539557426	0.170553288	0.575618493
0.82592577	0.145642163	0.128601452	0.11941236	0.603428044	0.574661699
0.054272859	0.881776309	0.054588301	0.690540607	0.175266929	0.690378061
0.410429424	0.878003843	0.481092997	0.517575047	0.170957513	0.559378139
0.055016297	0.054551358	0.055218494	0.689803104	0.690398245	0.689971975
0.855886023	0.079918058	0.071556727	0.149310617	0.64787939	0.627812858
0.874745138	0.065191467	0.871923372	0.168736717	0.652965003	0.164529054
0.86748064	0.866452266	0.081547513	0.159615501	0.161709754	0.621402041
0.08026752	0.206355228	0.204817716	0.619904452	0.618783987	0.62220547
0.146974815	0.129623704	0.825817824	0.604213811	0.57545248	0.119237777
0.09921475	0.841755601	0.103132527	0.602391828	0.135164219	0.627929745
0.82383601	0.822395738	0.821519362	0.298605396	0.298782441	0.298748975
0.856255136	0.123049696	0.864124273	0.156564233	0.588447737	0.155649643
0.822455395	0.823537304	0.824704532	0.298644656	0.298640955	0.298954098
0.08435194	0.076072901	0.855773072	0.647615892	0.628151634	0.149376281
0.108107658	0.865667531	0.854489817	0.593523299	0.156426746	0.154673672
0.100251588	0.84211506	0.114146722	0.600678565	0.135101868	0.625893373
0.439789021	0.877841183	0.448960896	0.527810036	0.170862459	0.559733056
0.486596973	0.402324962	0.877494042	0.608473124	0.56548284	0.170511994
0.084107425	0.868809933	0.093869058	0.655264106	0.162775008	0.668583405
0.480941611	0.410335308	0.87774476	0.559478901	0.517477619	0.170816441
0.027456694	0.076637783	0.076654627	0.67878998	0.679765519	0.679459771
0.464669781	0.424901885	0.877331202	0.607077397	0.570452477	0.170526591
0.859669291	0.846580225	0.153993581	0.152523356	0.151659798	0.560882292
0.448454098	0.87732287	0.444864486	0.578579048	0.170609117	0.608822828
0.863525226	0.86487725	0.863416953	0.219073778	0.220070643	0.219348761
0.85926622	0.846788425	0.154023054	0.15240707	0.151562323	0.560802312
0.882054402	0.04116186	0.04084797	0.175232958	0.692536665	0.692608955
0.825783754	0.297656755	0.307019385	0.118611953	0.612530037	0.585254262
0.092719269	0.099741275	0.841415533	0.629576304	0.604211281	0.13483557
0.872324603	0.87434764	0.055313262	0.164534126	0.168310528	0.654976706
0.074946802	0.077697249	0.854762208	0.650337924	0.629223063	0.148632942
0.877299463	0.439008159	0.444207335	0.170576076	0.608718242	0.578482266
0.841465784	0.113648891	0.100471777	0.135173597	0.625538162	0.600438066
0.873943992	0.872863567	0.873111299	0.188909885	0.188944012	0.188439571
0.439658652	0.877560024	0.448818084	0.527576674	0.170624244	0.559853805
0.864810653	0.854807332	0.111382833	0.155942254	0.15491718	0.59220559
0.873879944	0.055305668	0.872042468	0.168522425	0.654731782	0.1649609
0.876475279	0.485519869	0.494122301	0.169867259	0.558336248	0.52961053
0.165352392	0.091680091	0.177902352	0.612539351	0.615933924	0.618351903
0.116447475	0.114624486	0.177899502	0.61721356	0.620254636	0.619667301
0.445916215	0.447860174	0.877275971	0.608688804	0.578365529	0.170541717
0.088014873	0.867113975	0.866339126	0.619164071	0.159463194	0.1623149
0.877442201	0.469902519	0.415553197	0.170540984	0.575412581	0.536148392
0.877355135	0.437073792	0.44634826	0.170616446	0.575715481	0.546065087
0.877304825	0.437056665	0.446315867	0.170599078	0.575730713	0.546089126
0.477330539	0.412390236	0.877355669	0.609038506	0.569478327	0.170585033
0.875781875	0.88265457	0.040861692	0.170320253	0.17494003	0.693129128
0.856874526	0.116624058	0.86550038	0.156126658	0.590351938	0.155981727
0.882376797	0.041148132	0.040808871	0.175664497	0.692287857	0.692473711
0.027487964	0.076982621	0.077005588	0.678735502	0.680100002	0.678537432
0.883073332	0.054267081	0.876079669	0.175178255	0.690444358	0.170568885
0.863941173	0.855688657	0.116717961	0.15578871	0.155596961	0.590348125
0.083080023	0.86920439	0.07942166	0.664531473	0.162601329	0.67760454
0.062494589	0.062491488	0.062385363	0.63877342	0.638610618	0.638672533
0.445403595	0.449212168	0.877343193	0.608469305	0.578272096	0.170602248
0.246142449	0.826173148	0.242458464	0.584673048	0.118700612	0.611731066
0.855732257	0.066221253	0.078996788	0.149072833	0.652493618	0.632132075
0.129357068	0.825832534	0.146049466	0.574235139	0.118631851	0.603627252
0.11151877	0.864632537	0.855862691	0.592149589	0.156371331	0.155372381
0.103948505	0.866738514	0.866915712	0.615464497	0.158858296	0.162865776
0.454792321	0.436194492	0.877392616	0.60930777	0.57597653	0.170605692
0.882595093	0.027325746	0.876652928	0.175342162	0.695186078	0.171041241
0.822923864	0.823320917	0.82294104	0.298262346	0.298614041	0.298321327
0.845477164	0.141836614	0.860744579	0.150204515	0.564541268	0.153854183
0.876817398	0.473152629	0.403776962	0.170377001	0.625927995	0.585984488
0.877085041	0.884700751	5.49654E-06	0.171108834	0.175726497	0.699357182
0.077630872	0.869166359	0.085923895	0.661228867	0.162585384	0.673568946
0.874044383	0.872260346	0.872788721	0.188766982	0.188799972	0.188489169
0.86916666	0.091752293	0.078693209	0.162602751	0.672946719	0.659714553
2.75319E-06	2.99185E-06	2.9578E-06	0.699191639	0.699306511	0.699214782
0.255631473	0.825509417	0.242909904	0.584847379	0.118733732	0.612851613
0.855938405	0.107958372	0.865099514	0.15495419	0.59387883	0.156553637
0.014261459	0.881152618	0.014380134	0.697158525	0.175159547	0.697414545
0.054289003	0.876142236	0.88286437	0.690758676	0.170833167	0.174972072
0.869090999	0.079681823	0.077380027	0.162577303	0.67489697	0.66250098
5.49502E-06	0.875594797	0.881982394	0.699185662	0.170791565	0.175305399
0.459017973	0.425630634	0.877265985	0.575655141	0.539541032	0.170543567
0.87222454	0.874535144	0.065198148	0.165156311	0.168646386	0.652694449
0.877287708	0.473103	0.410234975	0.170584005	0.608832058	0.569232815
0.475875486	0.413526334	0.877566738	0.608082653	0.568547024	0.17058399
0.071380178	0.855495465	0.06882016	0.629727056	0.149076789	0.649625451
0.883852502	5.49528E-06	0.874986593	0.175292854	0.699214737	0.170041497
0.04853176	0.87190313	0.87435299	0.658767644	0.165014712	0.168207519
0.87767823	0.480935229	0.410267449	0.170803356	0.559484261	0.517374216
0.083055001	0.080428688	0.868872392	0.674393261	0.662682149	0.16257413
0.103527782	0.841634993	0.124987297	0.598151585	0.135190386	0.623260032
0.869024558	0.083387105	0.074580997	0.162541346	0.67138209	0.659171001
0.07203352	0.066037633	0.086828234	0.670537114	0.66994586	0.670788916
0.129289987	0.825882884	0.146089491	0.57426659	0.11869784	0.603632441
0.040865187	0.875590356	0.882610202	0.693232157	0.170510931	0.174651799
0.855635889	0.079881355	0.071533768	0.149293743	0.647701351	0.627717116
0.882859305	0.040852068	0.876536068	0.174845386	0.69289896	0.170761922
0.437734884	0.445717403	0.877682346	0.592889086	0.563333788	0.170855914
0.165095322	0.091753003	0.167509004	0.619728541	0.616589191	0.620257995
0.823034681	0.823313034	0.82310177	0.298256604	0.298621672	0.298228884
0.874397354	0.047120759	0.871835595	0.168230632	0.657002264	0.164935936
0.864714297	0.855845401	0.111436258	0.156154314	0.155028233	0.592130712
0.047205412	0.871098691	0.875562304	0.656665326	0.164038262	0.168423989
0.412352405	0.877820669	0.470100334	0.551683631	0.170685863	0.590701898
0.427043849	0.8775285	0.450470092	0.593079952	0.170668721	0.626533879
0.099069957	0.841767419	0.103179285	0.602432423	0.135086438	0.627805986
0.059711277	0.04316783	0.077219736	0.674741133	0.675133761	0.676686673
0.405976697	0.877421405	0.48045029	0.532710863	0.170644955	0.575226471
0.881610732	4.90806E-06	4.82393E-06	0.175261573	0.699291357	0.699278543
0.027324264	0.875532332	0.882834149	0.69516905	0.170322481	0.175098477
0.874421127	0.874184612	0.873783868	0.188838465	0.189275231	0.188751767
0.076048906	0.871013764	0.874743899	0.650552937	0.164503934	0.168716506
0.26530076	0.267986687	0.825871826	0.615114301	0.589956868	0.119136187
0.860661719	0.844848152	0.137069987	0.154432382	0.149271445	0.566209925
0.39317731	0.877951162	0.485026376	0.582395435	0.170673911	0.625533428
0.857044997	0.123084521	0.863779819	0.156706125	0.588431168	0.155839452
0.469956083	0.415612438	0.877372526	0.575350337	0.536111786	0.170538795
0.405774006	0.877296448	0.480653042	0.532946336	0.170485251	0.575249285
0.877074142	0.487444679	0.49695531	0.170048716	0.562290675	0.533219801
0.102267677	0.841749976	0.083363062	0.606022342	0.134728005	0.631473823
0.881653028	0.041106064	0.04076833	0.175238445	0.691915936	0.692599119
0.859832413	0.84561451	0.147462209	0.152742964	0.150724431	0.562789042
0.877401166	0.469897799	0.415504911	0.17053345	0.575552013	0.53624341
0.090470907	0.307785045	0.264715221	0.622463853	0.624103904	0.620053901
0.141756617	0.860640784	0.846083012	0.564528578	0.153117944	0.149481618
0.432864564	0.87745448	0.448003701	0.558434643	0.170574498	0.591532579
0.875736041	0.076056483	0.871041777	0.169458018	0.6504975	0.164787949
0.877309155	0.438903341	0.444417719	0.170567298	0.608854604	0.578616963
0.866913918	0.867164158	0.095467136	0.159562219	0.162587427	0.617463726
0.43465181	0.877369027	0.455524469	0.576288221	0.170626731	0.609944832
0.116654698	0.864197206	0.85577541	0.59046352	0.155561958	0.155827023
0.05428663	0.875917564	0.883064773	0.690732871	0.170942392	0.175171525
0.881001202	0.027704156	0.027483005	0.175197353	0.694958272	0.695294009
0.824508215	0.189717344	0.18427128	0.118728184	0.611608255	0.582000492
0.047565092	0.041880769	0.07296168	0.677938023	0.677659009	0.6804702
0.081095184	0.079128381	0.869031325	0.674372375	0.66223006	0.162508079
0.013756685	0.01445271	0.014465429	0.696958271	0.697348998	0.696937129
0.027327255	0.875917356	0.883570797	0.695241302	0.170524838	0.175388638
0.081380463	0.079515302	0.869168334	0.67392401	0.662086204	0.162536118
0.856934468	0.123080787	0.86400018	0.156724024	0.588428427	0.155849153
0.09566627	0.866717156	0.866953608	0.617336201	0.159192307	0.162645376
0.410295082	0.877657969	0.480900146	0.517597993	0.170542526	0.55934204
0.464808728	0.424453728	0.877390526	0.608082548	0.571488238	0.170513993
0.463948295	0.425453739	0.877447007	0.608058867	0.571451417	0.170512419
0.147435765	0.860909671	0.845955176	0.562721466	0.153173696	0.150755876
0.448134689	0.432729176	0.877714568	0.591089383	0.558145547	0.170658197
0.078981771	0.855429387	0.102969379	0.62372308	0.149390476	0.643310103
0.86384702	0.857475884	0.13037299	0.155454001	0.157346586	0.586503878
0.864722265	0.855373636	0.111438551	0.15649403	0.155001221	0.591971992
0.855901915	0.091254275	0.074307881	0.149300147	0.645668555	0.625835098
0.876622838	0.480381003	0.400991911	0.17020737	0.590193403	0.54814823
4.79073E-06	0.880964808	4.86375E-06	0.699378449	0.175035889	0.699208014
0.874935107	0.076019358	0.871251855	0.168970372	0.650527038	0.164406848
0.856198332	0.123053828	0.864091592	0.156576135	0.588423792	0.155669116
0.177947193	0.090528267	0.185798375	0.617391965	0.616877015	0.617501591
2.74562E-06	3.1381E-06	3.08052E-06	0.699247256	0.69915842	0.699407804
0.0869051	0.07916033	0.868933195	0.672028094	0.660788153	0.162558233
0.116756884	0.863838189	0.856213427	0.590312559	0.155606034	0.155893108
0.067265682	0.052116972	0.080848793	0.673002163	0.672777601	0.674391002
0.147418254	0.860296255	0.845478631	0.562749549	0.152749862	0.15030667
0.028600574	0.028454234	0.880850454	0.694554843	0.695196172	0.175211805
0.027449499	0.028334342	0.028137844	0.694907211	0.694870931	0.695054396
0.874308713	0.076031877	0.87194037	0.168960186	0.650584855	0.165078928
0.877385898	0.480740063	0.401413577	0.170240707	0.59018546	0.548030616
0.877530968	0.480495732	0.405899377	0.170562666	0.575388116	0.532952519
0.0816359	0.866778609	0.865471308	0.621464083	0.15926911	0.161636298
0.125215043	0.103080518	0.841838368	0.62364119	0.598634111	0.135170393
0.877277138	0.480728348	0.410088552	0.170678296	0.559421026	0.517385772
0.863879894	0.857218631	0.1230547	0.155496467	0.156322004	0.588377645
0.448806048	0.439610817	0.877508247	0.559619893	0.527800766	0.170555056
0.28172639	0.275986738	0.825574068	0.613622552	0.588186802	0.118712887
0.411931449	0.877370926	0.470106899	0.551387179	0.170151517	0.589986664
0.882083823	0.054603262	0.054123157	0.175636604	0.690286584	0.690356571
0.082133268	0.854587695	0.06660963	0.631243011	0.148533656	0.653176424
0.877167525	0.45029109	0.426861883	0.170631408	0.626415484	0.59327509
0.861986387	0.845166212	0.137105696	0.15459629	0.149497902	0.566257483
0.071776451	0.85581771	0.07969196	0.627476023	0.149406112	0.647750437
0.841592814	0.113695035	0.100405473	0.135175028	0.625654274	0.600446817
0.448788262	0.877347846	0.444320266	0.578528161	0.170591876	0.608740447
0.027463376	0.02789657	0.027933663	0.695007658	0.695149439	0.695189375
0.014353572	0.881151836	0.014343394	0.697130019	0.175155894	0.6974247
0.074329159	0.855391991	0.091169597	0.625635829	0.149468476	0.645617215
0.411739526	0.877088328	0.469985186	0.551479655	0.170162031	0.590051516
0.877481698	0.437470398	0.443992321	0.170440824	0.590794262	0.561189036
0.881671669	0.05456297	0.054152747	0.175398429	0.689876095	0.690351657
0.877610952	0.459622448	0.429633748	0.170857055	0.559897496	0.52435771
0.405875187	0.877409194	0.480611712	0.532721605	0.170534317	0.575166301
0.877736557	0.437655855	0.444204894	0.170500448	0.591326033	0.561801868
0.876045886	0.065210374	0.873147016	0.169260197	0.652830041	0.164846736
0.401522672	0.87724726	0.480747573	0.547961911	0.170065257	0.589556858
0.055338036	0.872406784	0.874762597	0.65498306	0.164739136	0.168547348
0.880863039	0.027641098	0.027599095	0.174918278	0.694890687	0.695144171
0.027325233	0.876596491	0.882800715	0.695193965	0.170361853	0.175181806
0.882657861	5.49553E-06	0.874428219	0.175113687	0.699407455	0.170121369
0.855105366	0.091399984	0.074396471	0.149137554	0.64567193	0.625499202
0.437070251	0.446327617	0.877330846	0.575744042	0.546063443	0.170606039
0.876751817	0.883708491	0.040855307	0.171084841	0.175443487	0.69297588
0.041041697	0.041388288	0.04151895	0.692155934	0.692690769	0.692276352
0.883611617	0.013711285	0.876752547	0.175413131	0.697629764	0.170678854
0.06255905	0.062410482	0.062461158	0.638534547	0.638329646	0.638522051
0.081918261	0.079622102	0.869224012	0.673577264	0.661776497	0.162571881
0.868903269	0.099635342	0.083223741	0.162839433	0.667192709	0.654892078
0.855792665	0.069077495	0.071366948	0.149142886	0.649625548	0.629649505
0.425525271	0.877321068	0.459117011	0.539633784	0.17055032	0.575671339
0.875382315	0.882408573	0.040862298	0.17010024	0.174520389	0.693115836
0.163811567	0.091198859	0.168294011	0.618235684	0.616350661	0.621944483
0.079722479	0.869309079	0.082826029	0.662757335	0.162500183	0.674867873
0.876702238	0.450055868	0.426631491	0.170480021	0.626571481	0.592997178
0.419641494	0.877201173	0.470073245	0.521103766	0.1706423	0.559663816
0.111391121	0.864854551	0.856097473	0.592081989	0.156245124	0.155658902
0.080469013	0.20402395	0.202297938	0.620293404	0.621087292	0.624032707
0.083396191	0.102239164	0.841712798	0.631238708	0.606090286	0.134711798
0.438549167	0.438544395	0.877119344	0.626597305	0.596436131	0.170515877
0.844814708	0.133706891	0.862313237	0.148158659	0.567777919	0.155079832
0.825844962	0.227030883	0.22811282	0.119012101	0.608553694	0.581424362
0.486676441	0.401789012	0.87740131	0.607634326	0.564738783	0.170450666
0.862514224	0.844550024	0.13711785	0.154947523	0.149304613	0.566183656
0.401480072	0.877296445	0.480812667	0.547994358	0.170024711	0.589584816
0.048289653	0.041805575	0.073707797	0.677454235	0.677955085	0.679988336
0.041108532	0.041158335	0.041502934	0.69231018	0.692494426	0.692239613
0.87768071	0.448888372	0.439716059	0.170685097	0.559795733	0.527663396
0.111537724	0.864595895	0.856233809	0.592177507	0.156300861	0.155310348
0.875047006	0.065214083	0.872042273	0.168806746	0.652770329	0.164878789
0.445618212	0.448864075	0.877357065	0.608617783	0.578309627	0.170548598
0.075702702	0.869254173	0.084521118	0.661288157	0.162502548	0.673573724
0.446305682	0.877272312	0.437035343	0.546071672	0.170579256	0.575722071
0.040830707	0.881711582	0.041204065	0.692469878	0.175245603	0.69296393
0.205458517	0.209222211	0.825505238	0.610224793	0.582286662	0.11916496
0.873995801	0.874751075	0.874407512	0.188795356	0.189258099	0.18876413
0.855578671	0.103166403	0.078881753	0.149599389	0.643524399	0.623649775
0.060033487	0.060018462	0.05999794	0.64007057	0.640144832	0.640220864
0.862698573	0.864591421	0.86357527	0.219051492	0.219431109	0.21938198
0.080142383	0.207246577	0.205324088	0.620418056	0.62093621	0.624552781
0.882828601	0.054269714	0.875998385	0.175067339	0.690453154	0.170512143
0.054907762	0.051180953	0.057505175	0.653958441	0.654421458	0.655023739
0.125153808	0.103214898	0.841493085	0.623838525	0.598661337	0.135341626
0.826296052	0.195065825	0.191267787	0.118995877	0.607576258	0.578056051
0.074174448	0.855668361	0.091192448	0.625886886	0.149290372	0.645649029
0.426761464	0.876963489	0.450187099	0.592921095	0.170389405	0.626621056
0.86897034	0.08041575	0.077261059	0.16253127	0.674214593	0.663538125
0.46202511	0.415464221	0.877462321	0.626070319	0.589751368	0.17063353
0.825827325	0.225059298	0.227029679	0.119110299	0.608919927	0.582854518
0.10788669	0.865531228	0.855101476	0.593750663	0.156934456	0.154701284
0.878021525	0.448287175	0.432955699	0.170962523	0.591122782	0.558444528
0.842070442	0.125134187	0.103546525	0.135218864	0.623819606	0.598243896
0.874910585	0.076035017	0.871145812	0.168983936	0.650598216	0.164204008
0.410266902	0.877610732	0.480874172	0.517692902	0.170669671	0.559333373
0.841616111	0.113771347	0.100422565	0.1351098	0.625863469	0.600525901
0.222958316	0.82651016	0.218991542	0.581760462	0.119151207	0.61242661
0.095464493	0.866778578	0.866484655	0.617341993	0.159093601	0.16246859
0.470005988	0.411678996	0.877600624	0.590666269	0.551499893	0.170790914
0.40407996	0.877430067	0.47346139	0.586030579	0.170567824	0.6258924
0.464253524	0.877762199	0.447909577	0.530893236	0.171013048	0.559751555
0.086620185	0.077486767	0.868978427	0.672852002	0.660727146	0.162536349
0.823003292	0.823348516	0.823205989	0.29795203	0.29888754	0.298731234
0.072701582	0.065822568	0.087209325	0.670485047	0.669933452	0.670799997
0.415427819	0.877395332	0.46199486	0.589784397	0.170532494	0.62623842
0.866881255	0.866799374	0.095373127	0.159399464	0.162580635	0.617391225
0.448102686	0.432702326	0.877651312	0.590915766	0.558334115	0.170503907
0.462044522	0.415485968	0.877503374	0.626247407	0.589604877	0.170651892
0.877391295	0.484209339	0.39967815	0.170628774	0.607582893	0.564894248
0.857446766	0.130437602	0.863467354	0.156933527	0.586490336	0.154880197
0.874742789	0.883998069	0.013706894	0.170510896	0.175755229	0.697342019
0.862758779	0.863963555	0.862955982	0.219046134	0.219079176	0.219155535
0.090506795	0.301868593	0.257875109	0.62271895	0.626792912	0.621212954
0.876813646	0.882215632	0.013706173	0.171433722	0.175579646	0.69728917
0.102248272	0.841493842	0.08336726	0.605972804	0.134846394	0.631166854
0.846315378	0.846078837	0.845564731	0.256720216	0.256939445	0.256738423
0.076050547	0.871166293	0.87478671	0.65052584	0.164500051	0.168749476
0.048496067	0.871904308	0.874296814	0.658768017	0.164979348	0.16819754
0.868935511	0.08161451	0.072030253	0.162657662	0.673182975	0.66057979
0.45043558	0.427006933	0.877457206	0.626521828	0.593163226	0.170527447
0.08468589	0.076590579	0.854125972	0.646559084	0.62735288	0.148759562
2.76375E-06	3.15838E-06	3.04518E-06	0.699365406	0.699223882	0.699250069
0.877353743	0.439343237	0.443941721	0.170578003	0.608407486	0.578251754
0.028134944	0.028053247	0.882250893	0.694606614	0.695021866	0.175433236
0.470361553	0.419968857	0.877806672	0.559604963	0.521031258	0.170847909
0.876197315	0.883582607	0.040846279	0.170955797	0.17575847	0.692817186
0.877527194	0.448220283	0.435913331	0.170639738	0.575714649	0.542795922
0.46999836	0.41162981	0.877564765	0.590557436	0.551646471	0.169989679
0.885014486	0.013707398	0.877293144	0.17591644	0.697370038	0.171089023
0.872475432	0.87494486	0.065205711	0.165197979	0.168808135	0.652738891
0.082031111	0.855104023	0.067273854	0.63130442	0.149097078	0.653076972
0.864883489	0.863272372	0.863497734	0.219765332	0.219330975	0.219130153
0.065243018	0.871924123	0.875559911	0.652758927	0.165012219	0.169425153
0.43708344	0.446348478	0.877364031	0.575757296	0.546083722	0.170602925
0.874702099	0.076033878	0.871934799	0.168935383	0.65058664	0.165044456
0.874410342	0.873590528	0.873739742	0.188613332	0.188832389	0.188838303
0.081705069	0.866379737	0.865090096	0.621189749	0.159640825	0.161546664
0.877495791	0.480584455	0.405766535	0.170582411	0.575372204	0.532974351
0.823960022	0.823224649	0.824445086	0.299132484	0.298673883	0.298726572
0.877579449	0.480882048	0.401463697	0.170287791	0.590168759	0.547767539
0.071766172	0.070144884	0.073973808	0.6493681	0.649838615	0.649746097
0.877175467	0.438576914	0.438572215	0.170310764	0.626407394	0.596457474
0.083383643	0.102225702	0.841775895	0.631201736	0.606101388	0.134713108
0.87717758	0.448651662	0.439449197	0.17068632	0.559864607	0.527718154
0.845079755	0.137276947	0.861645504	0.149086415	0.566235663	0.154543849
0.392750593	0.877076491	0.484578763	0.582387915	0.170464937	0.625176824
0.027426897	0.027826061	0.02801135	0.694985852	0.695105928	0.695246194
0.454975999	0.436191382	0.877316461	0.609984985	0.576430175	0.170582517
0.877355288	0.43934567	0.443939308	0.170577673	0.608407166	0.578252513
0.093642998	0.337580068	0.28832712	0.622570832	0.626264189	0.622003005
0.869290514	0.090511507	0.078748738	0.162659059	0.672459946	0.658752588
0.435893246	0.87746576	0.448233765	0.542786469	0.170577903	0.575676282
0.855955966	0.107963344	0.865255383	0.154977085	0.593896005	0.156550363
0.866732255	0.866930067	0.104024899	0.159056942	0.162981737	0.615366576
0.047193277	0.871883543	0.875006115	0.657007908	0.16504227	0.16859018
0.1040602	0.866143504	0.867134721	0.615111844	0.158445714	0.162870741
0.434698091	0.877361908	0.455243917	0.576294867	0.170624079	0.610047824
0.877344536	0.484089253	0.399392009	0.170582077	0.608764606	0.566081891
0.412667549	0.877421525	0.476172176	0.568540496	0.170559597	0.608366171
0.078842086	0.855450781	0.102961655	0.623758692	0.149377603	0.643312502
0.822966636	0.823458377	0.825732927	0.298579855	0.298741487	0.298856525
0.040904256	0.880493414	0.041083941	0.692966611	0.175341771	0.692150664
0.102247949	0.841692281	0.083364263	0.60600809	0.134809684	0.63136851
0.480529718	0.405926138	0.877317007	0.575058605	0.532551637	0.170571822
0.411681693	0.877006226	0.469940248	0.55106377	0.170657439	0.589984444
0.877566286	0.484836671	0.392981136	0.170725913	0.625354548	0.582490143
0.868955523	0.08285219	0.072943971	0.162655902	0.673396489	0.66072579
0.072004826	0.07019369	0.074439802	0.649496508	0.649710229	0.650208228
0.437068494	0.446320586	0.877320916	0.575746398	0.546058449	0.170603149
0.438483276	0.445067831	0.87755148	0.590806525	0.561186844	0.170681633
0.146113794	0.1289627	0.826299147	0.603211267	0.574586725	0.11918586
0.876350631	0.884083383	0.05427884	0.170842267	0.175895327	0.690568207
0.126882209	0.825367101	0.144675958	0.574795414	0.11912183	0.603747046
0.877369144	0.4615902	0.422186112	0.170571052	0.609480083	0.573132248
0.080355934	0.206430196	0.200483671	0.619970672	0.620110743	0.622327612
0.475547493	0.413856809	0.877428027	0.607912231	0.568344009	0.170597172
0.084112813	0.075720999	0.854687927	0.647285227	0.627957154	0.148653113
0.87397897	0.050512437	0.871222856	0.167991521	0.658582053	0.165012306
0.877856508	0.877987549	0.877464041	0.171039548	0.170998445	0.170655154
0.093189435	0.338518128	0.289404943	0.622625528	0.628771291	0.623769914
0.411618342	0.877355928	0.470325872	0.551179102	0.17028918	0.589838131
0.450540192	0.427117116	0.877671793	0.6263602	0.593170732	0.170718216
0.877304337	0.461550686	0.422302289	0.170558756	0.60864479	0.572407512
0.438482639	0.445068322	0.877550652	0.590806658	0.561186321	0.170681748
0.874261042	0.87395055	0.873234556	0.188809641	0.1891737	0.188707242
0.123072919	0.120903103	0.09871549	0.613026058	0.611185692	0.614772211
0.415622565	0.877349689	0.469942073	0.535934575	0.170578311	0.575276789
0.42955592	0.877437687	0.459528255	0.524224324	0.170573422	0.559938425
0.084203109	0.869182173	0.080214607	0.664723907	0.162678811	0.677527309
0.102225317	0.841555271	0.083375414	0.606011305	0.134788956	0.631290208
0.054348423	0.051417737	0.056804802	0.654048743	0.654313766	0.65439552
0.481040182	0.410417467	0.877928947	0.559502961	0.517545756	0.170708313
0.469707401	0.411472975	0.877083229	0.590563483	0.551545083	0.170814463
0.07992393	0.08318592	0.868915012	0.675290709	0.663641869	0.162673069
0.866189207	0.095507967	0.865887898	0.162349522	0.617781226	0.15893182
0.865504941	0.863533485	0.863497341	0.219876799	0.219228061	0.219188074
0.079034304	0.855786329	0.102990512	0.623755164	0.149539639	0.643312434
0.392952284	0.877486904	0.484787075	0.582305442	0.170690473	0.625450213
0.013707207	0.875488304	0.883267863	0.697381688	0.170437196	0.175435715
0.147418239	0.860752886	0.845689953	0.562733083	0.152758408	0.150325271
0.869092153	0.083757763	0.075374005	0.162530178	0.67085033	0.65902426
2.74713E-06	3.14031E-06	3.07737E-06	0.699326159	0.699199437	0.699308093
0.415502417	0.877436912	0.470162574	0.536072367	0.170577099	0.575439433
0.877329973	0.877763501	0.877197165	0.17069057	0.171093904	0.170751117
0.8772026	0.438590568	0.438585832	0.170376875	0.626389245	0.596458308
0.446356981	0.877366745	0.437075986	0.54607488	0.170621349	0.575726314
0.083411547	0.102252138	0.841945707	0.631197141	0.605683759	0.134702916
0.114051159	0.100167215	0.84169304	0.625889878	0.600553021	0.135059499
0.067662649	0.067697093	0.067998539	0.636380903	0.63643262	0.636802581
0.877248066	0.461565933	0.422137763	0.170561668	0.608783704	0.572560096
0.392789052	0.877157194	0.484620247	0.582406637	0.170331658	0.625096235
0.068825166	0.079208334	0.855072011	0.651966083	0.632277515	0.148897883
0.076058403	0.871306782	0.874804732	0.650450164	0.164566915	0.168657516
0.881427767	0.054605691	0.054128779	0.175306074	0.690042247	0.69041606
0.087821008	0.866365427	0.865668371	0.619691505	0.158753065	0.16184346
0.85507677	0.079695872	0.071534869	0.149078593	0.647856325	0.627689198
5.49578E-06	0.875301395	0.885107836	0.699518336	0.170075433	0.175791869
0.414570118	0.877323206	0.474324555	0.568859105	0.170593769	0.608341136
0.877084649	0.469762774	0.411438221	0.170082098	0.590421703	0.551624595
0.475293232	0.414219333	0.877507317	0.607922425	0.568364265	0.170598311
0.06773722	0.067672493	0.067959734	0.636311775	0.636438986	0.636778464
0.099732911	0.841647398	0.092836968	0.604182682	0.134875889	0.629582533
0.854989227	0.091357305	0.074315055	0.149099923	0.645656776	0.625666604
0.873526806	0.872987888	0.87348907	0.188804608	0.188530538	0.188295092
0.884419995	0.040849105	0.877039585	0.175286081	0.692882802	0.170773787
0.247851621	0.825654823	0.237431836	0.584053358	0.118529288	0.610353425
0.154029117	0.859308976	0.847765071	0.560830969	0.151824654	0.151205637
0.866688094	0.866932629	0.095458047	0.159525392	0.162598213	0.617321905
0.877581413	0.470337494	0.419753418	0.170807304	0.559762672	0.520892838
0.102241337	0.84161003	0.083351041	0.606016045	0.13483807	0.631182479
0.856022399	0.066034349	0.078574726	0.149256712	0.652865824	0.631854372
0.048540907	0.045430009	0.053103144	0.656264071	0.656168659	0.656051585
0.429511051	0.877424251	0.459555464	0.524223491	0.170555274	0.559909144
0.084305439	0.075947723	0.855412735	0.647668821	0.628101672	0.149239704
0.863785161	0.856243594	0.116671777	0.155761936	0.155810023	0.590313678
0.875176769	0.882691763	0.02732822	0.170507876	0.174782129	0.695214894
0.877496989	0.878172017	0.877414458	0.171003378	0.17096739	0.170656123
0.86898084	0.082405008	0.073883542	0.162658317	0.672512395	0.660475929
0.091215782	0.078159709	0.869075316	0.671423172	0.65744235	0.162553326
0.865139608	0.865557779	0.863425356	0.219388062	0.219910831	0.219253294
0.078355429	0.868963689	0.08606973	0.661038727	0.162482346	0.673522965
0.845838379	0.147394481	0.86067648	0.150685418	0.562761438	0.153003555
0.410084745	0.877303489	0.480749834	0.517659353	0.170589014	0.55940076
0.461927354	0.415363127	0.877263709	0.626252983	0.589626273	0.170669713
0.074879997	0.076513146	0.855354269	0.649138491	0.629367594	0.149336153
0.860260925	0.846221034	0.147366333	0.153350097	0.151127724	0.56260716
0.876689582	0.882376537	0.054275868	0.170803372	0.175126947	0.690514085
0.448973754	0.877378383	0.44445792	0.578708282	0.170588726	0.608859464
0.825909425	0.145664839	0.128827246	0.119376061	0.603481916	0.574449677
0.09193814	0.309789022	0.264505698	0.622509119	0.623350392	0.61920359
0.071706634	0.85581988	0.079695447	0.627459489	0.149401608	0.647747513
0.246388572	0.826174287	0.242697713	0.584571907	0.118704647	0.611749388
0.867161472	0.864802263	0.077248651	0.159743622	0.161129292	0.623035696
0.877471638	0.450442483	0.427014318	0.170528144	0.626390545	0.593221375
0.438423915	0.876878544	0.438428637	0.596540598	0.169991541	0.626478984
0.133768118	0.8629466	0.843091403	0.567879666	0.155111863	0.147992427
0.877330808	0.448059951	0.43590026	0.170591448	0.575688557	0.542846508
0.841619283	0.083369628	0.102271684	0.134746349	0.631322317	0.605976319
0.877285949	0.469853507	0.411547598	0.170166519	0.590482349	0.551687015
0.51755073	0.521483506	0.878084978	0.564605177	0.535605984	0.17078901
0.111504658	0.864548497	0.855496374	0.592188423	0.156333911	0.15535207
0.855821358	0.065846974	0.079577116	0.149047483	0.653518989	0.632423733
0.013743497	0.014528574	0.014775056	0.697078198	0.696496166	0.69718346
0.863671214	0.856294474	0.116667163	0.15574331	0.155900388	0.590270646
0.135268386	0.127206318	0.826701691	0.604205869	0.575538752	0.11947753
0.85931594	0.846507711	0.154019025	0.152548805	0.151715145	0.561063355
0.868984298	0.080654444	0.07861584	0.162535204	0.675193901	0.66254167
0.877461773	0.462026889	0.415462068	0.170499553	0.626158856	0.589751884
0.08648393	0.07738651	0.869140236	0.671807077	0.660701373	0.162636389
0.866229503	0.081970342	0.867661711	0.162055496	0.620939376	0.159949581
0.041113597	0.040784793	0.881639137	0.692706079	0.6926216	0.175318249
4.87059E-06	4.86974E-06	0.88161867	0.698986948	0.699384363	0.175303898
0.434701778	0.877354109	0.455328165	0.576279301	0.170635552	0.609981408
0.876490297	0.882766126	0.054276375	0.170970649	0.175200529	0.690499716
0.884279966	5.49502E-06	0.874988834	0.175716015	0.699260122	0.170502507
0.081776004	0.867028963	0.865105291	0.621031201	0.159297993	0.161561235
0.439383805	0.876976364	0.448511949	0.527781025	0.170647567	0.559747506
0.405903723	0.877490594	0.480636605	0.533020199	0.170609044	0.575384845
0.875012922	0.882543194	0.027326057	0.170512413	0.174910885	0.695176186
0.874113443	0.873719508	0.873235147	0.188782175	0.188717948	0.188467028
0.856730141	0.13043801	0.863435715	0.156647193	0.586481576	0.154742333
0.825788766	0.196529775	0.199774198	0.118966999	0.612721138	0.585384143
0.448842768	0.439586443	0.87751151	0.559646989	0.527799088	0.170608249
0.877173844	0.458881613	0.421927472	0.170766172	0.590858552	0.55511021
0.147460896	0.860216274	0.84564272	0.562814205	0.152729702	0.150377908
0.873766348	0.873546158	0.873648084	0.188609886	0.188593199	0.188553635
0.841959039	0.103169521	0.099251141	0.134923278	0.627878001	0.602548924
0.438544525	0.438539753	0.877110063	0.626596462	0.596433641	0.170514035
0.877158207	0.458845069	0.421921835	0.170222991	0.590599776	0.554663554
0.47535674	0.414132651	0.877480563	0.607918263	0.568365441	0.170598798
