Vam	Vbm	Vcm	Iam	Ibm	Icm
0.882684408	0.041209171	0.040803818	0.175572356	0.692522144	0.692497379
0.860161356	0.844934395	0.14744807	0.152877867	0.15060855	0.562880222
0.083827824	0.869162365	0.09949483	0.654478673	0.162582546	0.667853944
0.822660969	0.823524964	0.824590223	0.298923738	0.298895915	0.299916991
0.860644303	0.845629305	0.147410659	0.153279672	0.150793536	0.562816625
0.063863645	0.059995901	0.06561235	0.652059008	0.65190292	0.651632592
0.877455966	0.877965617	0.877302188	0.171048034	0.171024664	0.170664006
0.85681201	0.130433757	0.863249596	0.156616874	0.58649691	0.154719116
0.054546519	0.054264753	0.881677111	0.689690878	0.69066709	0.1754812
0.877791095	0.877234944	0.877623981	0.170593243	0.170361761	0.170630679
0.84167038	0.092757469	0.099826943	0.134793487	0.629519014	0.604024621
0.081014668	0.078693073	0.868893289	0.674192144	0.662240143	0.162471721
0.877630095	0.470036909	0.411695093	0.170631684	0.590515161	0.551071806
0.461927354	0.415363127	0.877263709	0.626252983	0.589626273	0.170669713
0.842220916	0.137292119	0.860437761	0.148807583	0.566073735	0.154315481
0.027363247	0.077117274	0.076987118	0.678661412	0.680121584	0.678523222
5.49553E-06	0.875299397	0.885388649	0.699473938	0.169986043	0.175754865
0.068983197	0.079599141	0.85519167	0.651923932	0.632356958	0.148785068
0.462104695	0.415552363	0.877629591	0.626240791	0.589594614	0.170670559
0.877188593	0.473334677	0.40396581	0.170384703	0.625817819	0.585940967
0.099109717	0.081467128	0.868931001	0.665685949	0.655763697	0.162855699
0.081790374	0.867155842	0.865432408	0.621049251	0.159108194	0.161601793
0.104071074	0.865759296	0.867130285	0.615380608	0.158848019	0.162779424
0.410484306	0.878062495	0.481100044	0.517710096	0.170624342	0.559386727
0.880822371	0.027639769	0.027608542	0.174936844	0.694887584	0.695116362
0.825008658	0.184067378	0.18360911	0.118100203	0.611214321	0.582653646
0.47360105	0.404212086	0.877702094	0.625874893	0.58615158	0.170714232
0.866217253	0.095585195	0.865941933	0.162141781	0.617480413	0.159033765
0.445127374	0.87748686	0.43835457	0.561936857	0.170526645	0.591656058
0.178666205	0.091452522	0.188963087	0.615744054	0.616418672	0.616216151
0.108123903	0.864407363	0.854578726	0.593676781	0.156545858	0.15455991
0.040826771	0.874911338	0.883142188	0.692516854	0.169876422	0.175172993
0.855913213	0.079758086	0.07162736	0.149390477	0.648145104	0.627266964
0.434704754	0.877382658	0.455406852	0.576131393	0.170583809	0.609785997
0.048406989	0.871767226	0.874122611	0.65855748	0.164843911	0.168190182
0.10223979	0.841364868	0.083355497	0.605871451	0.13484498	0.631196218
0.449078572	0.440053511	0.878217725	0.559747064	0.527776137	0.170501957
0.874993736	0.04711211	0.872136886	0.168228552	0.656995041	0.164929954
0.44797274	0.432574081	0.877395048	0.590928103	0.558164848	0.170549478
0.075044846	0.074884923	0.075338843	0.634278813	0.634482581	0.634480007
0.883243167	0.05427253	0.875828172	0.1749979	0.690509413	0.170480687
0.841628977	0.113500798	0.100707542	0.135194264	0.625728	0.60044874
0.846403758	0.15395458	0.859004265	0.151041073	0.560852078	0.15183574
0.484645377	0.392801442	0.877194467	0.625517577	0.582292646	0.170552368
0.054014463	0.051287141	0.056564306	0.654261735	0.654145632	0.654607331
0.875033675	0.882907048	0.054274722	0.170517224	0.174773665	0.690507167
0.071433054	0.856359113	0.06882932	0.629361039	0.149571681	0.650260391
0.473628543	0.404235883	0.877753246	0.62576104	0.586268113	0.170655451
0.01370955	0.87578036	0.884019715	0.697489235	0.170647183	0.175798981
0.84664422	0.147377338	0.861510213	0.150661971	0.562840282	0.15306439
0.866916697	0.866934687	0.09545048	0.159386477	0.162577572	0.617395609
0.863767322	0.85658165	0.123129953	0.155386093	0.156353273	0.588335565
0.054279273	0.876582422	0.883472305	0.690560391	0.17103549	0.17534941
0.845456554	0.141827923	0.861124847	0.14995767	0.564536201	0.153929239
0.027512097	0.028082957	0.027633788	0.695108567	0.6951138	0.695140746
0.113932511	0.100264671	0.841620719	0.625984531	0.600715277	0.135065187
0.097325376	0.309526788	0.254323184	0.622307754	0.624442509	0.621169007
0.877418725	0.450417294	0.426986643	0.170563551	0.626433902	0.593283115
0.877557932	0.470229005	0.419855072	0.170973479	0.559711565	0.520811525
0.486409675	0.402046673	0.87736389	0.607390436	0.564479077	0.170483666
0.868984298	0.080654444	0.07861584	0.162535204	0.675193901	0.66254167
0.881316246	0.014544515	0.01437122	0.175444325	0.696978584	0.697658405
0.166195872	0.091577873	0.170548377	0.614362824	0.61573218	0.620747064
0.841594056	0.083355297	0.102262159	0.134743887	0.631039508	0.60581842
0.884121418	5.49502E-06	0.87525851	0.175654447	0.699262795	0.170461625
0.074225331	0.855988075	0.091197398	0.625847602	0.149500669	0.645857661
0.480750316	0.410156478	0.87736241	0.559211323	0.517563589	0.17057945
0.074722352	0.074995393	0.075066211	0.634197597	0.634435871	0.634673157
0.028217441	0.027919105	0.883035277	0.694797865	0.695473955	0.175391685
0.027983634	0.028102761	0.881825564	0.694461509	0.694624541	0.175210327
0.113333941	0.112049293	0.1713442	0.618460791	0.61814732	0.619011782
0.454800425	0.43645682	0.877325136	0.608206614	0.574441199	0.170586862
0.137162566	0.862104154	0.84594	0.566134229	0.15434611	0.148969601
0.102242453	0.841644831	0.083363862	0.606015143	0.13481838	0.631318516
0.484858555	0.393001561	0.87760855	0.625390224	0.582382103	0.170454555
0.459691753	0.429695543	0.877748747	0.559777226	0.524388454	0.170638488
0.438410998	0.876852811	0.438415762	0.596561287	0.170171135	0.626519312
0.87685798	0.438418292	0.438413538	0.170161669	0.626648726	0.596322885
0.868839824	0.077173923	0.081237785	0.162571301	0.676034434	0.664825048
0.061317749	0.04233484	0.077416452	0.675255003	0.675350645	0.677447565
0.080758674	0.084487122	0.868931801	0.675503974	0.663578463	0.162686296
0.04712257	0.047567007	0.052279677	0.657140192	0.65832792	0.65822637
0.869008523	0.083150684	0.074636759	0.162549524	0.67160727	0.659305358
0.424991569	0.877359068	0.464540123	0.573570847	0.170616913	0.609798577
0.462136778	0.415572056	0.877682044	0.626085848	0.589773629	0.170621836
0.0749785	0.074884677	0.075250345	0.634200544	0.63452266	0.634584002
0.403999154	0.877280491	0.473392336	0.58618065	0.170447309	0.625910019
0.448007636	0.435948659	0.877260487	0.575599621	0.542754597	0.170615711
0.877269321	0.480593743	0.401406373	0.170104242	0.589945302	0.548331533
0.469756471	0.411535474	0.877235624	0.590825488	0.551530709	0.170366482
0.872889329	0.874103323	0.047193557	0.165249286	0.168512606	0.65698181
0.083820085	0.869161304	0.080051055	0.66456824	0.162686308	0.6776165
0.842099236	0.125105282	0.103541117	0.135212978	0.623790428	0.59822138
0.33193471	0.343231081	0.82544657	0.611709179	0.581600142	0.11885702
0.242503531	0.825942641	0.233785417	0.584399926	0.118893902	0.6122291
0.448804553	0.439564377	0.877450177	0.559650429	0.527773266	0.17044424
0.878247239	0.47064178	0.420109186	0.170970673	0.559758044	0.52101015
0.877343716	0.437007342	0.444381642	0.170391981	0.592005222	0.562354917
0.458905436	0.425585601	0.877121515	0.575739131	0.53972677	0.170530063
0.401979983	0.877317399	0.486489365	0.564723047	0.170542504	0.607799955
0.86833335	0.866428498	0.087780036	0.159973478	0.162372849	0.619408526
0.072854211	0.069969304	0.074769446	0.649024652	0.64984316	0.649276177
0.435109907	0.87739537	0.455210984	0.576137309	0.170559138	0.609764622
0.401884265	0.877896926	0.481087851	0.548320137	0.1705048	0.59032761
0.450549334	0.42712704	0.877690809	0.626361801	0.593170086	0.170706437
0.094426718	0.320256675	0.269470589	0.622015529	0.626323038	0.624966639
0.860833192	0.845044734	0.137060284	0.154082553	0.148901246	0.56627264
0.877328969	0.473364024	0.410104222	0.170623488	0.60883332	0.569303269
0.826025686	0.23137864	0.229098703	0.119123196	0.60997502	0.582116672
0.027968076	0.027464687	0.881656399	0.694556511	0.694599667	0.175323853
5.49603E-06	0.876172494	0.883746306	0.699386524	0.170967776	0.175355242
0.841725552	0.092754286	0.09984969	0.134876166	0.629419722	0.604427042
0.877284058	0.473389212	0.404006147	0.170412676	0.625890896	0.58608939
0.8740858	0.881745988	0.040853729	0.170065221	0.174660677	0.693024162
0.881823168	0.027535231	0.027377904	0.175713863	0.694490656	0.69483429
0.877466211	0.473480406	0.404096789	0.170641952	0.62586588	0.586107251
0.844483195	0.133735073	0.86221122	0.148480877	0.567684339	0.155304351
0.448784991	0.439635957	0.877501645	0.559807434	0.527713873	0.170457794
0.8691702	0.091797433	0.078684339	0.162632185	0.672971125	0.659580286
0.871944895	0.874587783	0.047143421	0.164952131	0.168046281	0.657093474
0.884448872	5.49528E-06	0.876600181	0.175704039	0.699338093	0.171065843
0.119172967	0.119195077	0.187435488	0.617622492	0.619527401	0.619241157
0.87377247	0.873608835	0.873661074	0.188612138	0.188591352	0.188555459
0.111466026	0.864742768	0.8550755	0.592285405	0.155971954	0.154921512
0.877640027	0.47003672	0.411710535	0.170630178	0.590514798	0.551071273
0.124993323	0.103184975	0.841478853	0.623877813	0.598683846	0.13533524
0.473587351	0.40419552	0.877672074	0.625872644	0.58615216	0.170709238
0.876914702	0.469567133	0.411435783	0.170215871	0.590449648	0.551511925
0.154034043	0.85922112	0.847736529	0.560849548	0.152088895	0.151404195
0.841700088	0.102991425	0.099212551	0.134954661	0.627846287	0.602862696
0.884291599	5.49629E-06	0.876157511	0.176057066	0.699304213	0.17072145
0.048081091	0.872161226	0.874296392	0.658817091	0.165208393	0.168377793
0.111599161	0.11054032	0.166634653	0.616757832	0.61964189	0.618614081
0.065239608	0.871357351	0.874704131	0.652398224	0.164574167	0.168626448
0.246217868	0.248259727	0.825216806	0.615003859	0.581557965	0.11869636
0.872193143	0.875247605	0.055291093	0.16489728	0.168972832	0.654896658
0.875233065	0.882430889	0.040860106	0.170126384	0.174631322	0.693101117
0.856730141	0.13043801	0.863435715	0.156647193	0.586481576	0.154742333
0.84651093	0.153964459	0.85979918	0.151353569	0.560860987	0.152295758
0.87157501	0.874616383	0.047156349	0.164997028	0.168137458	0.656997229
0.040837716	0.875185007	0.884523448	0.692676215	0.170053209	0.175194809
0.134267668	0.827837149	0.141867339	0.576978409	0.119259347	0.605557015
0.841950543	0.103009022	0.09909082	0.134929664	0.627899398	0.60251586
0.44884798	0.43966589	0.87758858	0.559662627	0.527798605	0.170647951
0.074895741	0.074986333	0.075172151	0.634135934	0.634335794	0.634774569
0.062480693	0.062461944	0.062385554	0.638761565	0.638643464	0.638627716
0.137185142	0.862097779	0.845201104	0.566181828	0.154845928	0.149716868
0.877337162	0.451251662	0.432035563	0.170554519	0.609331606	0.576037719
0.868970883	0.080450031	0.077204507	0.162537954	0.67405913	0.663427234
0.41033457	0.877702191	0.480895722	0.517693835	0.170744112	0.559301047
0.059990484	0.060019864	0.059993204	0.640141552	0.640177083	0.639992946
0.027326886	0.875397401	0.883001626	0.695258186	0.170133571	0.175397068
0.086861995	0.07827871	0.869050828	0.671812213	0.660505868	0.16262846
0.878087984	0.877607824	0.877379828	0.17080023	0.170454462	0.170580013
0.826157744	0.14694546	0.129529415	0.119197465	0.603026661	0.57424157
0.883237593	0.013707059	0.875921694	0.175381151	0.697376924	0.170660466
2.76024E-06	3.11814E-06	3.02506E-06	0.699195408	0.699444722	0.699036684
0.05482769	0.054658122	0.055285442	0.690412994	0.690279335	0.690148742
0.07912556	0.868975487	0.086209378	0.661100767	0.162478304	0.673504575
0.048405925	0.045375102	0.052719589	0.656104065	0.656323381	0.656383523
0.8744462	0.882220676	0.013707018	0.170307274	0.174760772	0.697322453
0.054195395	0.051232297	0.056839147	0.653767762	0.654325072	0.654000392
0.864739952	0.864661237	0.863111637	0.219124745	0.219055162	0.219070566
0.013751965	0.014516611	0.014710128	0.697174298	0.696475337	0.697075823
0.877310464	0.480578509	0.405622508	0.170572116	0.575183243	0.532847607
0.448183011	0.436024076	0.877524175	0.575529385	0.542656571	0.170614824
0.821440113	0.823688835	0.822955876	0.298747984	0.298836035	0.299580343
0.040931637	0.881731067	0.041166581	0.692751061	0.175239485	0.692841289
0.855554386	0.079832133	0.071603788	0.149384276	0.647775186	0.627576488
0.126625646	0.825587807	0.144512762	0.574932161	0.118776999	0.603852383
0.438419165	0.87686903	0.438423891	0.596545144	0.170016943	0.626498685
0.048617887	0.872078254	0.874438395	0.658415368	0.164816	0.168287611
0.09909902	0.08145061	0.868939185	0.665695451	0.655795949	0.162853152
0.410145985	0.877489865	0.480864906	0.517721739	0.170683599	0.559333098
0.060017109	0.060014822	0.059990231	0.640117102	0.640287272	0.640249639
0.464855521	0.424359589	0.87739262	0.608083481	0.571489249	0.170514044
0.445114118	0.877531823	0.438395511	0.561961447	0.170511446	0.591656825
0.882196957	0.054597492	0.054157699	0.175632061	0.690318071	0.690440138
0.113842154	0.09990431	0.841725345	0.626150213	0.600976191	0.135068255
0.054890151	0.054530493	0.055179597	0.68990479	0.69015906	0.690082274
0.047232609	0.872140874	0.875597884	0.656831893	0.164824002	0.169112542
0.876695529	0.480497147	0.40095856	0.170168777	0.589945262	0.548210823
0.392970353	0.877526791	0.484808381	0.582466197	0.170713792	0.625166275
0.84174042	0.0927433	0.099823134	0.134792646	0.629455874	0.60395563
0.099935294	0.081177255	0.868791335	0.665663825	0.655635291	0.16277502
0.103139715	0.099300795	0.841556279	0.627835876	0.602709666	0.135017542
0.040791648	0.880973008	0.041019597	0.693093727	0.175489323	0.692379314
0.857075721	0.116674002	0.864768568	0.156190993	0.590374311	0.155881652
0.874045874	0.872349651	0.872823082	0.188783259	0.18881942	0.188486795
0.863777583	0.856289645	0.116671125	0.155747591	0.155901092	0.590246947
0.078595203	0.081556578	0.868898144	0.675132278	0.663917604	0.162609302
0.014433886	0.014265681	0.881680846	0.697084926	0.697191357	0.175207302
0.855422549	0.116694386	0.864964491	0.156116274	0.59027194	0.156487554
0.063481742	0.059943386	0.065399063	0.652082666	0.651923033	0.651702712
0.047193791	0.871365158	0.875660675	0.656777157	0.164803249	0.169072228
0.147041332	0.130989796	0.825643249	0.604047099	0.574435726	0.119285125
0.459555507	0.429568586	0.87748106	0.559687114	0.524390176	0.17058913
0.083823016	0.0806336	0.86910912	0.674327218	0.662610427	0.162569186
0.825581867	0.137776576	0.128344398	0.11897594	0.604423618	0.57550032
0.863515648	0.856502634	0.130370305	0.155379367	0.157293131	0.586522692
0.40400107	0.8772462	0.473357162	0.585927058	0.170547996	0.625686471
0.40152035	0.877329749	0.487101	0.564703055	0.170539818	0.607769931
0.876872529	0.438425572	0.438420816	0.17015942	0.626648837	0.596337181
0.078926955	0.855515545	0.102984405	0.623691157	0.149464247	0.643456934
0.854950119	0.111521707	0.864051382	0.155155559	0.592133245	0.156023675
0.841677238	0.083381547	0.102224746	0.134770587	0.63133154	0.605995693
0.843088501	0.137212397	0.860948013	0.148550363	0.566167151	0.153938418
0.411816588	0.877364976	0.470193263	0.551186235	0.170383202	0.589873689
0.047102514	0.047507373	0.052760106	0.657527556	0.658391383	0.65829499
0.425459296	0.877304986	0.459167904	0.539676022	0.17057657	0.57568456
0.065239671	0.870974135	0.875037562	0.652387408	0.164419403	0.168494138
0.065252466	0.870818089	0.875043663	0.652427518	0.164594637	0.168609119
0.864432674	0.864038628	0.863123094	0.219506929	0.219147024	0.219119559
0.87769152	0.462143073	0.415575756	0.170562485	0.626164403	0.589786909
0.415494116	0.877527733	0.462060316	0.589559734	0.170651605	0.626214032
0.877567367	0.459051711	0.422140042	0.170520428	0.590824442	0.555302366
0.868903625	0.091683398	0.079598637	0.162611736	0.671345587	0.659742796
0.079702912	0.869230079	0.081618028	0.663079188	0.162397213	0.675914748
0.855317693	0.116662392	0.864561737	0.155887142	0.590295234	0.155951531
0.865311413	0.853865194	0.107749633	0.157018652	0.154901715	0.593926333
0.876707465	0.884474349	0.013708514	0.170648357	0.175976887	0.697435208
0.437785564	0.445530846	0.877708625	0.593082687	0.563370386	0.17056581
0.882212765	0.054602047	0.054135005	0.175518415	0.690270803	0.690472869
0.871379636	0.874091246	0.065190632	0.164448703	0.167822711	0.652735414
0.845405546	0.141814428	0.860237486	0.150088908	0.564515521	0.153785899
0.855921492	0.103008053	0.078875751	0.149731946	0.643524396	0.623718656
0.825798148	0.135652387	0.129098081	0.119051048	0.605288557	0.576110072
0.880565747	0.0276123	0.027479484	0.175185165	0.69483502	0.695066772
0.455610925	0.436162979	0.877431187	0.608216776	0.574939745	0.170576753
0.86896715	0.091283089	0.079704435	0.162578896	0.672004612	0.660068747
0.116685657	0.864407701	0.855444309	0.590367201	0.155610398	0.155897968
0.405872197	0.877354103	0.480570932	0.533009994	0.170529464	0.575366355
0.404095171	0.877444418	0.473460141	0.58591409	0.170562143	0.625639852
0.826151779	0.229864012	0.231928365	0.119253415	0.607195994	0.581567831
0.076061444	0.870782433	0.874962043	0.650444917	0.164550185	0.168631283
0.401397133	0.877306995	0.480878235	0.548087639	0.169993726	0.589587436
0.877407752	0.480543955	0.405655796	0.170578385	0.575325645	0.53294383
0.470321696	0.419799842	0.877615557	0.559649845	0.521053342	0.170704439
0.401608498	0.87773104	0.481124478	0.548321868	0.170621132	0.590297675
0.846822979	0.846875229	0.847746958	0.257301465	0.256833315	0.257177834
0.102238809	0.84146419	0.083342551	0.605941552	0.134847644	0.631185159
0.868903269	0.099635342	0.083223741	0.162839433	0.667192709	0.654892078
0.86885642	0.077399098	0.08097484	0.162481645	0.677383562	0.665622047
0.855659098	0.10325	0.078849528	0.149649777	0.643541821	0.623801265
4.99105E-06	4.81903E-06	0.880974063	0.699226397	0.699448753	0.175177217
0.877465401	0.462026562	0.415466237	0.170544133	0.626225263	0.589608298
0.459731158	0.429544663	0.877637741	0.559849515	0.524426939	0.170751012
0.87501419	0.88291901	0.054273652	0.17053853	0.174793135	0.690494258
0.877379864	0.469903611	0.415488846	0.170540087	0.575369428	0.536094477
0.498465123	0.537427616	0.877631754	0.562194793	0.533426782	0.170393209
0.859832413	0.84561451	0.147462209	0.152742964	0.150724431	0.562789042
0.877397105	0.459048712	0.425605602	0.170619815	0.575783911	0.539669282
0.438418873	0.876868445	0.438423599	0.596545009	0.170010762	0.626497836
0.410183672	0.877517639	0.480861596	0.517656829	0.170604892	0.559374157
0.041078121	0.041317153	0.041670971	0.692369975	0.692294281	0.692318599
0.086801353	0.078375203	0.868957222	0.672083289	0.660784844	0.162548601
0.059685416	0.042957761	0.076881208	0.674828888	0.67503985	0.676492164
0.878118956	0.470587159	0.420035737	0.170971875	0.559754915	0.521021455
0.12289968	0.121267508	0.099104367	0.612381211	0.611691503	0.613876511
0.083357157	0.083806995	0.084097055	0.632365858	0.632131479	0.632437467
0.866600993	0.081576958	0.867095746	0.161897681	0.621557286	0.159569933
0.419788981	0.877479081	0.470194179	0.521021987	0.170568788	0.559693014
0.855383052	0.123170068	0.862465229	0.156242968	0.588457275	0.155288706
0.872809658	0.87483847	0.055268786	0.164866698	0.168975774	0.654935715
0.419745389	0.877514876	0.470280934	0.521054969	0.170669297	0.559552973
0.475128343	0.414744301	0.877243811	0.608291454	0.568702088	0.170566646
0.866874094	0.867240771	0.104000639	0.159324967	0.163058764	0.615306967
0.868990944	0.099174222	0.08198474	0.162826558	0.666111785	0.653849822
0.083305457	0.083800525	0.083835787	0.632440854	0.63215328	0.632506051
0.825363336	0.200234671	0.191967971	0.118747669	0.608245384	0.577565776
0.881473379	4.89645E-06	4.83054E-06	0.175189444	0.699228808	0.699151568
0.460483651	0.87763187	0.453275712	0.530675642	0.170642195	0.559461358
0.855507423	0.111550501	0.864927105	0.155553335	0.592257145	0.156600951
0.055325113	0.871713931	0.874824372	0.654622965	0.164233355	0.168615289
0.874021251	0.065153983	0.873057988	0.168954485	0.652668176	0.165057809
0.866981648	0.865269279	0.081563966	0.159587623	0.161693353	0.621144185
0.113804569	0.100223002	0.841665876	0.626007362	0.600713604	0.135057758
0.877327952	0.470205252	0.419638219	0.170836118	0.559754726	0.520890719
0.877748604	0.47362282	0.404236972	0.170634855	0.625941467	0.586105992
0.464835946	0.424827008	0.877367246	0.607427854	0.570740086	0.170526793
0.872728335	0.875254297	0.046359425	0.16513095	0.168833744	0.659064942
0.881858881	0.054525885	0.054143763	0.175466826	0.689566823	0.690379709
5.4973E-06	0.877976987	0.885092703	0.699501806	0.170768486	0.176002143
0.857274457	0.130458574	0.862664149	0.156595216	0.586474471	0.154369627
0.083506835	0.08377621	0.08402352	0.632167996	0.632227991	0.632452195
0.147437814	0.859925721	0.845394037	0.562788041	0.152761958	0.150373876
0.245949205	0.825405522	0.239108187	0.582271532	0.118430229	0.612676378
0.867090967	0.864974444	0.077164031	0.159475039	0.161024128	0.622986876
0.862511426	0.855589056	0.123047172	0.155166676	0.155950001	0.588412818
0.393027179	0.877659709	0.48488493	0.582489857	0.170703148	0.625490605
0.412137086	0.877566078	0.470025453	0.551849649	0.17063845	0.590724129
4.85576E-06	0.880984306	4.8337E-06	0.699163744	0.175104074	0.699288894
0.877169075	0.49695319	0.489677623	0.170001467	0.561811933	0.532867302
0.843104823	0.137210089	0.860950619	0.148543468	0.566176159	0.1539311
0.459802278	0.429814299	0.877983221	0.559863847	0.524455039	0.170817433
0.040854557	0.876621154	0.883737963	0.693031413	0.17137915	0.175705037
0.272650488	0.277256433	0.825611857	0.612717718	0.586819043	0.118758176
0.846966831	0.153996481	0.859780185	0.151786049	0.560818034	0.152470538
0.877362752	0.451408754	0.431981281	0.170562067	0.610089093	0.576535836
0.459089366	0.422074821	0.877597491	0.590706078	0.555074618	0.170588329
0.054200846	0.881755008	0.054616015	0.690195651	0.175374773	0.690499809
0.877407519	0.484747079	0.392913199	0.17041041	0.625246607	0.582442685
0.085014414	0.869185586	0.100356257	0.655363022	0.162769178	0.667602751
0.429682519	0.877718262	0.459675521	0.524252992	0.17090061	0.559846127
0.883185051	0.054276271	0.87575532	0.175325024	0.690543206	0.170557944
0.855900704	0.103050402	0.078848541	0.149417641	0.643651613	0.62355478
0.868987773	0.080661939	0.077813152	0.16253358	0.674911108	0.663389421
0.085199368	0.868793311	0.081831213	0.662987054	0.162461759	0.675347898
0.445429299	0.44914963	0.877343161	0.608467824	0.578273501	0.170602369
0.429618182	0.877627713	0.459648487	0.52420558	0.17065775	0.559961673
0.825779394	0.288972931	0.299715854	0.118613546	0.613135795	0.58297553
0.076013072	0.871121582	0.875300055	0.650362692	0.164205373	0.16900951
0.079704738	0.869241077	0.081631699	0.663320173	0.162384293	0.675874725
0.05425304	0.881685609	0.05458623	0.690420667	0.175305447	0.690370892
0.075250183	0.076815939	0.854659384	0.649658907	0.629579656	0.149101149
0.047210839	0.871849418	0.874872445	0.656981529	0.165069172	0.16856134
0.083725149	0.868806207	0.0808049	0.664808124	0.162556257	0.676147492
0.866192328	0.866439615	0.103965255	0.159340861	0.162473978	0.615291589
4.78319E-06	0.881335893	4.93007E-06	0.69950444	0.175171387	0.699264482
0.147414935	0.860160149	0.845503911	0.562723585	0.152770862	0.150357289
0.44475091	0.449467537	0.877247093	0.608789225	0.578456247	0.170540358
0.086077034	0.077960539	0.868991207	0.671777659	0.660551564	0.162565242
0.130500534	0.863764096	0.857244541	0.586587006	0.154927017	0.157131399
0.091977717	0.299060085	0.252413319	0.623012626	0.627405443	0.621275662
4.86204E-06	0.881242279	4.86118E-06	0.699202631	0.175399499	0.698919979
0.882199977	0.054594789	0.054163549	0.175633683	0.690309034	0.690464039
0.867526876	0.866381636	0.081534903	0.159640402	0.161697566	0.62137727
0.129188318	0.825918302	0.145917452	0.574402641	0.118966894	0.603576888
0.877312633	0.480490016	0.405715593	0.170568263	0.575126331	0.532767915
0.85549278	0.103107318	0.078875892	0.149598371	0.643498593	0.62365302
0.060719013	0.042247718	0.076709042	0.675165481	0.675364433	0.677373227
0.855209165	0.107895304	0.864596508	0.154910169	0.593704674	0.156644688
0.429643807	0.877624348	0.459622668	0.524354632	0.17069166	0.559824963
0.877419802	0.48057529	0.405671706	0.17058064	0.575352874	0.532954911
0.469756471	0.411535474	0.877235624	0.590825488	0.551530709	0.170366482
0.867356083	0.865669474	0.087805103	0.159500984	0.161835134	0.619469884
0.06086005	0.042793841	0.077595069	0.675688661	0.674978461	0.677563628
0.054624885	0.05421393	0.881730183	0.689878616	0.690712323	0.175521367
0.842843761	0.133723321	0.860762938	0.148324013	0.567833158	0.155401985
0.881360826	4.86232E-06	4.84603E-06	0.17520114	0.699062095	0.699235925
0.876052161	0.883799734	0.027327257	0.171072955	0.175741278	0.695197012
0.42556008	0.877312474	0.459085955	0.539557453	0.170553285	0.575618458
0.438495707	0.438490847	0.877013632	0.626873719	0.596164773	0.170588452
0.87735721	0.473373777	0.410026659	0.170597566	0.608768781	0.569088801
0.877484147	0.484805707	0.39292907	0.170757939	0.625272561	0.582672066
0.873815137	0.87329763	0.873463277	0.188773634	0.188574845	0.188315528
0.877399258	0.461992757	0.421693245	0.170584959	0.60814971	0.571664449
0.083454624	0.083631777	0.083961368	0.632388764	0.632098842	0.632434233
0.872554617	0.874937811	0.046389062	0.165127028	0.16851854	0.658963402
0.876859798	0.884184739	0.054277739	0.1708673	0.176014	0.690545912
0.470398694	0.419790482	0.877679165	0.559604988	0.521084696	0.170575147
0.876919141	0.88427651	0.054278777	0.170843855	0.175881618	0.690570779
0.872239054	0.875282226	0.055285166	0.164950274	0.169007753	0.654930954
0.884511268	5.49603E-06	0.874964542	0.175190963	0.699275761	0.169910849
0.054228401	0.881154168	0.054621122	0.690672669	0.175272428	0.690259195
0.065241444	0.87076385	0.874368048	0.652792753	0.164526109	0.168740483
0.419845278	0.877602852	0.470267609	0.521022486	0.17075792	0.559504596
0.072321841	0.069970515	0.074137928	0.649359839	0.650020279	0.649023945
0.884336714	0.027324476	0.875155075	0.175802022	0.6951571	0.170541262
0.85680989	0.123058581	0.863578876	0.156746832	0.588460303	0.155842994
0.116748604	0.864079276	0.856874074	0.590349998	0.15581924	0.15609472
0.08073664	0.083649005	0.868855905	0.675444786	0.663572146	0.16269918
0.844751342	0.133741375	0.862335995	0.148118749	0.567806131	0.154968636
0.841585939	0.113552105	0.100573193	0.135171555	0.625648507	0.600453303
0.862528537	0.854099241	0.111438802	0.155775526	0.154522092	0.592059104
0.134733779	0.131405497	0.098604071	0.611408742	0.611603091	0.614112943
0.425220061	0.877370601	0.464264509	0.57356109	0.170618824	0.609788263
0.867370758	0.86559441	0.0815303	0.159798253	0.161711121	0.62151815
0.877598545	0.459582889	0.429662007	0.170678785	0.559829892	0.524301043
0.855511733	0.103030865	0.078886092	0.149577804	0.643467697	0.623675465
0.07215299	0.065898179	0.08641546	0.670232791	0.670079449	0.670967139
0.875384272	0.065215123	0.87242622	0.169262808	0.652875857	0.164833868
0.099211786	0.841892859	0.103165082	0.602396851	0.135097699	0.627952493
0.130204183	0.126874165	0.098743056	0.610854081	0.610056921	0.614793832
0.450082067	0.426659809	0.87675617	0.626427355	0.5931318	0.170628726
0.054332389	0.051187659	0.056875835	0.654167922	0.65424048	0.654270989
0.867159091	0.866026838	0.081540995	0.159536863	0.161948862	0.621375291
0.42697289	0.877384893	0.450396967	0.592921636	0.170441347	0.626570058
0.865979047	0.081805062	0.86715379	0.161743151	0.621093949	0.159652162
0.860177155	0.84405272	0.141801945	0.153130617	0.149208743	0.564552403
0.078842086	0.855450781	0.102961655	0.623758692	0.149377603	0.643312502
0.325893953	0.347956038	0.824786193	0.613726261	0.586964841	0.118619453
0.111454626	0.864191816	0.854787937	0.592179586	0.155971035	0.155067885
0.86711897	0.087852141	0.867080461	0.161720086	0.619520717	0.15954073
0.873420129	0.872549295	0.873528298	0.18860136	0.188607086	0.188488261
0.108008096	0.864753866	0.854568706	0.593650379	0.156546892	0.154588197
0.087820694	0.866365686	0.865670442	0.619692891	0.158753023	0.161843095
0.401721635	0.87743525	0.480710877	0.548398324	0.16999491	0.590027824
0.146975148	0.129530956	0.825773501	0.604188213	0.575541853	0.119283969
0.062475715	0.062474269	0.06238862	0.638756656	0.6386486	0.638615436
0.054235747	0.881180674	0.054620899	0.690785586	0.175281898	0.690215695
4.92556E-06	0.881025139	4.8337E-06	0.699342652	0.175045155	0.699121508
0.459644915	0.429633874	0.877633053	0.559971298	0.524189642	0.170685873
0.871771265	0.874595004	0.047140257	0.164985632	0.1681298	0.657010964
0.103512269	0.841863539	0.125073287	0.597812466	0.13530211	0.623372821
0.847844531	0.846910202	0.848417251	0.257389542	0.256967306	0.257164274
0.081731471	0.084306351	0.868515944	0.676161011	0.663704508	0.162661262
0.080142412	0.207247754	0.205323192	0.620418062	0.620936399	0.62455272
0.072393039	0.065888458	0.087023418	0.670545119	0.669955534	0.67078804
5.49553E-06	0.875633283	0.882648439	0.699133875	0.170498118	0.175203841
0.439658652	0.877560024	0.448818084	0.527576674	0.170624244	0.559853805
0.877445971	0.461998279	0.421748206	0.170562157	0.608154329	0.571751518
0.883969819	0.013707127	0.876650192	0.175577228	0.697362541	0.171554481
0.404202297	0.877674479	0.473583198	0.5860735	0.170663505	0.625847872
0.868976008	0.080410931	0.077379412	0.162538818	0.674012657	0.663393575
0.846275411	0.846492499	0.846362295	0.256737951	0.256989398	0.256738651
0.876350631	0.884083383	0.05427884	0.170842267	0.175895327	0.690568207
0.104083383	0.866107984	0.867257523	0.615131588	0.158665656	0.163147024
0.84163876	0.103062973	0.099266667	0.134947585	0.627900906	0.60290771
0.131439501	0.125369677	0.098530403	0.610365956	0.610090261	0.614640762
0.863926119	0.856443422	0.116636873	0.155757343	0.155980862	0.590288026
0.05394433	0.051061005	0.056658166	0.6542817	0.654196671	0.654679078
0.863128682	0.863500808	0.863508919	0.218580889	0.218735976	0.219283199
0.841430445	0.11359487	0.100523589	0.135094122	0.625745778	0.600564216
0.869974025	0.873633435	0.065199319	0.164466917	0.167892377	0.652748852
0.864179801	0.863427189	0.863138285	0.219736732	0.219151616	0.219191497
0.480544816	0.405867714	0.877282773	0.575005302	0.532515763	0.170568075
0.060837134	0.042471257	0.077423683	0.675693095	0.675182087	0.677364216
0.130498002	0.862716563	0.857432872	0.586527059	0.154659568	0.156728768
0.874027748	0.055323892	0.872028764	0.167866831	0.654781045	0.164374927
0.084367251	0.076099983	0.855989175	0.647589831	0.628159229	0.149284124
0.866692075	0.087792132	0.866899539	0.162259778	0.619441685	0.159731351
0.877399273	0.461992589	0.421693617	0.170584965	0.608149734	0.57166442
0.875698671	0.076051079	0.871227409	0.169021889	0.650486689	0.16423433
0.877773608	0.459143675	0.422236546	0.170417718	0.590874397	0.5553254
0.133946439	0.12505274	0.826038483	0.606274246	0.576902492	0.118844409
0.077150432	0.867586324	0.865542027	0.623130895	0.160007973	0.161537936
0.078976314	0.855922097	0.102941823	0.623548804	0.149720282	0.643479249
0.071357625	0.854784557	0.06878936	0.629428806	0.14834757	0.649696338
0.082635631	0.86891426	0.092616041	0.656875485	0.162617782	0.670102531
0.393024177	0.877666033	0.484893063	0.582559626	0.170807979	0.625425449
0.133951351	0.125055863	0.825961881	0.606258939	0.576863404	0.11889553
0.111528931	0.864548581	0.855785361	0.592122136	0.156124432	0.155231693
0.878252254	0.448352813	0.433115159	0.170888196	0.591058628	0.558551862
0.866944366	0.866595737	0.095373065	0.159470628	0.162357409	0.61736659
0.054719461	0.054686236	0.055363604	0.690231433	0.690345821	0.690138332
0.065237632	0.871308212	0.875340991	0.652823362	0.164449632	0.168758082
0.872530755	0.873719222	0.065195618	0.164869788	0.168408896	0.652704159
0.864300303	0.856447452	0.116653745	0.155849067	0.156089892	0.59024599
0.072641412	0.070110945	0.075278082	0.649408784	0.650080014	0.649613601
0.116739111	0.864426266	0.855967887	0.590358452	0.155648236	0.155771769
0.459010876	0.422033192	0.877478256	0.590709697	0.555022565	0.17047254
0.063417377	0.059862272	0.064993654	0.651908239	0.651996796	0.651723723
0.13426857	0.125613378	0.826633524	0.604157121	0.575873365	0.119346043
0.079709069	0.869185451	0.081615557	0.662994345	0.162407987	0.675913852
0.448161039	0.432778077	0.877787416	0.591028081	0.558189824	0.170845128
0.875010349	0.050251934	0.87219097	0.16864847	0.6594139	0.165262197
0.877368966	0.461612939	0.422160203	0.170576474	0.609516839	0.57313467
0.06909725	0.079724357	0.855187727	0.651921772	0.632358832	0.148787052
0.437294634	0.446127159	0.877732582	0.593099406	0.563431753	0.1705743
0.881787559	0.041163887	0.040799219	0.175024581	0.692461796	0.693036347
0.822730541	0.823357179	0.82378667	0.298102449	0.298692134	0.298818011
0.106348616	0.083143742	0.854350383	0.643299698	0.623568311	0.149087381
0.08101591	0.078696153	0.8688911	0.674192209	0.662235481	0.162473299
0.867764002	0.86606222	0.077099413	0.159786248	0.161569017	0.623184518
0.877393278	0.469916882	0.415476005	0.170554163	0.575440536	0.536154125
0.475362456	0.414255786	0.877326204	0.607851967	0.568302628	0.170569714
0.865538254	0.081389268	0.867599448	0.161382879	0.621329087	0.159403303
0.867667455	0.866116074	0.081587353	0.159893138	0.161734204	0.621389742
0.027326317	0.875673492	0.883424034	0.695211321	0.170113971	0.175242617
0.027981437	0.02817356	0.881848326	0.69443584	0.694699166	0.175192448
0.071764397	0.855212733	0.079624954	0.627621331	0.149050292	0.647833758
0.881207458	4.8609E-06	4.84001E-06	0.175256419	0.699305902	0.698990417
0.481040182	0.410417467	0.877928947	0.559502961	0.517545756	0.170708313
0.867749743	0.865910607	0.087800527	0.159685461	0.162143583	0.619380095
0.877354432	0.439344394	0.443940492	0.170577854	0.608407357	0.578252089
0.438570853	0.438566138	0.87716275	0.626554546	0.596373356	0.170318533
0.855517934	0.103130935	0.078891237	0.149708322	0.643329611	0.623797979
0.877661915	0.462127971	0.415560539	0.170652998	0.626202721	0.589690496
0.43583425	0.877221981	0.448038435	0.54270545	0.170568964	0.575672112
0.41388101	0.87733831	0.474855154	0.569195315	0.170494837	0.60873639
0.470344846	0.41975591	0.877588018	0.559583599	0.520987863	0.170643629
0.866284623	0.087997241	0.86730561	0.162373686	0.619242801	0.159626302
0.877387603	0.480739822	0.401416746	0.170241819	0.590185476	0.548030752
0.825944229	0.281451321	0.302940916	0.118685916	0.614886616	0.585273325
0.865239966	0.077032187	0.867420717	0.161163679	0.623370849	0.159921419
0.438525628	0.445005922	0.877591558	0.592654697	0.563130645	0.170899831
0.874087443	0.055323099	0.871174815	0.167841238	0.654779216	0.164357749
0.060007849	0.060012811	0.059965837	0.640067574	0.640318113	0.640251739
0.48069532	0.405833921	0.87741297	0.575165131	0.532688666	0.170595734
0.111430098	0.864925495	0.855040208	0.592315059	0.155960474	0.154912938
0.41554651	0.877383901	0.470021732	0.535924764	0.170561179	0.575238844
0.87612338	0.882907558	5.49578E-06	0.170495189	0.175084405	0.699173769
0.465142213	0.424162483	0.877447991	0.608077788	0.57148205	0.170514211
0.130516995	0.862739768	0.857103797	0.586464801	0.154645674	0.156726693
0.06524651	0.871264526	0.875179845	0.652765203	0.164552293	0.16872947
0.133771844	0.862302917	0.842914855	0.567730242	0.155291123	0.148160957
0.448007426	0.43264518	0.877514048	0.590998274	0.558249489	0.170523151
0.415211503	0.876960478	0.461776094	0.589622992	0.170561556	0.626292017
0.059995656	0.06002226	0.060008084	0.640145964	0.640159721	0.639998444
0.877651649	0.877000921	0.877463944	0.171127956	0.170655092	0.170671139
0.448702219	0.439471784	0.877253719	0.559775888	0.527704013	0.170465724
0.469832134	0.415732348	0.877363713	0.575357415	0.53609626	0.170527923
0.048472313	0.045372682	0.0534213	0.656269305	0.656151055	0.65600721
0.027986159	0.027534529	0.88186958	0.694573659	0.694873832	0.175371878
0.877378848	0.484272833	0.399508955	0.170630549	0.607601917	0.564895372
0.099836584	0.841639497	0.092797836	0.604373979	0.134876269	0.629371791
0.855732257	0.066221253	0.078996788	0.149072833	0.652493618	0.632132075
0.425729254	0.877422545	0.46404929	0.573537079	0.170586986	0.60989772
0.865607627	0.076968176	0.867848056	0.161266081	0.623240635	0.160075325
0.473692387	0.404299037	0.877880324	0.625787535	0.58628765	0.170690604
0.079638921	0.86925382	0.081514632	0.66340181	0.162381307	0.675849106
0.872275608	0.875833322	0.075926747	0.165079105	0.169335456	0.650438169
0.047882509	0.045283024	0.05194689	0.656007011	0.656218199	0.656343138
0.867311268	0.865592417	0.081541251	0.159798051	0.161713689	0.621507739
0.404148099	0.87756188	0.473524326	0.585960921	0.170583293	0.625725763
0.071816397	0.85589729	0.079726715	0.627560718	0.149332194	0.647863415
0.881742333	0.054604043	0.054135933	0.175354313	0.689912324	0.690472058
0.461876251	0.41531593	0.877164907	0.626052541	0.589801533	0.170565331
0.863900599	0.856960713	0.130399497	0.154832074	0.156788613	0.586534247
0.877443528	0.448075606	0.435967353	0.170651046	0.575719529	0.542765564
0.065255138	0.871203964	0.875537309	0.652742372	0.164413078	0.168778974
0.865639835	0.095582655	0.866218821	0.162362767	0.617136328	0.158841881
0.439742356	0.877730964	0.448890603	0.527823477	0.170707199	0.559742297
4.91004E-06	0.880963975	4.83858E-06	0.699321904	0.175052196	0.699105409
0.041050793	0.041049805	0.041195483	0.692350422	0.692349768	0.692389157
0.825902274	0.282036068	0.305433702	0.11866271	0.612562417	0.584465721
0.330940464	0.825584611	0.323166615	0.584320641	0.118510146	0.615228098
0.410109937	0.877423826	0.480838801	0.517587968	0.170507912	0.559306069
0.842697104	0.137249875	0.859799126	0.148304872	0.566225008	0.153948557
0.877660581	0.484890825	0.393020241	0.170474074	0.625216524	0.582660778
0.459165111	0.422150765	0.877756905	0.590806765	0.555134292	0.170402897
0.08115772	0.868931162	0.091799337	0.656673721	0.162642978	0.669470692
0.826718433	0.193583762	0.198778822	0.119149658	0.610752235	0.578194709
0.877377237	0.439282996	0.444482094	0.17055051	0.609379514	0.579245828
0.083388305	0.102221536	0.841691877	0.631290006	0.60611076	0.13468527
0.480601981	0.405849736	0.877396962	0.575089419	0.532632898	0.170598981
0.875069344	0.055302285	0.872174259	0.168520889	0.654832743	0.164987287
0.877382494	0.48062376	0.405670642	0.170581637	0.575261186	0.53291407
0.081648616	0.866757264	0.865710516	0.621194272	0.159283799	0.161814975
0.081748493	0.867570575	0.865289308	0.621083835	0.1596398	0.161530529
0.099778824	0.841656344	0.092890015	0.604361295	0.134874195	0.629583579
0.873052147	0.874761801	0.055266227	0.164886292	0.16900555	0.65492273
0.86205496	0.844089845	0.133785555	0.155480128	0.148693812	0.567832233
0.04853176	0.87190313	0.87435299	0.658767644	0.165014712	0.168207519
0.02748354	0.028016064	0.028127302	0.695043288	0.694877527	0.695122887
0.092652672	0.099720301	0.841608801	0.629559642	0.604303223	0.134843305
0.873463295	0.872585109	0.873519479	0.188567311	0.188586879	0.188520878
0.480917434	0.410284292	0.877674825	0.559288541	0.517614217	0.170571717
0.841592814	0.113695035	0.100405473	0.135175028	0.625654274	0.600446817
0.445401302	0.449218304	0.877342884	0.608469537	0.578271746	0.170602297
0.877466094	0.480553549	0.405797136	0.170588984	0.575353108	0.532969752
0.103616365	0.841799849	0.125131481	0.598142761	0.135187952	0.62325047
0.102230119	0.841558281	0.083365789	0.606004218	0.134839212	0.63116424
0.860650528	0.844444465	0.141745574	0.15312564	0.149236216	0.564544807
0.841619283	0.083369628	0.102271684	0.134746349	0.631322317	0.605976319
0.846303235	0.84627914	0.84584026	0.256737867	0.256947241	0.256733525
0.458996643	0.425626615	0.877244011	0.575631054	0.539550127	0.170536694
0.877378389	0.484267557	0.399460843	0.170604286	0.607837979	0.565205519
0.075589702	0.075725865	0.855182297	0.649431409	0.629794571	0.1490614
0.445796705	0.449140618	0.877363375	0.608487708	0.57829641	0.170593559
0.877377301	0.458966639	0.425670459	0.17058808	0.575639036	0.539593826
0.461988372	0.415436715	0.877397572	0.626230609	0.589587895	0.170685686
0.432845102	0.877481319	0.447975807	0.558438333	0.170599258	0.591530535
0.855538306	0.111552656	0.864700651	0.155415181	0.592167529	0.156315199
0.104028328	0.865999634	0.867118955	0.615460813	0.158837871	0.16282256
0.071628751	0.854709751	0.079622003	0.6276591	0.148911304	0.647572283
0.09267417	0.099759928	0.841643771	0.629490114	0.604425264	0.134952387
0.866519303	0.087877316	0.867818052	0.162172386	0.619270892	0.159877597
0.87734641	0.461581065	0.422168505	0.170565597	0.609398054	0.57309242
0.865354075	0.081303543	0.867409545	0.161373032	0.621413652	0.159630874
0.4358961	0.877364253	0.448129474	0.542823958	0.17058316	0.575786351
0.426371275	0.877398538	0.463990014	0.572569002	0.17058052	0.609147365
0.463211987	0.878017089	0.452148917	0.530744775	0.171040986	0.560111392
0.062509093	0.062470027	0.062383163	0.638770507	0.638625409	0.638656098
4.86004E-06	0.881455381	4.86518E-06	0.698996698	0.175161587	0.69930273
0.082799413	0.869050546	0.093496807	0.655977076	0.162658002	0.668673279
0.462153593	0.415592315	0.877718954	0.626254057	0.589590093	0.170713588
0.877653418	0.47033631	0.419831744	0.17077165	0.559758586	0.520890625
0.213317458	0.207315519	0.826633775	0.60778914	0.579709697	0.119157045
0.882405821	0.054274082	0.875363926	0.174863735	0.690529182	0.170371133
0.877304376	0.436934898	0.444488589	0.170446094	0.59190341	0.562284902
0.856044013	0.123154327	0.863699433	0.156055405	0.588599428	0.155289557
0.867320968	0.104295209	0.866336904	0.162708996	0.615267011	0.158821037
0.081451308	0.868914319	0.091756962	0.656832285	0.162629984	0.669798787
0.864363332	0.855350059	0.111396426	0.155975758	0.154955013	0.592240691
0.844493706	0.133695592	0.862742251	0.148708382	0.567819466	0.155843618
0.881791209	0.041161321	0.040802343	0.175027124	0.692449121	0.693068832
0.123174562	0.862860971	0.856661518	0.588411364	0.155136253	0.156460934
0.8671048	0.867069179	0.095440119	0.159579193	0.162588562	0.617582595
0.133711766	0.863756802	0.845516897	0.567790902	0.155383789	0.148267934
0.866208698	0.10432403	0.866266932	0.162476073	0.615232949	0.159148113
0.865963744	0.081423697	0.867724519	0.161390676	0.621631955	0.159779379
0.868934242	0.082939455	0.074659527	0.162656772	0.672467945	0.660450503
0.133297262	0.128677518	0.098443681	0.610059822	0.609615599	0.614318397
0.459563907	0.429595479	0.877516117	0.559888695	0.524371912	0.170656849
0.87758548	0.459596177	0.429633247	0.170671133	0.559836937	0.524301857
0.88429569	0.040848265	0.8769797	0.175281073	0.692869762	0.170833005
0.072338927	0.069988437	0.074372794	0.649579308	0.649872537	0.649564977
0.865823609	0.855499881	0.107701443	0.157166022	0.154996184	0.593890225
0.392568312	0.876707917	0.484393068	0.582319424	0.170666438	0.625393807
0.04087015	0.880995768	0.041198068	0.692926572	0.175029082	0.692389912
0.872599653	0.875049747	0.04635481	0.165123596	0.168558896	0.658962935
0.872556111	0.874560511	0.047163059	0.165156244	0.168401513	0.657012324
0.421951856	0.877652081	0.45963197	0.55488714	0.170486012	0.590678833
0.068902624	0.079492887	0.855166286	0.65194707	0.632406647	0.148825367
0.877319905	0.451069174	0.432417149	0.170504477	0.608594309	0.575172081
0.445406781	0.449203813	0.877343515	0.608469015	0.578272504	0.170602201
0.040864693	0.876451362	0.882703901	0.693223956	0.1707938	0.175141436
0.203068036	0.825307223	0.205778309	0.583307723	0.118756728	0.611007047
0.470363219	0.419782182	0.877633499	0.559555768	0.521075976	0.170570635
0.425626773	0.877479706	0.46444174	0.573182538	0.170577406	0.609693472
0.154023588	0.859147767	0.846247497	0.560927383	0.151905599	0.150976833
0.845582119	0.141810614	0.860276447	0.149975809	0.564529977	0.153701207
0.856346638	0.116667592	0.863800929	0.156078059	0.590361197	0.155812467
0.876178555	0.882433796	0.040861755	0.170287213	0.174908486	0.693128991
0.866493331	0.1043329	0.866428912	0.162415736	0.615299229	0.159144988
0.473450811	0.404054924	0.877394954	0.625768596	0.586281394	0.170699345
0.876328306	0.883139703	0.027326261	0.170762092	0.175187328	0.695155227
0.014626276	0.881291916	0.014502576	0.697193743	0.175179285	0.697355745
0.448445605	0.877334604	0.444876731	0.57859477	0.170605188	0.608839944
0.865257176	0.077127969	0.867641939	0.161194336	0.623002177	0.160110743
0.884299255	5.49578E-06	0.875412868	0.176136962	0.699347099	0.170746934
0.480855618	0.410121016	0.87743902	0.55927717	0.517606246	0.17053049
0.841658645	0.083372619	0.102251443	0.134744565	0.63103558	0.605911747
0.884058221	0.013705415	0.875541144	0.175678395	0.697278318	0.170736442
0.076031733	0.870536374	0.874220379	0.650476421	0.164630826	0.168590623
0.219874473	0.826319717	0.212294758	0.583506773	0.11915594	0.610865338
0.446337606	0.877320619	0.437050694	0.546041686	0.170632494	0.575675674
0.083143969	0.075784571	0.853516303	0.647682162	0.627724751	0.148708154
0.882391979	0.054277539	0.874780869	0.175369359	0.690552148	0.170531741
0.027979333	0.028200121	0.881869664	0.694403478	0.694789764	0.175176297
0.88197008	0.027443873	0.027326955	0.175621565	0.694894063	0.695205537
0.429555971	0.87743779	0.459528289	0.524224481	0.170573351	0.559938336
0.877444974	0.44807121	0.435993206	0.170638472	0.5757179	0.542877941
0.107529203	0.082973087	0.855714223	0.643474338	0.624189547	0.149553396
0.868922302	0.098368246	0.082257917	0.162837619	0.667103791	0.654739583
0.238646088	0.256126181	0.825374963	0.609728652	0.576650816	0.118639052
0.855564119	0.06901167	0.071360651	0.148997368	0.649714925	0.629476575
0.013706963	0.875849457	0.883960418	0.697388808	0.170552663	0.175447667
0.877253404	0.480597466	0.401370283	0.170099882	0.589943853	0.548331259
0.392840099	0.877267078	0.484679401	0.58249895	0.170653425	0.625183048
0.825813153	0.137287656	0.128421217	0.119047806	0.605265138	0.576066145
0.448075349	0.432706962	0.877638442	0.591039999	0.558361726	0.170528414
0.099967637	0.841778321	0.114131357	0.600402063	0.135001295	0.625634665
0.084384227	0.869069991	0.099881818	0.654347983	0.162648584	0.667744025
0.884206033	0.040854483	0.875437158	0.175418367	0.692979163	0.170398444
0.877405364	0.469898085	0.415507845	0.170557132	0.575444627	0.536151138
0.422140875	0.877530541	0.459291204	0.554583631	0.170535314	0.59040156
0.095468863	0.866749738	0.867019782	0.617359028	0.158966232	0.162486727
0.877205357	0.458912635	0.421941319	0.170187078	0.590665705	0.554710634
0.175629331	0.091155845	0.181362554	0.61237771	0.616140161	0.617202493
0.866010999	0.081337254	0.867482238	0.161447538	0.621762536	0.15971145
0.871839873	0.875088712	0.046568294	0.165080952	0.168987124	0.659023585
0.079858614	0.869299629	0.082792645	0.662771522	0.162508074	0.674862153
0.843950181	0.137266651	0.860799851	0.148471663	0.566240164	0.153831694
0.877546733	0.459040479	0.4221393	0.17053178	0.590789704	0.555287071
0.877739938	0.470303766	0.419959882	0.170832846	0.559747771	0.520885402
0.841867965	0.125192019	0.103092282	0.135188675	0.62361034	0.598518931
0.882780789	5.49427E-06	0.874688278	0.175183088	0.69908291	0.169818154
0.091250433	0.074736838	0.855817568	0.645709214	0.625886595	0.149452465
0.306802837	0.8260264	0.304265665	0.584259934	0.118696872	0.611832483
0.825803564	0.220151119	0.22342811	0.119281824	0.609284673	0.581873055
0.823710024	0.822827821	0.822474374	0.298492743	0.298816784	0.298782857
0.080137225	0.206979964	0.205608613	0.620416646	0.62089986	0.624565338
0.855886023	0.079918058	0.071556727	0.149310617	0.64787939	0.627812858
0.459108629	0.422081788	0.87762486	0.590800201	0.555088909	0.170417666
0.867528639	0.865636323	0.081530484	0.159791952	0.161642063	0.62151419
0.87746534	0.462026526	0.415466211	0.170544209	0.62622541	0.589608201
0.21699076	0.215356843	0.826179159	0.607508548	0.579479045	0.118720443
0.446357553	0.877367806	0.437076452	0.546075632	0.170621413	0.575726657
0.882793048	0.040851691	0.875136074	0.175264109	0.692917501	0.170181414
0.046701889	0.047819137	0.051795026	0.656947991	0.658341474	0.658411601
0.134393674	0.825211766	0.142316536	0.576480575	0.119004895	0.605329656
0.864944897	0.077084147	0.86774475	0.161182348	0.623263818	0.159992596
0.865877403	0.86665987	0.104031103	0.159038562	0.162796822	0.615402312
0.825925207	0.145673606	0.128697716	0.119410529	0.603435268	0.574639656
0.095450168	0.331168598	0.279166721	0.622130026	0.624355584	0.62324283
0.884415132	0.040850179	0.876893083	0.175339723	0.692852428	0.171103431
0.877288439	0.437048106	0.446307938	0.1705821	0.575754674	0.546053338
0.05428663	0.875917564	0.883064773	0.690732871	0.170942392	0.175171525
0.874868223	0.882609742	0.027328124	0.170513331	0.174814556	0.695217778
