Va	Vb	Vc	Ia	Ib	Ic
0.868733973	0.076699794	0.079358938	0.16258071	0.676016759	0.664278831
0.877749782	0.480919924	0.410371947	0.170897997	0.559573459	0.517352294
0.866976551	0.104035098	0.866747537	0.162810027	0.615472295	0.158946038
0.013708538	0.87758431	0.884644511	0.69736737	0.171037564	0.175366493
0.149613914	0.133406108	0.826184121	0.603015685	0.575308894	0.119234958
0.123111326	0.86330732	0.856434003	0.588686586	0.155171584	0.156309398
0.107870657	0.865071499	0.855613353	0.593709771	0.156694528	0.154546678
0.133725228	0.862592325	0.84403418	0.567847733	0.155211773	0.148198999
0.100449585	0.128118278	0.167813227	0.616742352	0.621654725	0.618918245
0.045745206	0.048733957	0.052761454	0.657960873	0.658104165	0.659919072
0.137250602	0.862592141	0.845819342	0.566234678	0.154368687	0.149083788
0.014113617	0.014130248	0.881566348	0.697039804	0.697422834	0.175311346
0.099735212	0.841732153	0.092689191	0.604319936	0.134818536	0.629762414
0.058714689	0.038367379	0.077173552	0.679612669	0.678962388	0.680218941
0.02786684	0.027673491	0.028284242	0.695251232	0.694860154	0.695285956
0.013890227	0.014530476	0.014015099	0.696765844	0.697382336	0.696179187
0.090824155	0.075685224	0.869278739	0.669844143	0.660042446	0.162590318
0.865778682	0.081479054	0.867225021	0.161520212	0.621462252	0.159373182
0.872137977	0.875523343	0.047430052	0.165314567	0.169220717	0.657121179
0.027846534	0.027669952	0.028265429	0.69543837	0.695120479	0.695021543
0.415543091	0.87731991	0.469950117	0.53609818	0.17052124	0.575431157
0.045428177	0.048076409	0.053315116	0.655907628	0.656157105	0.655916005
0.865829047	0.081512602	0.867500154	0.161404393	0.621175312	0.159630573
0.846589172	0.153889574	0.859583421	0.15125834	0.560809946	0.152205604
0.842551101	0.133762614	0.862336078	0.147777618	0.567667491	0.154765395
0.855522359	0.116692019	0.863388722	0.155269367	0.590353441	0.155613838
0.8743245	0.050642184	0.871460033	0.168268391	0.658838463	0.164996997
0.070067172	0.065652736	0.085698169	0.670329191	0.670805856	0.671991138
0.872185631	0.874062278	0.055334154	0.164518558	0.16758774	0.654760849
0.013705155	0.875740371	0.882303935	0.69726725	0.17022676	0.174649428
0.075971557	0.871795222	0.874546645	0.650549805	0.164590388	0.168558751
0.868109145	0.866609611	0.077467109	0.160230258	0.161769822	0.623130277
0.876133455	0.882108561	0.040859572	0.170670374	0.175222729	0.693098447
0.074335553	0.855358702	0.091326007	0.625750982	0.149101401	0.645522134
0.881338388	4.83972E-06	4.88567E-06	0.175398728	0.699056158	0.698914109
0.077526875	0.080893741	0.868992867	0.678273012	0.666124068	0.16252713
0.079611949	0.071566007	0.855748608	0.647838993	0.62775555	0.149030498
0.059982586	0.060038777	0.059965809	0.639959889	0.640157011	0.639785618
0.070617453	0.051511589	0.083009577	0.672898315	0.67242575	0.674351843
0.877329782	0.451009784	0.432012794	0.170487179	0.608747288	0.575260537
0.070459942	0.051579029	0.083173245	0.672899229	0.672397418	0.674358613
0.04141115	0.041191011	0.042263891	0.693122958	0.692452738	0.692391783
0.446053681	0.877351178	0.444511849	0.576450714	0.170560031	0.606943504
0.045321024	0.048518227	0.054098323	0.655597469	0.656526327	0.655347937
0.861968419	0.842835752	0.133727732	0.154670289	0.147409464	0.567697424
0.062492639	0.062484696	0.062444534	0.63829203	0.638244997	0.638523406
0.425680509	0.87744835	0.459135354	0.539352763	0.170654149	0.575354721
0.413986902	0.877429893	0.475845689	0.566299526	0.170648688	0.605562636
0.099237857	0.841896684	0.103063272	0.602345377	0.134894107	0.627684233
0.041011519	0.882105156	0.041665073	0.692780329	0.175735122	0.692051711
0.45903784	0.425728134	0.877339776	0.575460321	0.539353201	0.1705792
0.415340186	0.877229485	0.461915955	0.589869716	0.170522593	0.626054603
0.027832645	0.027700565	0.028382304	0.695462412	0.695188609	0.695000238
0.86015007	0.846963374	0.153960913	0.152348851	0.151453956	0.560906495
0.876974892	0.483465761	0.472102862	0.170707948	0.560824638	0.532140917
0.087820784	0.867025307	0.865731879	0.61988616	0.159642634	0.161976257
4.89475E-06	4.82364E-06	0.882066611	0.699274762	0.699625775	0.175325223
0.496813969	0.512288585	0.877471935	0.559630312	0.531398305	0.170617619
0.040463481	0.046174454	0.073988559	0.677022452	0.678606769	0.680547653
0.854485906	0.107569841	0.865012861	0.154564476	0.59378824	0.156608658
0.866704919	0.095154801	0.867303403	0.162296271	0.61786351	0.159384952
0.855036484	0.079641243	0.071690082	0.148837689	0.647841213	0.627994728
0.041500158	0.882056846	0.041496555	0.69255888	0.175482649	0.69212362
0.099897537	0.081364416	0.869225478	0.669230587	0.657510015	0.162741282
0.393363346	0.878343882	0.485230588	0.582681064	0.170809098	0.625217678
0.07600848	0.870911865	0.875366854	0.650525492	0.164461855	0.168897648
0.06522037	0.872188895	0.873917866	0.652766295	0.16477067	0.168401142
0.153931872	0.860158364	0.846498064	0.560900277	0.152511987	0.151697565
0.87734889	0.459010447	0.425596727	0.170580342	0.575609314	0.539612714
0.458959071	0.425755861	0.877347367	0.575873524	0.539676445	0.170583788
0.435737372	0.877360375	0.454503139	0.576209155	0.170571639	0.609602083
0.45969455	0.429640826	0.877697316	0.559820342	0.524434075	0.170788331
0.027322681	0.876666195	0.883850741	0.695140732	0.171217727	0.175671124
0.877355938	0.483937078	0.399908775	0.170490164	0.60820932	0.565465855
0.103117414	0.078834892	0.856053484	0.643209148	0.623617808	0.149701185
0.072990654	0.855300792	0.071500901	0.629391942	0.14917105	0.64954989
0.128340857	0.108862497	0.146671346	0.616339845	0.614728214	0.615794943
0.860972839	0.844411566	0.141740775	0.152883329	0.148963915	0.564528962
0.393179776	0.877949681	0.485022516	0.58263888	0.170819714	0.625176139
0.058822604	0.038962518	0.077957703	0.679378887	0.679081579	0.679881484
0.499708808	0.51691305	0.877597467	0.559541301	0.530338306	0.170684473
0.865730055	0.087709192	0.866803087	0.161862396	0.61934159	0.15930408
0.865811373	0.076991731	0.867066718	0.161107461	0.622956219	0.159474626
0.473470656	0.404096944	0.87745623	0.625711422	0.585998584	0.170438237
0.142242126	0.825958327	0.147720332	0.576226646	0.118877347	0.603147345
0.056068695	0.044848184	0.075124155	0.674658188	0.674735142	0.675524996
0.825597268	0.273190702	0.283564922	0.118347088	0.611008155	0.582085201
0.450487322	0.427056985	0.877559078	0.62658007	0.5930947	0.170560991
0.059456894	0.064197453	0.06315005	0.652061554	0.651368842	0.651293941
0.099745001	0.841586911	0.092764777	0.60434523	0.13483664	0.629685056
0.069781997	0.051828138	0.082568924	0.673092477	0.672536612	0.674035521
0.855440733	0.102882949	0.078893061	0.149301791	0.643347783	0.623584657
0.103100698	0.078910477	0.856632432	0.64358907	0.623871785	0.149704735
0.076993852	0.867565491	0.865671396	0.623063938	0.160159939	0.161679332
4.89815E-06	0.880549207	4.86746E-06	0.699178775	0.175166389	0.698819663
0.068840296	0.071295526	0.855524587	0.650095618	0.629348518	0.149058413
0.825517149	0.265318743	0.277689956	0.118498292	0.611677699	0.586023773
0.877415756	0.483569734	0.400427161	0.170588474	0.608638935	0.566075794
0.869081494	0.09012864	0.076060119	0.162685132	0.671541414	0.659527045
0.480613577	0.401231729	0.877161936	0.590164428	0.548193505	0.170145438
0.059639014	0.064908512	0.06305992	0.652031632	0.651722597	0.652064879
0.841799095	0.092713006	0.099670507	0.13479145	0.629619536	0.6043528
0.87823195	0.481216233	0.410538585	0.170942638	0.559618417	0.517403902
0.872351969	0.874400894	0.075940995	0.164379659	0.168176905	0.650451738
0.473570034	0.404181302	0.877640051	0.625932797	0.586149756	0.170725752
0.14745069	0.860292387	0.845919546	0.562692799	0.153126735	0.150829197
0.284522995	0.288825133	0.82587062	0.611491832	0.583272949	0.118712221
0.082903006	0.256147753	0.236598703	0.620087908	0.624745216	0.625108437
0.409887257	0.877021198	0.480658399	0.517507457	0.170440844	0.559484199
0.409741962	0.876697993	0.480494063	0.517576094	0.170490935	0.559359531
0.860968924	0.844818791	0.141737902	0.153625534	0.149663426	0.56457308
0.459140566	0.422045104	0.877615914	0.591017211	0.554987295	0.170829537
0.123104494	0.864048539	0.855949804	0.588586669	0.155674162	0.156710719
0.141730631	0.860257432	0.846038998	0.564530152	0.153815877	0.150014452
0.875528817	0.884346501	5.49755E-06	0.170196644	0.175755279	0.699578564
0.459099011	0.421999817	0.877526736	0.590930432	0.554958123	0.170862476
0.144882133	0.137298788	0.096283688	0.61883396	0.61656114	0.615306078
0.877528101	0.450468785	0.427044702	0.170693268	0.626494491	0.593027045
0.497003268	0.5124178	0.877472344	0.559549743	0.531391078	0.170609693
0.877099877	0.450255259	0.426829581	0.170661988	0.626556899	0.593051047
0.107696386	0.864749806	0.854526481	0.593873361	0.156891275	0.154429195
0.877443496	0.462768512	0.420753392	0.170637493	0.609522902	0.572978083
0.883013243	0.02732323	0.875190023	0.17542355	0.69517744	0.170409024
0.86889161	0.081120853	0.078023877	0.162637308	0.672412294	0.661647554
0.0870383	0.86892724	0.084152338	0.665000855	0.162448754	0.677089408
0.87473297	0.065239982	0.87146867	0.168424649	0.6526585	0.164588673
0.051589866	0.053552445	0.057669647	0.653825917	0.654150421	0.653901017
0.051808893	0.053879101	0.058485746	0.653956889	0.654335524	0.653829714
0.855598384	0.102797717	0.078683327	0.149597545	0.643353772	0.623853134
0.085485602	0.869002405	0.08206037	0.665400124	0.162545984	0.677363442
0.068842072	0.071259833	0.855111228	0.649869035	0.629482721	0.148782375
0.878102412	0.481142819	0.410483814	0.170945878	0.559595626	0.517381737
0.874910875	0.055407426	0.871731939	0.168608932	0.65503561	0.164687054
0.070107515	0.071789146	0.074144717	0.649802833	0.650139811	0.650310527
0.825708229	0.250528755	0.25272993	0.118963552	0.612879423	0.585265178
0.877302607	0.462453233	0.421022907	0.170578531	0.608612989	0.572162704
0.054261847	0.881403083	0.05464938	0.690580417	0.175386613	0.690057144
0.432532156	0.877499595	0.448216836	0.558111771	0.170565665	0.590821593
0.846335382	0.153976081	0.85859709	0.150902579	0.560862465	0.15160486
0.06252243	0.062485589	0.062433592	0.638357301	0.638410224	0.638539548
0.405913752	0.877343969	0.480604447	0.532755084	0.170554021	0.575083712
0.43889486	0.877820881	0.438899553	0.596391655	0.170924658	0.626521082
0.874181775	0.049523861	0.872374531	0.168293724	0.658823032	0.165210519
0.062482169	0.062476922	0.062440377	0.638276419	0.638245752	0.638499228
0.865058434	0.077109007	0.866947777	0.161079505	0.622904323	0.159951071
0.401194586	0.876952469	0.480486852	0.548640475	0.170332386	0.590494315
0.476036572	0.413057532	0.877335692	0.610540451	0.570857518	0.170524656
0.130405897	0.863987016	0.857679784	0.586352157	0.155157858	0.157479291
0.43587985	0.877312803	0.448086976	0.54288263	0.170528213	0.575829439
0.43937099	0.876893041	0.448449407	0.527572063	0.170804943	0.559870927
0.06886452	0.071361687	0.855142483	0.649839285	0.62970521	0.14896277
0.877469891	0.440965851	0.443601867	0.170617859	0.609264263	0.578678352
0.133718314	0.862243401	0.843817533	0.567791232	0.155079252	0.148040698
0.758101685	0.75704157	0.754361411	0.383834027	0.384581379	0.384007899
0.059578988	0.064008607	0.062546175	0.651928303	0.652380704	0.6523233
0.826472883	0.137225907	0.125411917	0.119146428	0.605466091	0.577963328
0.864681309	0.854457752	0.111440973	0.156355908	0.155270774	0.591884356
0.286232234	0.297880043	0.825562286	0.616211256	0.588360283	0.118716972
0.133743255	0.861878929	0.844329078	0.567776925	0.155435763	0.148403278
0.044963054	0.048383595	0.051232902	0.657255929	0.658027586	0.658690232
0.404224663	0.877709915	0.473596868	0.586191779	0.170703439	0.625716888
0.867408728	0.865951358	0.081930117	0.15984658	0.161636072	0.621194761
0.079736775	0.071489495	0.855902507	0.647901905	0.627374229	0.149360913
0.877342823	0.437071355	0.446338423	0.170588257	0.575737108	0.546083461
0.06687608	0.07842237	0.855480705	0.653444427	0.633451567	0.148764253
0.1114043	0.86514878	0.855940724	0.592153117	0.156351643	0.155306013
0.144266202	0.827046591	0.149347958	0.576909794	0.119069115	0.604849558
0.133732212	0.862166626	0.843563196	0.567772616	0.155271765	0.148258921
0.863768289	0.855979703	0.116642453	0.155437322	0.155457825	0.59038775
5.49123E-06	0.876029706	0.884252703	0.699340402	0.170572327	0.17602252
0.87705173	0.450233446	0.426803725	0.17058996	0.626359483	0.593251157
0.459850669	0.429949815	0.87817047	0.559896353	0.52438334	0.170628138
0.130423443	0.863570816	0.857470669	0.586292123	0.155126406	0.157419229
0.480782102	0.41014569	0.877395593	0.559367397	0.517514092	0.170643382
0.054635774	0.054871447	0.054789177	0.690299791	0.69016824	0.690379419
0.450135769	0.426711086	0.876861268	0.626414556	0.593155903	0.170387129
0.137194358	0.860793288	0.844420615	0.566396905	0.154080593	0.148879944
0.45974499	0.429788238	0.877897457	0.559851909	0.524439498	0.170769684
0.860442058	0.844871782	0.147458164	0.153293741	0.150801161	0.562965887
0.85399331	0.107531078	0.865039255	0.154873811	0.593905183	0.156990953
0.065200627	0.87168162	0.875023905	0.652841548	0.164483111	0.168682801
0.041135871	0.040919623	0.881857368	0.692669203	0.692938198	0.175314976
0.855902833	0.068700711	0.071907659	0.149480695	0.649861337	0.629942107
0.435015407	0.877502901	0.454674076	0.574944504	0.17056583	0.608275985
0.04114056	0.040873229	0.88176696	0.692633548	0.692994204	0.175207003
0.437955296	0.444884752	0.877407841	0.592712089	0.563218625	0.170332141
0.127929445	0.108762601	0.151142393	0.615445781	0.613042774	0.614439104
0.051802222	0.054021289	0.058641628	0.654153478	0.654421592	0.653717111
0.480475204	0.405863982	0.87730598	0.575296996	0.53280256	0.170518013
0.239061212	0.245622599	0.825514342	0.609685585	0.582303332	0.118370171
0.826296163	0.22641398	0.230247069	0.118608406	0.610090578	0.582067909
0.480869183	0.410203057	0.877546213	0.559261589	0.517666904	0.17046406
0.40373137	0.87740825	0.484674564	0.564924363	0.170518967	0.607559247
0.427293368	0.878026042	0.450717611	0.592975716	0.170813738	0.626530912
0.429615159	0.877655746	0.459688238	0.524430459	0.17084611	0.559752958
0.874704683	0.883718279	5.49553E-06	0.170689862	0.175393229	0.699300694
0.484798996	0.392930424	0.877478906	0.625225476	0.582596904	0.170629614
0.06005014	0.060040927	0.059939218	0.639834485	0.640168077	0.63994097
0.867112213	0.86630108	0.088228638	0.15958906	0.162464796	0.619678939
0.091355846	0.079386891	0.869402877	0.668160785	0.65707307	0.162652113
0.866412398	0.095444782	0.867213653	0.162545656	0.617345026	0.159490753
0.875683847	0.07597574	0.871217472	0.168927725	0.650416495	0.164552482
0.446288964	0.877272089	0.437049954	0.546070665	0.170532644	0.575744686
0.876935008	0.4485527	0.439299259	0.170672545	0.559962486	0.527587369
0.825594743	0.26917626	0.276701526	0.118529637	0.611923149	0.586702068
0.874865299	0.065249426	0.871296513	0.168657404	0.652692662	0.164851393
0.027943501	0.027991155	0.88194013	0.694764552	0.694911765	0.175124338
0.111508818	0.864026327	0.855016381	0.592059814	0.15592991	0.155125936
0.069455398	0.065394036	0.084423705	0.670329096	0.67112595	0.672798397
0.877430679	0.45042049	0.426995735	0.170495217	0.626367206	0.593213242
0.041621366	0.041149194	0.042479323	0.693224302	0.691865623	0.692928557
0.083388356	0.868876593	0.084758523	0.660520394	0.162654883	0.672915102
0.438785197	0.877601509	0.438789909	0.596445518	0.17065752	0.626569356
0.860191135	0.845850758	0.147451222	0.153058344	0.150693585	0.562530941
0.054587802	0.054243016	0.880973335	0.690079985	0.690350313	0.175109539
0.473389441	0.403999628	0.877277514	0.626002016	0.586102716	0.170468173
0.877795258	0.47364204	0.404264713	0.170655014	0.625779153	0.586114675
0.864581888	0.856093392	0.116599096	0.155805121	0.155749279	0.590447314
0.877366612	0.462315046	0.421208317	0.170643223	0.608647251	0.572226442
0.867411433	0.8651593	0.077455408	0.159634617	0.161291685	0.622506934
0.027452337	0.88186145	0.027752115	0.69523448	0.175337083	0.694713779
0.415341922	0.877215421	0.46190109	0.589829501	0.170470528	0.626088749
0.875817508	0.882763371	0.027320956	0.17059995	0.17581131	0.695105761
0.881474679	0.027990476	0.027610347	0.17537637	0.694826224	0.695413507
0.877342924	0.437071396	0.446338481	0.170588272	0.57573713	0.546083527
0.841336277	0.083372378	0.102205284	0.134774053	0.631380895	0.606162553
0.866758485	0.095530691	0.866786806	0.162294406	0.617581219	0.159343407
0.067662243	0.067608052	0.067903208	0.636533698	0.63636693	0.63673713
0.074763864	0.856491171	0.091463794	0.625759759	0.149957772	0.645544754
0.856718405	0.130382714	0.862579972	0.156302255	0.586400668	0.154377536
0.081952953	0.85601117	0.069192709	0.633441348	0.149130659	0.654452083
0.111383734	0.864845945	0.855017751	0.59203162	0.156332085	0.155295864
0.877388285	0.462713143	0.420669302	0.170663936	0.60951216	0.572976161
0.402638213	0.877222099	0.486112713	0.564984139	0.17054594	0.607805789
0.841796639	0.113736688	0.100192358	0.135155821	0.626209844	0.600819746
0.866524577	0.095529801	0.867400683	0.162318608	0.617195633	0.159420236
0.863768353	0.85723392	0.130319573	0.155230306	0.157094308	0.586597891
0.42437369	0.877404213	0.465146712	0.573179756	0.170546459	0.609863928
0.865955428	0.081503626	0.867361175	0.161563776	0.621287938	0.15961039
0.473481164	0.404102645	0.877472003	0.625878152	0.58605023	0.170539635
0.415573548	0.877238786	0.46984151	0.536031373	0.17052005	0.575319287
0.435062735	0.877342715	0.454881475	0.574026292	0.170539235	0.607697545
0.856340462	0.091229063	0.074224695	0.149429418	0.645768161	0.625485024
0.865723823	0.087709894	0.86680213	0.161864169	0.61933655	0.159305219
0.415746231	0.877435707	0.469894151	0.536207787	0.170557775	0.575464939
0.137153905	0.86125917	0.843005466	0.566359916	0.153846636	0.148590246
0.09987246	0.081073419	0.869210367	0.668687154	0.657709178	0.162608401
0.49671662	0.512169338	0.87752969	0.560599948	0.531680214	0.170633733
0.499704446	0.516922894	0.877596925	0.559541357	0.530338786	0.170684578
0.133697021	0.861999421	0.844264511	0.56778947	0.155183245	0.148149873
0.130412566	0.863509361	0.857485803	0.58628436	0.155109809	0.157422758
0.877194176	0.458823181	0.422265179	0.170302225	0.590515535	0.554567959
0.85579878	0.068869553	0.071725067	0.148891996	0.649815462	0.62916182
0.027327822	0.876498217	0.88384238	0.695250899	0.170939252	0.175781298
0.877563783	0.473522425	0.404153282	0.170617942	0.625760524	0.586067748
0.849560977	0.846759892	0.848079056	0.257357299	0.257061621	0.256921906
0.045605532	0.047926348	0.053302607	0.655701391	0.656410644	0.656643352
0.054614897	0.054269758	0.881757374	0.689934144	0.69020702	0.175680776
0.087885038	0.867086363	0.86643643	0.619334557	0.159519831	0.162506225
0.086313109	0.868946525	0.083111761	0.665106024	0.162493592	0.67741825
0.869129175	0.080223706	0.077485149	0.162563289	0.674266708	0.663050575
0.08176882	0.867362418	0.865254661	0.621323299	0.159952967	0.161580973
0.044272834	0.872368534	0.873279774	0.65924708	0.165557093	0.16825823
0.125131054	0.110074896	0.145471574	0.615597195	0.614483161	0.614676294
0.845936099	0.153881505	0.85947599	0.151256454	0.560785645	0.152210569
0.082377877	0.869179298	0.099126413	0.656305888	0.162630003	0.668903523
0.27081101	0.283543305	0.825619504	0.613701973	0.583332162	0.118676745
0.469858845	0.415685447	0.877385344	0.575417896	0.53626234	0.170596963
2.79123E-06	2.9592E-06	2.85222E-06	0.69915698	0.699196955	0.69954634
0.866905274	0.103997469	0.866679334	0.162582143	0.615282106	0.159040504
0.867325918	0.865246002	0.07756856	0.159692842	0.161188231	0.622903922
0.841762189	0.092660379	0.099764554	0.134803254	0.629653494	0.604250767
0.439670081	0.87757559	0.448822294	0.527486106	0.170756257	0.559986693
0.080540956	0.855883908	0.104973795	0.623347128	0.14956021	0.642777214
0.881363804	0.041220515	0.040827832	0.175384244	0.69252969	0.693099968
0.045184216	0.872587796	0.875064897	0.659145185	0.165558175	0.168585924
0.459699241	0.429757017	0.877819907	0.559897399	0.524464903	0.170734226
0.867389512	0.865742614	0.081843881	0.159859749	0.161518813	0.62093572
0.877371644	0.483652955	0.400229046	0.170560032	0.608625453	0.565987391
0.841889655	0.092710805	0.099680868	0.134786966	0.629686276	0.604361819
5.49326E-06	0.876428286	0.883259288	0.699124048	0.171147744	0.175583124
0.111395327	0.865492991	0.856175389	0.592248211	0.1562932	0.155490385
0.877436706	0.469885918	0.415515818	0.170592746	0.575617856	0.536336222
0.84538795	0.141820411	0.861709259	0.149754997	0.564636127	0.153735505
0.147426621	0.86007579	0.845631667	0.562731765	0.152688469	0.15047243
0.340367397	0.825244866	0.343054082	0.583802162	0.118589031	0.6126027
0.415510791	0.877405871	0.47004665	0.536150288	0.170523545	0.575458432
0.047152186	0.871582023	0.874982376	0.656974055	0.164515614	0.168122997
0.081948385	0.855825871	0.06868129	0.633527181	0.149001837	0.654262285
0.045175705	0.872072465	0.874106956	0.65903875	0.165242388	0.168168945
0.862045306	0.846090083	0.141719801	0.153847493	0.149974947	0.564604673
0.868739222	0.084762687	0.076616063	0.162676894	0.672357763	0.661295242
0.056409874	0.044876798	0.075248709	0.67504025	0.674715959	0.675624463
0.103115232	0.099096628	0.841532992	0.627710684	0.60259403	0.134962236
0.882371495	0.027508428	0.027258033	0.175402038	0.695038504	0.694951564
0.864537683	0.85508057	0.107743942	0.156484486	0.154059635	0.593671655
0.843879131	0.137130259	0.861624783	0.148845989	0.566230692	0.154332387
0.825234257	0.135840512	0.128961756	0.118689177	0.605918714	0.576650612
0.062455685	0.062486143	0.062420778	0.638266023	0.638325025	0.638569967
0.099593215	0.081107298	0.869032624	0.667205776	0.656705956	0.162582152
0.866327817	0.866266288	0.104183252	0.158972922	0.162372051	0.615155074
0.865284841	0.077050292	0.866987947	0.161032713	0.622749969	0.160150213
0.435943842	0.877359626	0.448082609	0.542790523	0.170558461	0.575676779
0.438368628	0.444862977	0.877708216	0.593224151	0.563483205	0.17059385
0.403107921	0.877403518	0.48549849	0.564996826	0.170498848	0.607623209
0.130423424	0.863571158	0.857470554	0.586292139	0.155126384	0.157419219
0.469945685	0.415676435	0.877359557	0.575484215	0.536253075	0.170581422
0.091080141	0.078473436	0.86892498	0.668347109	0.657127439	0.16265124
0.100174873	0.082539279	0.868945923	0.667181044	0.656408484	0.162677921
0.044556965	0.049620542	0.051342236	0.657860651	0.658613958	0.658490959
0.88317983	0.054276537	0.876451435	0.174784905	0.690543877	0.170818559
0.876340818	0.88410669	0.054282872	0.17133865	0.175833915	0.690633194
0.877307343	0.448087456	0.43582504	0.170595381	0.575686445	0.542807297
0.062518443	0.062477436	0.062436875	0.638292541	0.638243173	0.638548695
0.875722882	0.883670728	0.027331878	0.170546118	0.175694214	0.69540567
0.131133263	0.826270781	0.149332951	0.575439205	0.118976205	0.60386209
0.392716469	0.877003843	0.484541434	0.582396349	0.170631471	0.625344773
0.883612594	0.027325783	0.875097401	0.175310566	0.69520872	0.169993039
0.842913322	0.13382584	0.861407906	0.14738003	0.567696572	0.154405161
0.860770501	0.843769203	0.137191612	0.153783886	0.148188767	0.566269137
0.07898208	0.081848787	0.86874293	0.678084662	0.665870826	0.162589384
0.070820935	0.051652433	0.08342717	0.67341913	0.672519123	0.674338396
0.102145116	0.841716131	0.083390418	0.606142293	0.134771668	0.631062628
0.877242477	0.459455222	0.429431416	0.170405405	0.559770716	0.524475311
0.877269378	0.459110552	0.422075509	0.170353658	0.590768198	0.554955065
0.425662861	0.877345117	0.45909491	0.539484613	0.170484645	0.575594221
0.276834669	0.299141291	0.825924018	0.613394751	0.584470215	0.118603969
0.404343451	0.877966781	0.473734543	0.586303098	0.170726246	0.625763176
0.045264939	0.871607646	0.874853514	0.659052141	0.165507901	0.168700776
0.866568034	0.865652251	0.08174414	0.159259598	0.161341779	0.621469934
0.172210966	0.158607326	0.094038398	0.616046264	0.615443954	0.615893214
0.040190974	0.046454166	0.074000002	0.677736908	0.676878085	0.678973631
0.874936848	0.065243714	0.871372917	0.168468864	0.652641539	0.164635418
0.065241294	0.871855321	0.874307626	0.652777222	0.165033829	0.168578346
0.41139164	0.877022459	0.469711619	0.551675716	0.170279723	0.590530787
0.074489605	0.855287368	0.091438662	0.625783912	0.149073963	0.645517969
0.419619607	0.877421782	0.470304866	0.521072395	0.170701109	0.55965847
0.757927097	0.761437125	0.759537519	0.383841624	0.384617635	0.384380951
0.124550795	0.103176259	0.841586177	0.623988733	0.598280591	0.135140596
0.054564608	0.055166029	0.055096342	0.69048685	0.689866149	0.69060104
0.438743392	0.877517667	0.438748097	0.596412763	0.170805808	0.626494377
0.104030021	0.866606835	0.866965057	0.615813339	0.159189283	0.162819955
0.054265595	0.881696472	0.054643739	0.690406115	0.175330765	0.690094031
0.087928996	0.86756407	0.865946029	0.619252856	0.159738049	0.161943075
0.059489351	0.063653578	0.062530823	0.652260705	0.652725052	0.652041846
0.881913726	0.054609139	0.054304674	0.175220297	0.689862913	0.690239191
0.450349249	0.426920439	0.877284218	0.626406108	0.593236951	0.170395346
0.459114059	0.425658817	0.877388758	0.575495869	0.539374411	0.170572886
0.480612016	0.401350813	0.877273111	0.589900931	0.548029158	0.170830502
0.825507101	0.13746421	0.129160652	0.118643045	0.60561664	0.576405541
0.866501369	0.865692748	0.104043433	0.159281804	0.16248539	0.615209502
0.07966952	0.071525777	0.855635089	0.647692475	0.62766391	0.149216016
0.045711551	0.04793736	0.053808534	0.655659303	0.656802632	0.65681996
0.446224435	0.877369192	0.444704672	0.576491326	0.170548341	0.606939602
0.827203015	0.187376143	0.194858836	0.118917571	0.610044468	0.580272729
0.860887216	0.844146459	0.137175473	0.1539905	0.148557231	0.566262909
0.081789343	0.867595464	0.865783796	0.621303596	0.1600585	0.161592935
0.11138932	0.86486506	0.855870057	0.592246639	0.156336143	0.155585288
0.864834419	0.854807786	0.111417131	0.156291169	0.155267565	0.592233759
0.459078829	0.422126676	0.877645064	0.590877243	0.555033261	0.170694148
0.825484888	0.200409528	0.199813449	0.118419174	0.612563393	0.580985747
0.107641088	0.864526281	0.855369147	0.593753215	0.156890323	0.154683626
0.166971295	0.154402501	0.095181772	0.617555862	0.617040339	0.615764782
0.86912531	0.090129213	0.076549661	0.16265783	0.672168486	0.659833846
0.856126455	0.091285495	0.074131369	0.149274095	0.646027512	0.625686809
0.099223494	0.841757708	0.103092046	0.602416964	0.134910241	0.627646901
0.881720146	0.041265785	0.040868764	0.17550342	0.692722406	0.692935025
0.484818713	0.39295137	0.877518768	0.625240037	0.582629201	0.170692467
0.871778971	0.875177538	0.047473285	0.164970494	0.168847323	0.657117805
2.78626E-06	2.92904E-06	2.83171E-06	0.699305842	0.699248799	0.699562537
0.103415472	0.841791322	0.125019957	0.598642558	0.135421022	0.623563372
0.882541839	0.040847139	0.877006167	0.174756573	0.692842312	0.170675768
0.845564917	0.141769687	0.860318896	0.149963584	0.564498768	0.153714688
0.877348905	0.459010474	0.42559668	0.170580339	0.575609329	0.539612721
0.877383454	0.480817302	0.410090782	0.170367498	0.559356052	0.517617226
0.86701627	0.095338599	0.867156527	0.162548093	0.617539402	0.159398891
0.059932265	0.039654637	0.079647003	0.679406788	0.679200335	0.679966576
0.113717575	0.100136388	0.841941963	0.625880026	0.60058724	0.135191629
0.877508539	0.459561372	0.429599929	0.170598955	0.559808446	0.524459543
0.128089626	0.110678872	0.1473448	0.615662429	0.61547325	0.615860085
0.132786688	0.825566296	0.149438176	0.574827147	0.118937188	0.603886572
0.864502038	0.856844366	0.123139258	0.155775008	0.156557383	0.588499148
0.095594985	0.866428546	0.866759417	0.617547601	0.159093667	0.162467202
0.825404787	0.137042361	0.130621488	0.11865916	0.605673627	0.576318823
0.424384575	0.877396567	0.465105479	0.57317767	0.170547168	0.609859579
0.415488346	0.877355774	0.469998732	0.536016219	0.170533965	0.575267335
0.882483105	0.054664879	0.054283082	0.175841584	0.690402466	0.690194726
0.758335932	0.75927044	0.759574821	0.384196741	0.383885838	0.38468723
0.864511365	0.854597959	0.107694506	0.156335322	0.154222828	0.593874017
0.113759777	0.100310154	0.841496279	0.626133967	0.600706985	0.134980175
0.092631528	0.099653183	0.841471267	0.629530401	0.604547663	0.134949381
0.46209819	0.415536516	0.877607644	0.626317143	0.589586132	0.17075404
0.82597586	0.188604308	0.19396142	0.11855325	0.613103223	0.58041714
0.877788786	0.470438188	0.419855349	0.170697498	0.559608067	0.520951761
0.062455685	0.062486143	0.062420778	0.638266023	0.638325025	0.638569967
0.87429531	0.055394041	0.872150708	0.168588326	0.655142733	0.164754252
0.15397199	0.859840237	0.847320275	0.560844018	0.151961122	0.151257407
0.877249289	0.43861397	0.438609231	0.170337854	0.626566698	0.596408977
0.865010375	0.854630453	0.111474676	0.155823342	0.154749993	0.591893052
0.882978381	0.013706753	0.876290455	0.175046477	0.697339382	0.17044623
0.080651837	0.08400555	0.868953458	0.679559428	0.666527222	0.162496074
0.86652755	0.865789153	0.088287054	0.159289175	0.161826124	0.619561785
0.476039883	0.413058609	0.877336042	0.610545318	0.570858877	0.1705246
0.860528115	0.845595722	0.147458895	0.15307766	0.150704864	0.56253465
0.111440071	0.864165366	0.855657797	0.592115166	0.155840709	0.155072624
0.873754983	0.876495935	0.055330974	0.16535012	0.168869775	0.654916932
0.462015956	0.415447571	0.87743651	0.626375538	0.589680028	0.170472368
0.470041191	0.411731597	0.877685194	0.590650624	0.55144662	0.170622347
0.871640082	0.874352559	0.047246069	0.164855691	0.168059503	0.657044542
0.432748349	0.877744361	0.448150966	0.55828209	0.170848444	0.591381404
0.877362675	0.469856425	0.415485655	0.170602382	0.575535896	0.536192945
0.85574247	0.09125715	0.07426277	0.149382144	0.645137539	0.625834717
0.841816997	0.092691887	0.099678592	0.134800368	0.629615459	0.604360089
0.877364903	0.450388491	0.426961423	0.170643457	0.626601294	0.593064596
0.85813661	0.130489791	0.862801566	0.156670611	0.586494194	0.154492092
0.825849513	0.220286497	0.232818992	0.118715639	0.611020619	0.581380266
0.014217177	0.014395877	0.881770745	0.697591653	0.697607509	0.175318478
0.876478216	0.883817031	0.013707327	0.17037373	0.17547427	0.69735204
0.841638668	0.113750656	0.10022283	0.135062559	0.625688152	0.600465068
0.877486139	0.480447321	0.405893477	0.170540853	0.575053857	0.532708438
0.039710493	0.04667368	0.073655103	0.677035085	0.676723813	0.67726733
0.459010361	0.421992575	0.877443954	0.59078517	0.55509229	0.170457277
0.856112343	0.091272841	0.074220817	0.149289952	0.646059143	0.625624946
0.877437813	0.474551111	0.478563113	0.170663854	0.562586429	0.533723806
0.883939147	5.50033E-06	0.876192319	0.175614289	0.699385121	0.170733201
0.87438666	0.050892459	0.872047326	0.168279869	0.658932279	0.165031639
0.877324785	0.43712667	0.444128379	0.170415922	0.591507401	0.56194756
0.075052185	0.856007367	0.091414135	0.62593524	0.149510197	0.645596198
0.432581404	0.877382851	0.448022591	0.558249042	0.170434323	0.590931147
0.881801857	4.81471E-06	4.83456E-06	0.175407112	0.69917226	0.699307935
0.476039937	0.413058626	0.877336047	0.610545397	0.570858899	0.170524599
0.856890212	0.068762444	0.07209027	0.149287026	0.650061253	0.629075293
0.429573278	0.877499933	0.459568091	0.52439248	0.1706549	0.559895236
0.855363554	0.064271986	0.077887862	0.148777944	0.653400741	0.632656051
0.103209119	0.078919816	0.856369268	0.643756033	0.62342531	0.149650478
0.130911722	0.312682183	0.212992318	0.621693248	0.622543019	0.622335694
0.856368294	0.10754054	0.866486145	0.155063673	0.593828163	0.157044964
0.103123087	0.099108164	0.841568379	0.627687495	0.602575847	0.134952387
0.861163809	0.844077756	0.141734198	0.153011654	0.14909616	0.564563923
0.480437107	0.405882506	0.877291408	0.575139888	0.532644188	0.170522099
0.329379534	0.826116815	0.324345716	0.586976581	0.118593199	0.613304156
0.841657414	0.124616681	0.10365783	0.135302104	0.623102075	0.598056532
0.866253642	0.077168886	0.868503347	0.161431156	0.623190222	0.159852955
0.055296906	0.872872682	0.87442997	0.654749908	0.165299226	0.168803041
0.465717822	0.424577628	0.877376574	0.608786629	0.572172462	0.170598399
0.825928544	0.216168924	0.225521621	0.118682217	0.60999743	0.580541769
0.147406748	0.860215748	0.845558805	0.56278517	0.153013178	0.15074493
0.857086554	0.123141473	0.863711598	0.156476208	0.588500726	0.155486973
0.434922129	0.877459122	0.4548812	0.574186295	0.170568384	0.607695314
0.045484425	0.048203828	0.053933101	0.655529244	0.656450153	0.655275926
0.882060369	4.8686E-06	4.86803E-06	0.175455802	0.699273365	0.699228707
0.054624996	0.054304327	0.882040357	0.689925865	0.690426014	0.175660541
0.758471653	0.758402542	0.760770456	0.384163803	0.383601065	0.38368816
0.877649314	0.470327652	0.419834982	0.170677767	0.559581146	0.52092374
0.875371453	0.883269538	0.013706509	0.170365831	0.175254896	0.697304513
0.439979301	0.878124388	0.449056549	0.527531664	0.17085349	0.560004121
0.8814833	4.85118E-06	4.86318E-06	0.175359941	0.69928216	0.699758591
0.081986233	0.856016613	0.069228183	0.63340721	0.149137251	0.654456777
0.068868109	0.071224908	0.855200872	0.649975389	0.629535906	0.148781331
0.877493912	0.472529095	0.482087113	0.170662481	0.559784842	0.531737072
0.864109896	0.85608982	0.116633206	0.155647205	0.155650649	0.590347854
0.447832288	0.432517529	0.877214947	0.590787674	0.55845984	0.170202803
0.844797798	0.137190788	0.862488946	0.148945705	0.566353705	0.154453362
0.111503121	0.864244873	0.85574601	0.59199073	0.155828345	0.155102599
0.095538504	0.86635262	0.866592553	0.617576475	0.159089456	0.162455632
0.074906444	0.074955081	0.07542787	0.634347001	0.634308679	0.634431773
0.846876026	0.153989225	0.858816299	0.151196017	0.560846317	0.151851962
0.137191061	0.861364725	0.84380675	0.566387368	0.153731743	0.148537439
0.871110047	0.874546542	0.075956981	0.164406503	0.168140056	0.65037369
0.237496497	0.235030052	0.82620408	0.60966361	0.578851925	0.118952244
0.455023037	0.435903851	0.877372414	0.610306191	0.577008384	0.170598199
5.49174E-06	0.874876896	0.882861405	0.699313138	0.170304301	0.175034847
0.872210431	0.875048893	0.065210088	0.165479985	0.16903854	0.652795554
0.877401792	0.450654535	0.432489833	0.170571442	0.609766036	0.576348363
0.855697808	0.065210795	0.079051502	0.149039125	0.652624266	0.631360969
0.073110384	0.855182863	0.070997037	0.629584225	0.148975315	0.649866923
0.120933328	0.111823402	0.141058686	0.615651358	0.614797662	0.61605153
0.054273592	0.876683422	0.882845262	0.690478348	0.170858495	0.174673965
0.875063101	0.049195145	0.873427489	0.168400966	0.659172102	0.165292002
0.877639527	0.448800951	0.43975081	0.170658133	0.559982526	0.527588169
0.079734748	0.869155528	0.093399895	0.659127757	0.162729549	0.670492657
0.041075346	0.882156862	0.041335556	0.693185278	0.175637516	0.692480002
0.872709284	0.874110409	0.047242293	0.16495282	0.168125037	0.65698913
0.825937093	0.237097694	0.247435946	0.118985628	0.611968135	0.581796637
0.826249634	0.148675572	0.131540751	0.119599359	0.601665099	0.5735582
0.074553227	0.854938211	0.091324328	0.625810175	0.149110982	0.645466221
0.860839021	0.844248797	0.141727344	0.1528975	0.148992212	0.564558286
0.130407952	0.863434396	0.857041802	0.586274795	0.154849185	0.157282259
0.099616742	0.841798089	0.092673533	0.60430835	0.13489961	0.629751002
0.872668124	0.87436838	0.075947469	0.164500116	0.168345463	0.650436713
0.427227444	0.877898983	0.450656573	0.593081664	0.170812373	0.626530918
0.086037426	0.868943329	0.082785139	0.665142642	0.162500818	0.677429207
0.877616337	0.48093513	0.410209381	0.170874439	0.55958184	0.517361943
0.438900596	0.438895856	0.877822793	0.626642906	0.596293209	0.170754674
0.866570956	0.095614566	0.867224918	0.162533214	0.617265699	0.159522748
0.470067202	0.415586139	0.87737162	0.575325845	0.536135104	0.170548505
0.306266702	0.826138396	0.295373468	0.590506499	0.118963881	0.617828652
0.437956227	0.444883694	0.877408456	0.592712259	0.563218951	0.170332066
0.877555783	0.448761339	0.439711584	0.170575288	0.559761878	0.527765207
0.845134609	0.141761785	0.861344185	0.149954614	0.564562334	0.154086467
0.415410616	0.877366161	0.461982351	0.589850143	0.170429928	0.626081801
0.882670458	0.027664698	0.027379978	0.175477709	0.694923184	0.694786744
0.079229169	0.082664424	0.868851219	0.677565846	0.665332837	0.162582132
0.86650072	0.095543687	0.867537704	0.162316189	0.61720788	0.159372463
0.877303754	0.470328063	0.411814973	0.170407814	0.59069914	0.551653199
0.877607935	0.438793413	0.438788676	0.170857859	0.626589279	0.596438747
0.487051136	0.401401069	0.877438389	0.607419204	0.564315279	0.170529301
0.051737258	0.0539444	0.058523616	0.653762705	0.654093163	0.653557381
0.459010213	0.421991708	0.8774431	0.590785146	0.555092289	0.170457112
0.465743116	0.424534383	0.877377623	0.608774348	0.572180553	0.170604368
0.883702134	0.040849955	0.876127635	0.17575192	0.692907606	0.170713993
0.877329919	0.461964285	0.415392778	0.170548907	0.626146287	0.589870889
0.43922758	0.878485915	0.439232268	0.596340962	0.170842952	0.626569203
0.132111641	0.826282678	0.148966294	0.575698695	0.118977713	0.602927031
0.841885671	0.103066098	0.098906927	0.135026721	0.627763813	0.602569123
0.405823893	0.877355513	0.480633464	0.53273431	0.170603397	0.57503833
0.100411934	0.841318961	0.113921814	0.600604413	0.135071939	0.625800047
0.841706104	0.092714968	0.099588802	0.134790344	0.629510221	0.604355109
0.877083851	0.447879464	0.432743274	0.170270738	0.590877981	0.558504755
0.855279496	0.064497105	0.077968984	0.148884885	0.652980982	0.63265243
0.099708199	0.841754159	0.092666093	0.60432387	0.134829843	0.629769075
0.865602192	0.081484095	0.86759298	0.161408971	0.621125838	0.159721495
0.434802407	0.877461953	0.455013498	0.575282183	0.170563959	0.608608961
0.825486354	0.134979677	0.126334272	0.119126904	0.603786891	0.57667215
0.432838665	0.877854649	0.448212279	0.558323063	0.170800441	0.591389895
0.32912591	0.825990555	0.32070726	0.58689552	0.118645605	0.613241988
0.107732608	0.864482004	0.855195582	0.593804811	0.157014849	0.154919993
0.841634578	0.125234832	0.103705705	0.135295519	0.623268178	0.597870521
0.401606009	0.877594696	0.480732069	0.548225866	0.170460576	0.58994867
0.054273737	0.875592818	0.883508375	0.690504004	0.170909697	0.175391656
0.844942775	0.141804089	0.860419916	0.149671049	0.564602005	0.153662517
0.448188367	0.435879346	0.877408079	0.575664867	0.542687709	0.170571025
0.044391631	0.87247634	0.873748227	0.659244104	0.165367764	0.168138648
0.875643365	0.882747806	0.040861775	0.170342229	0.17491484	0.693160151
0.825603654	0.148392511	0.132294483	0.119030794	0.604693534	0.575297347
0.058073352	0.03879145	0.0770404	0.679865542	0.679024129	0.680273758
0.855700462	0.116694659	0.864284099	0.155879235	0.590292707	0.156183549
0.825991795	0.136641124	0.126957931	0.119140001	0.605608607	0.577925165
0.078633843	0.868958778	0.087447365	0.662752048	0.162636769	0.671746783
0.866716935	0.866387517	0.095415089	0.159243831	0.162255536	0.617259069
0.758451486	0.758395643	0.760977009	0.384151768	0.383589859	0.383651338
0.081902195	0.867099442	0.866236677	0.621086088	0.159877597	0.161961456
0.103401021	0.841620109	0.125276538	0.598595881	0.135289257	0.62344538
0.051847476	0.05314487	0.057141414	0.653727748	0.654191667	0.654041131
0.459073703	0.422069889	0.877583206	0.59081161	0.555172583	0.170433088
0.875917061	0.883338918	5.49578E-06	0.170609361	0.175231427	0.699305077
0.08199125	0.869270685	0.099457523	0.65659097	0.162647017	0.669300734
0.088052451	0.867361575	0.865859786	0.619196899	0.159756827	0.161947261
0.074096654	0.855522517	0.082704416	0.627859684	0.149306358	0.648270645
0.435903776	0.877321607	0.448078231	0.542885369	0.170513103	0.575824865
0.013781753	0.014410529	0.014143533	0.697044002	0.697425623	0.697586744
0.874922904	0.047226281	0.871365229	0.168379807	0.656941078	0.164826041
0.46995865	0.415537995	0.877322105	0.575498517	0.53633995	0.170544643
0.013738383	0.014115543	0.014007051	0.697058753	0.696738634	0.696332725
0.863541195	0.844008122	0.133703001	0.15517397	0.148013254	0.567867129
0.099330154	0.841856081	0.103071923	0.602324665	0.134897842	0.627673764
0.470192414	0.419827192	0.877498765	0.559654434	0.520989875	0.170598361
0.877338799	0.48404313	0.399806163	0.170509528	0.608238954	0.565554139
0.141782143	0.861387049	0.846048066	0.564520068	0.154195226	0.150441896
0.432605893	0.877378466	0.447972431	0.558250312	0.170481358	0.590936959
0.446693263	0.877348595	0.444352326	0.57646585	0.170554697	0.606936447
0.881360945	4.78754E-06	4.87515E-06	0.175368585	0.699315545	0.699694016
0.068856745	0.07135838	0.855200505	0.649921201	0.629809091	0.14885044
0.145991251	0.1319763	0.826170554	0.601490637	0.572328725	0.119725656
0.872738738	0.874079325	0.047210621	0.164898094	0.168069154	0.656995239
0.059687118	0.064272437	0.062372439	0.652158145	0.651854621	0.651922962
0.475517465	0.413824101	0.877391596	0.608444277	0.569135097	0.170612919
0.866818073	0.865517421	0.081868006	0.15922598	0.161405083	0.62145841
0.059643375	0.064412737	0.062789946	0.652135737	0.651797512	0.651992702
0.411391083	0.877069995	0.469773979	0.551440827	0.170474219	0.590522282
0.855855725	0.116707745	0.864301343	0.155788174	0.590208773	0.156066829
0.0834001	0.102211307	0.84181434	0.631196933	0.605782777	0.134714454
0.469609023	0.411393469	0.876920521	0.590549155	0.551866982	0.170325953
0.847010085	0.153925345	0.859397079	0.151553648	0.560958173	0.152134609
0.446990293	0.87736441	0.444321952	0.576756196	0.170546147	0.607097688
0.07707426	0.86746227	0.865774779	0.623100652	0.160259376	0.161728938
0.872998712	0.876236246	0.07595843	0.165130479	0.168967999	0.650428232
0.864079186	0.855893329	0.116631544	0.155637337	0.155641654	0.590330918
0.872790678	0.876225974	0.065177401	0.165097962	0.169429727	0.652788762
0.079653611	0.869056335	0.088495581	0.664278807	0.162630711	0.673730231
0.455044157	0.43587867	0.877394082	0.611013173	0.577443344	0.170591141
0.069977159	0.05154649	0.082391604	0.673154491	0.672546891	0.674019957
0.448798772	0.439704998	0.877572392	0.559753671	0.527832121	0.170700168
0.458980216	0.425700735	0.87733691	0.575652065	0.539475121	0.170591855
0.872076589	0.874366259	0.047213369	0.164850407	0.168078133	0.657084457
0.872251209	0.874170676	0.055346181	0.164833062	0.168097884	0.654717825
0.866971024	0.104061279	0.866844818	0.162739073	0.61545166	0.1590156
0.448139958	0.435955322	0.877444861	0.575826811	0.542865405	0.170552473
0.758774326	0.757836308	0.758994326	0.384233689	0.383155099	0.383137444
0.014600069	0.014463724	0.882145692	0.696909402	0.69706654	0.175747113
0.429604475	0.877617861	0.459649865	0.524490342	0.17088542	0.559781526
0.073015859	0.855992419	0.082623041	0.627846559	0.149466707	0.647444718
0.087803498	0.866943673	0.86651656	0.619444137	0.159546018	0.162502204
0.081366893	0.856226303	0.068143611	0.631528336	0.149024468	0.652638281
0.409992892	0.87720944	0.480747713	0.517571008	0.170502203	0.559325044
0.041147886	0.040898936	0.88159357	0.692404221	0.693021275	0.175271775
0.480699239	0.401380233	0.877403538	0.59012784	0.548020195	0.17040494
0.079298559	0.868770868	0.088267762	0.662378728	0.162693488	0.674470373
0.413718411	0.877384339	0.475666577	0.566007657	0.170680917	0.605603264
0.248695708	0.238192823	0.826223427	0.60896119	0.582903573	0.118989647
0.881703918	0.041110245	0.040838186	0.175479059	0.692613767	0.693007386
0.867175796	0.8664292	0.088217979	0.159397829	0.162215193	0.619709135
0.05959038	0.064236482	0.062664428	0.652160777	0.651800353	0.651973942
0.87439292	0.055399957	0.872375794	0.168763094	0.655117551	0.164829006
0.079244503	0.869041056	0.092613685	0.658399886	0.162590655	0.670008681
0.873464901	0.055344957	0.870935015	0.168100666	0.654921915	0.164507961
0.882622578	5.49932E-06	0.875821939	0.174498145	0.699365618	0.1701456
0.47350434	0.404114993	0.877507776	0.626010314	0.58611109	0.170478268
0.877357976	0.459130935	0.422140522	0.170397607	0.590590366	0.554770653
0.46224752	0.415681234	0.877901476	0.626117348	0.589833867	0.170589204
0.10221776	0.841496287	0.083369477	0.605611236	0.134726106	0.630644298
0.874390065	0.049432983	0.871795028	0.16846096	0.659289392	0.165242754
0.055370417	0.871725345	0.874564545	0.65500234	0.164875684	0.168855435
0.877498112	0.480866868	0.410159775	0.170927225	0.559609775	0.517410322
0.242018092	0.247515098	0.825107167	0.612043149	0.581531174	0.118409172
0.439639382	0.877546628	0.448821341	0.527505397	0.17076127	0.559970778
0.758191114	0.757296148	0.754196329	0.38386223	0.383706724	0.3829505
0.480865596	0.410179305	0.877520528	0.559261912	0.517667544	0.170470711
0.861413556	0.842844255	0.133718629	0.154821255	0.147582665	0.567768702
0.070294897	0.071769309	0.07426297	0.650181727	0.649654308	0.649421165
0.883201392	0.054273965	0.87603068	0.175026222	0.690504442	0.170771445
0.424246244	0.877350375	0.465060076	0.573149089	0.170550832	0.609833925
0.475221405	0.414014395	0.877272597	0.609216853	0.569921626	0.170611568
0.485108316	0.3932575	0.878113827	0.625193926	0.582621478	0.170703489
0.45957239	0.429653287	0.877585798	0.559748495	0.524373011	0.17065727
0.476220974	0.412949281	0.877342385	0.610629941	0.570861389	0.170535778
0.868941929	0.090887275	0.07693123	0.162668936	0.671390766	0.659309881
0.079650119	0.869088284	0.093307757	0.659134252	0.162737812	0.670457704
0.429791938	0.877960842	0.459808173	0.524396957	0.17084798	0.559863685
0.880709805	0.054631754	0.054112132	0.17484665	0.689963934	0.690713587
0.56930826	0.877023378	0.547466737	0.539257973	0.170411775	0.566989251
0.869024907	0.080191189	0.07718849	0.162572768	0.674726878	0.66311497
0.450476472	0.427052869	0.877543811	0.62649571	0.593057783	0.17066482
0.014589091	0.881428275	0.014692181	0.697278251	0.175469526	0.69719861
0.443004062	0.448148213	0.877352179	0.606582717	0.576595789	0.170604216
0.825151455	0.147691782	0.131672946	0.119023601	0.604117731	0.576029092
0.130540885	0.82593693	0.149485497	0.575322237	0.118951672	0.603852382
0.875341721	0.076026532	0.871451309	0.168493299	0.650495331	0.164529034
0.405782689	0.877356333	0.480714982	0.532744703	0.170581566	0.575044482
0.014678197	0.014480735	0.881144953	0.697225974	0.69748486	0.175279129
0.448142365	0.435912129	0.877413151	0.575826183	0.542884194	0.17055214
0.87729656	0.448089251	0.435825227	0.170587357	0.575628163	0.542729367
0.876948905	0.438463677	0.43845888	0.170286345	0.626620256	0.596477407
0.860402943	0.843817701	0.137133439	0.15388074	0.148290082	0.566324165
0.301139319	0.826368359	0.295562805	0.59051677	0.118959606	0.615244156
0.871397249	0.875752386	0.065165405	0.164898161	0.169191762	0.652721596
0.092764871	0.099607183	0.841596598	0.629489421	0.604456438	0.13493235
0.855059974	0.107529603	0.865098794	0.154955826	0.593822315	0.156948151
0.450552878	0.427127085	0.877695064	0.626617596	0.593047047	0.170508186
0.882327077	0.040844871	0.876983037	0.175022254	0.692802291	0.170989259
0.855343029	0.116698581	0.863192139	0.155401589	0.590405212	0.155454741
0.462529517	0.415963173	0.878465611	0.626170873	0.589750359	0.170593419
0.041128541	0.040931835	0.881922741	0.692660767	0.692949258	0.175317451
0.062509234	0.062480994	0.062409186	0.638245339	0.638262582	0.638517923
0.855631698	0.111420893	0.864576344	0.155075853	0.592001446	0.15605398
0.073052398	0.855347643	0.082016212	0.627677314	0.149311158	0.6475654
0.859502669	0.846468386	0.153998559	0.152204293	0.151370093	0.560958197
0.081333416	0.869228972	0.099072073	0.656697755	0.162662152	0.669392099
0.877652472	0.8777457	0.877953739	0.170721882	0.171009977	0.170963983
0.475498048	0.413756877	0.877318028	0.609117701	0.569818773	0.170617917
0.856486687	0.116708805	0.8644503	0.155883019	0.590253247	0.156184283
0.070268684	0.052021846	0.083482015	0.672910272	0.672514242	0.674188192
0.873903547	0.065225827	0.871056967	0.168711275	0.65274046	0.164344615
0.84544806	0.14175661	0.860176004	0.150051615	0.564509659	0.15382909
0.876860982	0.883576475	0.04085633	0.170884359	0.175936475	0.693070347
4.85604E-06	0.880787384	4.86888E-06	0.699144786	0.175107128	0.698892716
0.435854277	0.877279759	0.448092629	0.542828785	0.170554509	0.575725984
0.884867943	0.013708502	0.877350563	0.175797087	0.697480524	0.170927176
0.111499888	0.863641847	0.854531995	0.592090239	0.155956014	0.155121089
0.426997803	0.87743071	0.450418304	0.593043354	0.170504421	0.626459029
0.861125699	0.844105343	0.141736473	0.153054443	0.149131544	0.564572082
0.866688778	0.866395515	0.095508328	0.159222341	0.162316926	0.617240794
