Vam	Vbm	Vcm	Iam	Ibm	Icm
0.047206573	0.871807826	0.87474703	0.657057295	0.165083175	0.168625986
0.147441781	0.860503563	0.846183911	0.562821458	0.1527573	0.150382928
0.439722364	0.877742785	0.448950843	0.527807804	0.170821622	0.559723914
0.028236468	0.881241921	0.028304605	0.695448544	0.175252696	0.695494729
0.867287688	0.865064717	0.077179248	0.159589726	0.161287371	0.623004506
0.249484896	0.826008223	0.24345403	0.584385493	0.118762621	0.61065468
0.876876736	0.076048116	0.873591973	0.169353862	0.650530157	0.16499919
0.392741585	0.877048945	0.484560978	0.582410677	0.17035493	0.625122037
0.07408654	0.855625389	0.091165237	0.625846032	0.149242261	0.645658341
0.13046097	0.862834937	0.856559808	0.586449535	0.154776392	0.156881739
0.866010999	0.081337254	0.867482238	0.161447538	0.621762536	0.15971145
0.419777492	0.877487517	0.470220571	0.521044867	0.170692455	0.559513786
0.45901049	0.422021741	0.87746244	0.590697032	0.555011059	0.170471766
0.062489013	0.062501604	0.062384109	0.638773903	0.638594468	0.638688964
0.86910301	0.07755776	0.080818554	0.162537919	0.677360564	0.665415018
0.855996425	0.103007429	0.078876612	0.149686573	0.643402351	0.623825781
0.86436108	0.856021402	0.116652348	0.155880219	0.156111227	0.590221545
0.869055659	0.083946432	0.074380067	0.162536759	0.671126168	0.65906484
0.855809476	0.079705261	0.071551326	0.149169324	0.647955521	0.627514064
0.111396634	0.864773319	0.856136492	0.592077736	0.15623071	0.155654785
0.446380234	0.877408683	0.437094485	0.54609104	0.170589486	0.575743267
0.469956083	0.415612438	0.877372526	0.575350337	0.536111786	0.170538795
0.095494009	0.866941427	0.866469386	0.617491462	0.159200352	0.162504255
0.131037081	0.827677378	0.141319522	0.577402745	0.119796711	0.605948268
0.065242105	0.870845376	0.874709154	0.652749648	0.164558181	0.168722426
0.869042198	0.098475426	0.08056389	0.162756422	0.667512645	0.656049286
0.088056931	0.866876223	0.865364767	0.61933783	0.15918684	0.162122877
0.059419099	0.042804028	0.076343511	0.675200884	0.674946896	0.676532671
0.425342061	0.877302943	0.464392196	0.572111856	0.170568541	0.608616568
0.847105426	0.153959095	0.860517383	0.151430246	0.560902086	0.152269419
0.871710433	0.874251493	0.046743279	0.164723116	0.16851583	0.659020825
0.846893603	0.847493072	0.848451962	0.257354915	0.256853759	0.257184034
0.448428673	0.877336433	0.444885923	0.578596199	0.170604768	0.608839483
0.847053993	0.153949192	0.859764005	0.151825558	0.560903083	0.152462682
0.427216481	0.877865676	0.45063447	0.59290432	0.17052166	0.626534839
0.877380715	0.437082496	0.446363545	0.170610732	0.575715184	0.546077781
0.877289496	0.484040799	0.399616772	0.17060796	0.607985993	0.56537119
0.02741366	0.076854475	0.076693039	0.678670007	0.680105523	0.67852001
0.883939694	0.013707924	0.876611912	0.175588763	0.697378124	0.17153301
0.11676275	0.86403301	0.8564654	0.590405409	0.156121165	0.156326781
0.404087903	0.877444698	0.473468178	0.586030585	0.170565843	0.625892051
0.877355269	0.439457752	0.444484481	0.170562363	0.60937578	0.579289828
0.860614655	0.84485405	0.137070625	0.154449399	0.149292874	0.566213014
0.087767024	0.079482933	0.868880769	0.671877935	0.660692021	0.162570784
0.863726964	0.856292711	0.116668326	0.15574413	0.155900041	0.590261424
0.079010811	0.855883262	0.102964273	0.62375678	0.149593696	0.643196888
0.083399713	0.083665261	0.083809305	0.632055819	0.632244146	0.632447351
0.102222421	0.841582957	0.083390902	0.606092624	0.134760567	0.631287255
0.484577657	0.392746372	0.877071059	0.625459428	0.582337795	0.170823054
0.865606453	0.076968364	0.867848338	0.161266363	0.623239617	0.160075333
0.041049329	0.041395858	0.041560997	0.692736504	0.692529178	0.692363558
0.864476219	0.863846656	0.863058899	0.219692097	0.219202749	0.219158306
0.867549139	0.86651879	0.081534409	0.159570563	0.16179325	0.621453501
0.874529567	0.873884118	0.87290791	0.18880234	0.189113601	0.188681764
0.127721508	0.125206372	0.098713599	0.612002601	0.610639502	0.615093045
0.882859305	0.040852068	0.876536068	0.174845386	0.69289896	0.170761922
0.823924309	0.823357959	0.824097288	0.298192317	0.298640376	0.297927253
0.464314935	0.877876257	0.451240023	0.530846401	0.171018592	0.559652203
0.071299043	0.06563238	0.085275743	0.669651995	0.670119133	0.670565588
0.129233739	0.825927551	0.145962691	0.574392816	0.118855088	0.603589263
0.099307282	0.081620124	0.868946988	0.665703769	0.655823937	0.162850202
0.87426301	0.873601564	0.873838098	0.188605373	0.188773823	0.188824712
0.874112722	0.055297351	0.87202275	0.168492011	0.654729661	0.164909269
0.877348606	0.458990887	0.425621434	0.170566766	0.575596891	0.539533467
0.826910871	0.191372811	0.197369788	0.119396783	0.611651588	0.579724661
0.434649397	0.877357866	0.455413982	0.576288079	0.170634544	0.610020392
0.859629969	0.845210908	0.147516941	0.152353017	0.150180474	0.562720379
0.877368933	0.461612925	0.42216038	0.170576485	0.60951688	0.573134655
0.883856935	0.027324434	0.875155428	0.175284749	0.695137229	0.170055872
0.00000486	0.88162246	0.00000483	0.698969007	0.175261209	0.69935113
0.4014338	0.877306647	0.480834307	0.547997968	0.170013116	0.589576648
0.092745674	0.099695333	0.841415705	0.629542042	0.604249287	0.134901951
0.127881896	0.827488301	0.144779152	0.574570803	0.119383516	0.603563389
0.825704963	0.136108364	0.127900032	0.119068402	0.605841433	0.576945978
0.822366375	0.823504717	0.823659422	0.298989771	0.29885068	0.300098456
0.877355135	0.437073792	0.44634826	0.170616446	0.575715481	0.546065087
0.863392804	0.856774459	0.130373788	0.155488659	0.15734961	0.586495035
0.866759559	0.866641983	0.095384383	0.159462356	0.162260973	0.617560832
0.866380475	0.081571091	0.86765564	0.161962729	0.621327084	0.159596164
0.863460126	0.854446496	0.111436434	0.155684301	0.154192382	0.591982676
0.847480762	0.845710153	0.846618373	0.256824404	0.256949331	0.256661255
0.059516485	0.042778898	0.076435958	0.674991487	0.674978641	0.676448798
0.877402062	0.461970795	0.421733929	0.170585577	0.608151892	0.571661535
0.8776313	0.448883154	0.439677977	0.170741902	0.559679194	0.527748841
0.206634754	0.825266132	0.209256953	0.584723179	0.118786975	0.610861038
0.415669609	0.87734348	0.469892236	0.535978378	0.170586594	0.575349091
0.00000484	0.881458727	0.00000493	0.699071596	0.175104676	0.699345771
0.455856145	0.435822245	0.877233778	0.609039514	0.575199328	0.170572862
0.126018762	0.826475575	0.144052413	0.57506561	0.119241122	0.603539936
0.865517513	0.076972127	0.867830129	0.161283299	0.623169558	0.160079898
0.883118624	0.027329187	0.876483907	0.175215022	0.69526997	0.170900791
0.040932121	0.881561553	0.041224965	0.692847575	0.175251795	0.692721577
0.86043155	0.847164705	0.153985831	0.152527557	0.151718559	0.560867026
0.330499804	0.332478433	0.825743397	0.611135853	0.582896119	0.1188486
0.841633223	0.113637983	0.100424418	0.135171983	0.625860861	0.600453359
0.085217378	0.868779689	0.08186639	0.663172447	0.162428571	0.675274234
0.45052395	0.427097881	0.877636492	0.626356613	0.593170981	0.170712586
0.876597894	0.883574446	0.040852262	0.170984976	0.175557003	0.69294953
0.825599931	0.146139563	0.129166896	0.118854517	0.603196409	0.574348578
0.475539708	0.414203965	0.877354849	0.607762541	0.568243133	0.170569782
0.881594227	0.041174979	0.040794461	0.175148476	0.692457164	0.692901633
0.092014847	0.079760552	0.869033802	0.670187879	0.657606331	0.162623963
0.866100458	0.866778963	0.104026494	0.159042331	0.162806443	0.615359553
0.883845045	0.040855214	0.87554304	0.175371107	0.692992201	0.17034197
0.864077291	0.862699371	0.863035299	0.219735691	0.219192418	0.219178778
0.410109937	0.877423826	0.480838801	0.517587968	0.170507912	0.559306069
0.100197719	0.082329555	0.868920102	0.6679249	0.656038318	0.16276692
0.145649	0.128377057	0.82602329	0.603142438	0.574731029	0.119343121
0.412384969	0.877754991	0.470011945	0.551861322	0.170690291	0.590738451
0.437372765	0.445429753	0.877256024	0.592792739	0.563053485	0.170598263
0.87429375	0.87406122	0.873664177	0.188845412	0.189186102	0.188731955
0.049112591	0.045111523	0.053361606	0.655498113	0.65629978	0.65600817
0.116697798	0.864485141	0.855672802	0.59038246	0.155664133	0.155826604
0.877385862	0.480740285	0.401413113	0.170240448	0.590185696	0.54803078
0.825667422	0.137339657	0.128872993	0.119052103	0.605833234	0.57720547
0.054384573	0.881711205	0.054649693	0.690393083	0.175153221	0.690269026
0.438549468	0.438544696	0.877119946	0.62659736	0.596436295	0.170515995
0.405872048	0.877354052	0.480570776	0.533009995	0.170529193	0.575366077
0.877340104	0.451216866	0.431903253	0.170565048	0.610104078	0.576606978
0.125175075	0.103208735	0.841579126	0.623708338	0.598551932	0.135340159
0.856924733	0.130443349	0.862964931	0.156929506	0.586499467	0.154881602
0.435683021	0.877394512	0.454106233	0.57657306	0.170550694	0.609904438
0.415596091	0.877393754	0.470023905	0.535968664	0.170582191	0.575326114
0.094717259	0.297177127	0.246179454	0.622830898	0.624670222	0.62106743
0.473175563	0.40379444	0.876858559	0.625906994	0.586081824	0.170686597
0.866993132	0.866238456	0.077220569	0.159821746	0.161207889	0.623066365
0.855498243	0.06892698	0.071422573	0.149056023	0.649815016	0.629300417
0.104013937	0.866422801	0.866897968	0.615364973	0.158845914	0.162876084
0.84621716	0.846481972	0.845586267	0.2567541	0.2569891	0.256774228
0.862978837	0.863167574	0.863728761	0.218930916	0.218761038	0.2193193
0.13419266	0.126187888	0.82610189	0.606231495	0.577085877	0.118156539
0.480917527	0.410284735	0.877675366	0.559288524	0.517614203	0.17057152
0.459683771	0.429634405	0.877676452	0.559916477	0.524437206	0.170783685
0.096098426	0.32154235	0.268083832	0.621847563	0.626073041	0.624224165
0.47029305	0.419779406	0.87755655	0.55956153	0.520986147	0.170612136
0.454900061	0.436030891	0.877322489	0.609849262	0.576384394	0.170605849
0.425552181	0.877411553	0.464219686	0.573551576	0.170587289	0.60989437
0.412019166	0.877393732	0.470021002	0.5517154	0.170168327	0.590325871
0.825143796	0.145795551	0.128621307	0.118863834	0.603364412	0.574473982
0.863796616	0.855396019	0.116730268	0.155464261	0.155393952	0.590262976
0.470058688	0.415613953	0.877433862	0.575352004	0.536095028	0.170552246
0.8773766	0.469908161	0.415441385	0.170541843	0.575366898	0.536093117
0.877550235	0.480877265	0.410205739	0.170521744	0.559522422	0.517460097
0.422114971	0.877510787	0.45932696	0.554731009	0.170513242	0.590555409
0.877281087	0.480793094	0.410015656	0.170463433	0.559480987	0.517426853
0.401698521	0.877726303	0.481091893	0.548319937	0.170610349	0.590298922
0.855522887	0.068943666	0.071408653	0.149001886	0.649751871	0.629369009
0.147419325	0.859726931	0.845190276	0.562755833	0.152754073	0.150314092
0.497118731	0.542311668	0.87780526	0.561737556	0.532667691	0.170816066
0.8773847	0.45905716	0.425589177	0.170595999	0.575657703	0.53959832
0.06255905	0.062410482	0.062461158	0.638534547	0.638329646	0.638522051
0.435901826	0.877408189	0.448164729	0.542789984	0.170575402	0.575672767
0.269418775	0.278760061	0.825613202	0.613176164	0.587400835	0.118770412
0.054639315	0.054212036	0.881869481	0.690101523	0.690177514	0.175407373
0.130499433	0.86231275	0.856230045	0.586500457	0.154736959	0.15672181
0.485190929	0.393357212	0.878295431	0.625505501	0.582316447	0.170563733
0.480805981	0.410158522	0.877428682	0.559222145	0.517558606	0.17059812
0.883306996	0.0000055	0.876405599	0.17566882	0.699289181	0.17090381
0.027510849	0.028378699	0.027887454	0.694971479	0.694913037	0.695328152
0.863683279	0.864919004	0.86343074	0.219089599	0.220045317	0.219377117
0.877216897	0.469866507	0.411453157	0.17007969	0.590525352	0.551757125
0.480855618	0.410121016	0.87743902	0.55927717	0.517606246	0.17053049
0.080764358	0.084603126	0.868909974	0.67553376	0.663576175	0.162691389
0.000004914	0.00000483	0.881226701	0.699056798	0.699386563	0.175432322
0.855225915	0.068922981	0.071401168	0.148965907	0.64972394	0.62946908
0.480694247	0.405788101	0.877306535	0.574823218	0.532406594	0.170559192
0.062502034	0.062463851	0.062403948	0.638771793	0.638659931	0.638588218
0.415493578	0.877526631	0.462059753	0.589559253	0.170649903	0.626213672
0.43837688	0.87678443	0.438381584	0.596591125	0.170336952	0.62651596
0.874972512	0.882912069	0.054272885	0.170537381	0.17478908	0.690484817
0.856047005	0.06602985	0.078656684	0.149250719	0.652871691	0.631849491
0.137137946	0.862566717	0.843925856	0.566161617	0.154393222	0.148973368
0.844655337	0.133740416	0.862819377	0.148689737	0.567796007	0.155841118
0.123176468	0.863549817	0.856676892	0.588502573	0.155619043	0.156858397
0.071787608	0.855762063	0.079686393	0.627606441	0.149325656	0.647808833
0.438580542	0.438575833	0.877182207	0.626574699	0.596364553	0.170279367
0.82564039	0.137413846	0.126537109	0.11913157	0.606070029	0.57737394
0.867199089	0.867455708	0.103950928	0.159559891	0.163201011	0.615390546
0.437068453	0.446320711	0.877321004	0.575746168	0.546058488	0.170603138
0.092309004	0.080381513	0.869234091	0.668823291	0.655924311	0.162671747
0.464847459	0.425222646	0.877266096	0.609350634	0.572475281	0.1705447
0.825829833	0.199633906	0.197459027	0.11880384	0.60948864	0.577704549
0.027487964	0.076982621	0.077005588	0.678735502	0.680100002	0.678537432
0.444027072	0.450170055	0.877302311	0.609208467	0.578870634	0.170523542
0.874755084	0.076009149	0.871586514	0.168689433	0.650295875	0.164528627
0.473692387	0.404299037	0.877880324	0.625787535	0.58628765	0.170690604
0.137140459	0.862563902	0.843886357	0.566162971	0.154207664	0.148765655
0.065235348	0.871362363	0.875046035	0.65268684	0.164601453	0.168605274
0.123172706	0.862864334	0.856659487	0.58840656	0.155155421	0.156489907
0.873354427	0.875435519	0.055276092	0.164962734	0.168998189	0.654927381
0.867597512	0.86644033	0.087781505	0.159949025	0.162427903	0.619362777
0.330503326	0.337804242	0.82597621	0.610320837	0.581209802	0.118672537
0.054235998	0.881316654	0.054664076	0.691060944	0.175502426	0.690136647
0.137188154	0.861061158	0.845381456	0.566251374	0.153743099	0.148581403
0.133716718	0.862545502	0.843993325	0.567766447	0.15544561	0.148265658
0.425384761	0.877508964	0.464613209	0.573316312	0.17057644	0.609792567
0.08661361	0.07799612	0.869127318	0.671824792	0.66063682	0.162632232
0.244361371	0.252648628	0.82551658	0.613718627	0.579957965	0.118671888
0.84307636	0.133746086	0.860515475	0.147998747	0.56780782	0.154980099
0.826661843	0.199966261	0.202215265	0.11945455	0.610943423	0.580128733
0.211353134	0.824978999	0.206036774	0.582218215	0.118996988	0.610233959
0.872881764	0.875081794	0.055274206	0.164951457	0.169056459	0.654947386
0.078949186	0.855974349	0.103014843	0.623764425	0.149827574	0.643505972
0.068755992	0.079392887	0.855272679	0.652069679	0.632203488	0.148776045
0.877384097	0.439529119	0.443527397	0.17056286	0.608416505	0.578230874
0.856828143	0.123076598	0.864236849	0.15673335	0.588425559	0.155849234
0.410191188	0.877512712	0.48084603	0.517525676	0.17057811	0.559193984
0.054222785	0.881276437	0.054626946	0.691016139	0.175458187	0.690169838
0.076016021	0.871060337	0.876037113	0.650410111	0.164113733	0.168938447
0.866336186	0.081733989	0.867685338	0.161986399	0.621186473	0.159873068
0.054714706	0.054721777	0.055398505	0.690379151	0.690252134	0.690515874
0.823673293	0.822972872	0.822751391	0.298448258	0.298824788	0.298789771
0.405873287	0.877179822	0.480363974	0.532817127	0.170534846	0.575162525
0.82495298	0.187628955	0.186525423	0.118110719	0.611070569	0.581857565
0.00000489	0.0000049	0.881296058	0.699347413	0.699448717	0.1752614
0.00000496	0.00000478	0.881043894	0.699156622	0.699442141	0.175245637
0.106192131	0.082252538	0.854459328	0.642346862	0.623606716	0.149267526
0.072707727	0.070082506	0.075207298	0.649656829	0.65014804	0.649766296
0.040853199	0.876289134	0.883616545	0.692958542	0.17090259	0.17570069
0.847023003	0.153963195	0.859364221	0.151794512	0.560866502	0.152453265
0.444380132	0.876828905	0.43829357	0.562314426	0.170409089	0.591903871
0.435925448	0.877424274	0.448155648	0.542794185	0.170597206	0.575732094
0.469707401	0.411472975	0.877083229	0.590563483	0.551545083	0.170814463
0.869059515	0.083463557	0.07468821	0.162560325	0.672347452	0.660117316
0.095497874	0.866767087	0.866437024	0.617459016	0.159207122	0.162535471
0.448194247	0.435875208	0.877383643	0.575479936	0.542563926	0.170640758
0.464750458	0.425346005	0.877273008	0.609753305	0.572848398	0.17054618
0.845395445	0.137268109	0.861438336	0.148714814	0.566349893	0.154120524
0.877217277	0.461905442	0.415338428	0.170668576	0.626237444	0.589682361
0.125150549	0.103083772	0.841803455	0.623625228	0.598629992	0.135170123
0.103131045	0.099191529	0.841520353	0.627712169	0.60249328	0.135024724
0.877173061	0.438575785	0.438571061	0.170446718	0.626441712	0.596456453
0.426983479	0.877408295	0.450410256	0.593106239	0.170476227	0.626582239
0.448043997	0.435911554	0.877258553	0.575587069	0.54275095	0.170617148
0.080997078	0.078720852	0.86890584	0.674200636	0.662255891	0.162460057
0.095494498	0.866485202	0.866558337	0.617226089	0.158887657	0.162499031
0.054549701	0.054250746	0.881672667	0.689669786	0.690666984	0.175478548
0.392987595	0.87760282	0.484865465	0.58256108	0.170851153	0.625430935
0.013709579	0.875533622	0.884159671	0.69749086	0.170671987	0.175837293
0.439743942	0.877729178	0.44892298	0.527814343	0.170810002	0.559776694
0.091292194	0.074536852	0.855458603	0.645538429	0.62561432	0.149329609
0.083997976	0.869293733	0.080228347	0.664845909	0.16260377	0.677335797
0.825483977	0.146610189	0.129704231	0.119077837	0.602645071	0.573980873
0.842001338	0.103153375	0.099036081	0.134874494	0.627896276	0.602513956
0.824058914	0.822650927	0.823589213	0.298849625	0.2986385	0.298540554
0.322820361	0.332085423	0.825189798	0.615071871	0.587139078	0.118509713
0.425571616	0.877322886	0.459075158	0.539558964	0.170559373	0.575603658
0.123175411	0.86350119	0.856676886	0.588502446	0.155602841	0.156835144
0.401516084	0.877197264	0.480671092	0.547933076	0.170121205	0.58952864
0.855708311	0.107956153	0.864422182	0.154886093	0.59373596	0.156631092
0.067004169	0.052224365	0.080632036	0.672945242	0.672913687	0.674412942
0.873898853	0.050107055	0.872272097	0.167799196	0.65866368	0.164968971
0.278174929	0.281952846	0.825792811	0.613624816	0.585535135	0.118541507
0.438398038	0.87682673	0.438402725	0.596497714	0.169928603	0.626365649
0.130515037	0.862367221	0.856757428	0.58652621	0.1549121	0.157001208
0.877404708	0.459055906	0.425611221	0.170614719	0.575788751	0.539671952
0.855245419	0.066776364	0.078944887	0.148855021	0.652536985	0.632418087
0.13540191	0.127618863	0.826662687	0.604136261	0.575644776	0.119407214
0.080505004	0.199489395	0.203330624	0.620364628	0.62184934	0.624671364
0.437890784	0.445178792	0.87723727	0.590826198	0.561102993	0.17066882
0.480688389	0.405813233	0.877445557	0.575119207	0.532658292	0.170586257
0.413279166	0.877505812	0.475751732	0.568421988	0.170589606	0.608289529
0.867470306	0.104185312	0.866331862	0.163057099	0.615345472	0.158974456
0.856857588	0.116616699	0.864362615	0.156602583	0.590331811	0.156064113
0.877355282	0.451160438	0.432329289	0.170503795	0.608594783	0.575206929
0.48056416	0.406011174	0.877415428	0.575172273	0.532659942	0.170568456
0.855399939	0.107869903	0.865053357	0.154922902	0.593957018	0.15655879
0.028348668	0.881176333	0.028365511	0.695510188	0.175307227	0.69541275
0.116698095	0.864481959	0.855674507	0.590382581	0.155664208	0.155826081
0.84155117	0.113689499	0.100477392	0.13505582	0.625707826	0.600563113
0.081155645	0.079344175	0.869117172	0.67412504	0.662183128	0.162532705
0.074913595	0.077659105	0.854971521	0.650376329	0.629389658	0.148638096
0.866343749	0.095514107	0.866200128	0.162443352	0.617802666	0.159025452
0.872233573	0.874106588	0.06518897	0.165272082	0.168714313	0.652677611
0.04804812	0.041920297	0.073561391	0.677537741	0.678002931	0.680266049
0.874262364	0.874046518	0.873435037	0.188908116	0.18902774	0.18861464
0.868953651	0.099426772	0.08181789	0.162825855	0.665407836	0.653521412
0.40561872	0.877154199	0.480647538	0.532839693	0.170524322	0.575167609
0.871882447	0.875851557	0.075929191	0.165077705	0.169306375	0.650410044
0.448804553	0.439564377	0.877450177	0.559650429	0.527773266	0.17044424
0.014231262	0.014470944	0.881361885	0.696604194	0.697358649	0.175141363
0.855513472	0.103035197	0.078883071	0.149575173	0.643461942	0.623689642
0.439810188	0.877870039	0.448962846	0.527525872	0.170943355	0.559883954
0.071411249	0.856559687	0.068840739	0.629540673	0.149581644	0.65015882
0.87733115	0.480425574	0.405800659	0.170566218	0.575139503	0.532773865
0.825454892	0.193909041	0.201542405	0.11881344	0.609290952	0.577534902
0.054284929	0.875148749	0.882571587	0.690703416	0.170847357	0.174989791
0.041125149	0.040897823	0.881547763	0.692309376	0.692808123	0.175483596
0.855713619	0.079806622	0.071552666	0.149608325	0.64797031	0.627743571
0.040864534	0.876366743	0.882740256	0.693219956	0.170801605	0.175177393
0.137178499	0.861944059	0.845152477	0.566194983	0.154910008	0.149806895
0.326350202	0.825656796	0.303376604	0.584340337	0.11857258	0.614904035
0.438582449	0.438577743	0.877186048	0.626505156	0.596352972	0.170230377
0.422078976	0.877353612	0.45918617	0.555168488	0.170512309	0.590949824
0.877681439	0.459075901	0.422226669	0.170495541	0.590902011	0.55534949
0.027477559	0.077129383	0.077045404	0.678724754	0.679497645	0.679574515
0.845841125	0.147395246	0.860584836	0.150675941	0.562761777	0.152998667
0.01375294	0.014512758	0.014688282	0.697148381	0.696484666	0.697092082
0.855297367	0.068922873	0.071423954	0.148958367	0.649730062	0.629434637
0.041067538	0.041378686	0.041549816	0.692930905	0.692877772	0.69258002
0.475841956	0.413573466	0.877477509	0.607909025	0.568333033	0.170607114
0.04630358	0.047530756	0.05149747	0.65704128	0.658377231	0.658450157
0.425561426	0.877313215	0.459085956	0.539557775	0.17055331	0.575618034
0.87771253	0.877864779	0.877571786	0.170876366	0.170840214	0.170642127
0.107850395	0.865310383	0.855154806	0.593728662	0.156956781	0.154705229
0.145552841	0.128347192	0.826062031	0.603202659	0.574874137	0.119355967
0.041030541	0.04080324	0.881706552	0.692482511	0.692592757	0.175332359
0.458980144	0.42203111	0.877450653	0.590727179	0.554933371	0.170857618
0.106213302	0.082975469	0.855997636	0.643319175	0.623690411	0.149616337
0.825802	0.146761063	0.129455653	0.119144956	0.602718774	0.573995561
0.072465443	0.069901634	0.074292283	0.649613925	0.649795982	0.649925376
0.480883003	0.410104204	0.877456251	0.559323305	0.517576671	0.170518444
0.873032137	0.875866542	0.075916258	0.165052494	0.169313204	0.650495996
0.462097219	0.415544021	0.877613829	0.626240295	0.589593769	0.170659678
0.876596949	0.882501218	0.013706052	0.170630379	0.174829576	0.697277215
0.404097892	0.877463858	0.473477615	0.586072102	0.170688014	0.625905279
0.872462899	0.875063368	0.055274091	0.164958742	0.169064377	0.654923107
0.060976394	0.042258489	0.077028476	0.675567643	0.675162615	0.677461246
0.85508483	0.065571628	0.078705179	0.148672138	0.653162447	0.632719841
0.459732819	0.429546231	0.877641641	0.559857298	0.524426495	0.170776624
0.842005839	0.10307885	0.099260552	0.134881186	0.627908733	0.60250757
0.439792823	0.877845838	0.448961329	0.527810039	0.170862294	0.559733026
0.476034961	0.413664366	0.877437188	0.608620175	0.569077704	0.170590802
0.85552919	0.065765713	0.07813649	0.149022436	0.652373388	0.632263789
0.425552219	0.877411764	0.464219859	0.573551668	0.17058725	0.609894308
0.854905023	0.111520533	0.864210968	0.155620396	0.592112661	0.156691846
0.877466953	0.462027294	0.415467061	0.170544365	0.62622543	0.589608204
0.861836025	0.862267305	0.863438313	0.219186728	0.218667203	0.219325576
0.458936683	0.425603877	0.877166271	0.57576495	0.539785078	0.170511913
0.091245211	0.074628639	0.85568135	0.645629027	0.626122803	0.149115462
0.863785161	0.856243594	0.116671777	0.155761936	0.155810023	0.590313678
0.841878266	0.12506833	0.103241325	0.135158563	0.62366759	0.59847156
0.447674291	0.877290115	0.445481412	0.579139878	0.170596868	0.609206315
0.866798001	0.866557113	0.095379935	0.15941363	0.162229168	0.617553425
0.855192428	0.065611172	0.078651648	0.148938565	0.652953924	0.632986996
0.102221924	0.841598812	0.08338717	0.606119049	0.134737195	0.63129349
0.877703845	0.450558782	0.427130386	0.170576437	0.626435471	0.593283736
0.419808536	0.877502336	0.470197625	0.521020653	0.170573848	0.559695916
0.02744951	0.02833414	0.028137281	0.694907359	0.694873193	0.695052503
0.864630638	0.855845697	0.107844926	0.156872264	0.15494401	0.59353682
0.862175932	0.843408853	0.13381138	0.155120299	0.147965289	0.567702031
0.86916666	0.091752293	0.078693209	0.162602751	0.672946719	0.659714553
0.855693305	0.066008344	0.078857162	0.149031337	0.652485331	0.632142073
0.429555984	0.877437811	0.459528294	0.524224505	0.17057334	0.559938321
0.859871913	0.845192333	0.147492929	0.152449862	0.150282201	0.56271151
0.86896176	0.080604812	0.078646873	0.162536072	0.675182796	0.662543308
0.027398527	0.076684391	0.076566293	0.678726064	0.680024234	0.678575517
0.881933228	0.054276272	0.874673619	0.174763728	0.690510922	0.170431054
0.137202941	0.861047844	0.845300465	0.56624249	0.153846574	0.148667615
0.882499007	0.054276609	0.875181382	0.175504442	0.690600247	0.170385475
0.013707905	0.875322227	0.882671145	0.697446603	0.170392975	0.17506262
0.823035101	0.823627392	0.826113269	0.298752379	0.298700051	0.298751527
0.027502726	0.028389122	0.027942526	0.694929927	0.694997329	0.695342763
0.099859346	0.841620268	0.092784858	0.604344114	0.134876484	0.629405517
0.114035508	0.10005529	0.841710027	0.625774415	0.600479596	0.135056984
0.860505557	0.844442133	0.141807939	0.153130337	0.149213933	0.56455398
0.881411239	0.00000486	0.00000487	0.175259963	0.698890342	0.699473026
0.876333567	0.883201622	0.040858989	0.171039532	0.175439514	0.693059183
0.884060849	0.054280069	0.875780479	0.175560686	0.690618651	0.170400542
0.054270194	0.875498727	0.883932495	0.69044101	0.170799825	0.175629026
0.06524351	0.87180612	0.875538864	0.652806946	0.164997492	0.169421255
0.843861807	0.133706559	0.862349483	0.148229573	0.567858869	0.155380672
0.877082051	0.480663819	0.409946377	0.170844146	0.559483555	0.517455536
0.43286016	0.877454677	0.448005321	0.558434471	0.170574619	0.591532777
0.873202499	0.875477889	0.055284541	0.165150394	0.168827288	0.654874556
0.091265636	0.077926336	0.869159348	0.672124081	0.657767239	0.16257325
0.846897974	0.847061249	0.847524596	0.257365065	0.256804274	0.257165874
0.027488228	0.028046504	0.02782596	0.69483471	0.694984153	0.695441438
0.141822423	0.860953986	0.844362196	0.564667006	0.153099477	0.149200803
0.825877273	0.228059454	0.239598456	0.119339827	0.608162437	0.581311761
0.405830477	0.877598769	0.480812345	0.532976046	0.170609295	0.575369597
0.08435194	0.076072901	0.855773072	0.647615892	0.628151634	0.149376281
0.884471249	0.02732532	0.875099653	0.175165815	0.695172427	0.169885232
0.874044383	0.872260346	0.872788721	0.188766982	0.188799972	0.188489169
0.095466231	0.867102591	0.866323851	0.617433573	0.159245766	0.162449807
0.054279809	0.876212945	0.88316313	0.690566932	0.171047054	0.17533786
0.462097203	0.415543991	0.877613784	0.626240306	0.589593843	0.170659584
0.85608042	0.116668385	0.863183198	0.156148176	0.590357953	0.155855979
0.825155902	0.822837082	0.825844565	0.298926015	0.298470119	0.298387092
0.047193277	0.871883543	0.875006115	0.657007908	0.16504227	0.16859018
0.410255399	0.877465157	0.48074942	0.517658309	0.170797166	0.559304443
0.450549334	0.42712704	0.877690809	0.626361801	0.593170086	0.170706437
0.878485545	0.485296824	0.393439613	0.170720754	0.625327302	0.582530267
0.874425271	0.065219885	0.871707167	0.168791498	0.652809972	0.164934102
0.881961392	0.027548005	0.027492298	0.175657329	0.694977598	0.695156557
0.863810022	0.855388922	0.116736943	0.155230573	0.155183952	0.59028939
0.877232211	0.437016538	0.446283704	0.170583315	0.575747753	0.546052189
0.079674306	0.86922881	0.082252842	0.663584773	0.162431332	0.675468368
0.845191767	0.147403564	0.86059272	0.150143199	0.562754418	0.15257492
0.02822349	0.882231893	0.028135097	0.694992188	0.175558624	0.695642632
0.134450206	0.131583359	0.098154382	0.610138716	0.610320555	0.614148464
0.877462313	0.462027145	0.415462353	0.170499426	0.626158854	0.589751869
0.047910555	0.871736638	0.874413668	0.658319131	0.164808683	0.168496047
0.48089029	0.410107133	0.87746627	0.559272608	0.517611805	0.17053532
0.077209897	0.869248814	0.085540307	0.661371947	0.162564073	0.673590684
0.055312444	0.871870847	0.87489925	0.65498795	0.164773922	0.168620631
0.435866259	0.877298708	0.448091511	0.542726178	0.170511854	0.575634482
0.00000481	0.881299586	0.00000487	0.699373249	0.175278217	0.698755036
0.014174522	0.881694806	0.014544898	0.697486123	0.175227975	0.696971871
0.448151563	0.435875713	0.877345941	0.5754635	0.542555186	0.170640594
0.877387938	0.436981665	0.444626648	0.170346175	0.591961613	0.562371331
0.866768	0.865102707	0.077271317	0.159570901	0.160728295	0.623021842
0.855787109	0.102923736	0.078903716	0.149729482	0.643419523	0.62377636
0.41980846	0.877502264	0.470197618	0.521020754	0.170573727	0.559695761
0.41171801	0.877051487	0.469972818	0.551892845	0.17031027	0.590713398
0.875455275	0.065216181	0.872573425	0.169247339	0.652898268	0.164831615
0.446327182	0.877311336	0.437052404	0.546087198	0.170592369	0.575732596
0.826119238	0.137998587	0.129056866	0.119229502	0.605905513	0.577126637
0.844429007	0.13730844	0.86235989	0.149438511	0.566351254	0.154980055
0.822715605	0.823491253	0.823972629	0.298093634	0.298690537	0.298818992
0.027355362	0.076153912	0.076233951	0.679130882	0.680190779	0.679571668
0.054277563	0.875675417	0.882572928	0.690552622	0.171007169	0.175357002
0.877760527	0.480988867	0.410292514	0.170763012	0.559452597	0.517362268
0.876285601	0.88240263	0.01370638	0.170365609	0.174467851	0.697294882
0.415647401	0.877424271	0.469922424	0.536216348	0.17056691	0.575546724
0.480589977	0.405872498	0.877314089	0.575107228	0.532587946	0.170572666
0.439766271	0.877813725	0.448959005	0.527810241	0.170862026	0.559732687
0.459150671	0.42566411	0.877444616	0.575517509	0.539420932	0.170531757
0.866989864	0.104382769	0.866732857	0.16296552	0.615195169	0.159232137
0.874674875	0.882451066	0.054273914	0.17054417	0.175089957	0.690525708
0.154071283	0.858722699	0.846207474	0.560892269	0.151823912	0.151067963
0.054625745	0.05425955	0.881858898	0.690008488	0.690639033	0.17548831
0.444751841	0.449219132	0.877283613	0.608670753	0.578347869	0.17054531
0.845756538	0.141827914	0.861291681	0.150023008	0.564573645	0.153818442
0.048603862	0.872169701	0.874767545	0.658497517	0.16482942	0.168232871
0.0281237	0.881186178	0.028533526	0.695635465	0.175346732	0.695396162
0.877171958	0.438575238	0.438570514	0.170441894	0.626428197	0.59645433
0.00000277	0.00000316	0.00000304	0.698809357	0.699132353	0.699374284
0.103550174	0.841943591	0.125116125	0.598166639	0.135204029	0.623403992
0.103511739	0.841613093	0.125009522	0.598189274	0.135202181	0.623278872
0.059974746	0.060029059	0.05999991	0.640070227	0.640270293	0.640151587
0.040860572	0.874717922	0.882365913	0.693156019	0.170487255	0.17463785
0.411939318	0.877482649	0.47022601	0.551295767	0.170192337	0.589862726
0.103114119	0.099242746	0.841518255	0.627733684	0.602782273	0.135006368
0.059995609	0.060023015	0.060001707	0.640059824	0.640228054	0.640074383
0.877413865	0.473133974	0.41018567	0.170633035	0.608992618	0.569399871
0.040962604	0.881008647	0.041252475	0.692884229	0.175208969	0.692278934
0.40400107	0.8772462	0.473357162	0.585927058	0.170547996	0.625686471
0.874618282	0.049843722	0.872883574	0.167996182	0.65895574	0.165434473
0.133712064	0.86330285	0.844985812	0.567784102	0.155416068	0.148260638
0.867671681	0.865249036	0.081554939	0.159821752	0.161897703	0.621242889
0.881914961	0.041111397	0.0408273	0.175245219	0.692461029	0.692611234
0.087999358	0.867434872	0.86573779	0.619194831	0.159436132	0.162138889
0.065224098	0.87105164	0.874744628	0.652432235	0.164377155	0.168449137
0.845559318	0.147394877	0.860671143	0.150641777	0.562770538	0.153146727
0.871361437	0.875409451	0.047277979	0.165146726	0.169045303	0.656964444
0.425559964	0.877312402	0.459085953	0.539557422	0.170553288	0.575618499
0.102265262	0.841613146	0.083355679	0.605937759	0.134761237	0.631426063
0.841761034	0.113583931	0.100390344	0.135133685	0.625930889	0.600517924
0.855438476	0.079721092	0.071528101	0.149074527	0.647965286	0.627650673
0.437770863	0.44576758	0.877749694	0.593067965	0.563454354	0.170675654
0.877646982	0.470008337	0.411743454	0.170621601	0.59046441	0.55104395
0.875296172	0.883738404	0.0000055	0.170132483	0.175424341	0.699342113
0.180137645	0.091475368	0.190625328	0.615407721	0.616371658	0.616157152
0.141789844	0.860493744	0.844144299	0.564672067	0.152931747	0.14896401
0.877806387	0.447885679	0.433109901	0.170574365	0.590935677	0.558225567
0.872813711	0.875951691	0.065209856	0.165464365	0.168789164	0.652675167
0.027324533	0.875905171	0.883030713	0.695171202	0.170534747	0.175411278
0.065221515	0.870911063	0.874737792	0.652698026	0.164190724	0.168293184
0.470343	0.41972545	0.877557135	0.559579559	0.520988152	0.170632808
0.841639668	0.113655903	0.100424862	0.135185612	0.625876425	0.600422572
0.877246115	0.492628973	0.49668322	0.170548916	0.56131562	0.531666804
0.473573381	0.404194536	0.877656115	0.625845205	0.586144189	0.170693669
0.874146784	0.04710936	0.871213958	0.167829866	0.656888764	0.16488471
0.063822672	0.059896873	0.06576204	0.651870887	0.651965524	0.651686054
0.111419493	0.86435266	0.856001183	0.592078224	0.155668685	0.155140413
0.085575512	0.077053042	0.869023918	0.673141464	0.661105838	0.162427722
0.415557949	0.877331397	0.4700064	0.535928218	0.170583843	0.575275769
0.053666401	0.05142748	0.056942245	0.654305014	0.654090907	0.654083239
0.462333955	0.415772676	0.878079261	0.626326366	0.589573502	0.170732823
0.855734805	0.066177932	0.078876641	0.148945545	0.652518737	0.632278628
0.871793087	0.875188889	0.047291248	0.164680536	0.168537066	0.656968847
0.841599327	0.083357106	0.10226326	0.134750612	0.631033643	0.605838357
0.865659364	0.095660202	0.866042557	0.162363302	0.617184218	0.158863423
0.141833282	0.861170969	0.844373151	0.564659095	0.153083242	0.149167025
0.84396883	0.133749299	0.863076597	0.148409659	0.567886896	0.155519129
0.847344966	0.846572466	0.846972119	0.257075721	0.256700999	0.257196691
0.515679055	0.52592616	0.87745043	0.562061085	0.532305517	0.17060583
0.095631535	0.866779209	0.866704388	0.617241824	0.159339739	0.162757238
0.027926513	0.882152817	0.028426791	0.694905894	0.175534784	0.69590673
0.867049658	0.087889084	0.866785082	0.162439618	0.619680417	0.15942081
0.123185785	0.86324118	0.856527168	0.588386891	0.15511448	0.156434777
0.448183011	0.436024076	0.877524175	0.575529385	0.542656571	0.170614824
0.410253896	0.877671346	0.480937408	0.517691409	0.17075127	0.559314974
0.079638921	0.86925382	0.081514632	0.66340181	0.162381307	0.675849106
0.438581238	0.43857653	0.877183592	0.626572104	0.596364834	0.170281342
0.078705764	0.081680465	0.868900166	0.675152949	0.663857816	0.162617877
0.865835161	0.081787992	0.866541975	0.161734661	0.621256363	0.15965339
0.064004931	0.059899922	0.065897341	0.651893755	0.651958576	0.651688184
0.071762416	0.855858952	0.079636814	0.627647183	0.149213119	0.64764786
0.054057526	0.05154173	0.056855803	0.654048092	0.654301594	0.654381746
0.87758548	0.459596177	0.429633247	0.170671133	0.559836937	0.524301857
0.445625294	0.448522186	0.877242673	0.608768824	0.578430656	0.170542346
0.877308008	0.877806969	0.877175048	0.170693492	0.171127	0.17074693
0.867465468	0.865560243	0.081543941	0.159807207	0.161747192	0.621490546
0.480816597	0.40566108	0.87740468	0.575035243	0.53261293	0.170553699
0.077059159	0.867808792	0.865820461	0.623303936	0.159981133	0.161802291
0.877331798	0.448077973	0.435861899	0.170663304	0.575701494	0.542742554
0.054551274	0.054246752	0.881671818	0.689672145	0.69065415	0.175477827
0.872762538	0.874489007	0.046738782	0.165291767	0.168304047	0.658901668
0.44875341	0.87734779	0.444512495	0.579487728	0.170598291	0.609673401
0.083064934	0.869206874	0.079499446	0.664562561	0.162614599	0.677614432
0.877154615	0.458925121	0.42185074	0.170167239	0.590670367	0.554707766
0.067739194	0.067659274	0.067951909	0.636456234	0.636506924	0.636699932
0.469859124	0.415706916	0.877355821	0.575360388	0.536090217	0.170538983
0.092467756	0.297192461	0.250377475	0.622829096	0.623844662	0.619385605
0.841457766	0.113756453	0.100361976	0.135105476	0.625773743	0.600559871
0.877991194	0.448233896	0.432970812	0.170873363	0.591009297	0.558620108
0.826266076	0.231952566	0.22854937	0.119192871	0.607774738	0.581641643
0.884922346	0.027328814	0.877510538	0.176116771	0.695235069	0.170759881
0.0000055	0.877572762	0.884919078	0.69949676	0.170766936	0.175888866
0.44811481	0.432733739	0.87771097	0.591055271	0.558372547	0.170559915
0.481006634	0.410272285	0.877757918	0.559443412	0.517483146	0.17072664
0.42553459	0.877420261	0.464176352	0.573577046	0.170575293	0.60985915
0.438199559	0.876429784	0.438204383	0.596502488	0.169928893	0.626409936
0.880955787	0.041165767	0.040896149	0.175262241	0.692071448	0.692692375
0.87691785	0.483911098	0.494425748	0.169941023	0.559912856	0.531000247
0.8466348	0.847224678	0.847048281	0.257122529	0.256718031	0.257201342
0.103128866	0.099307511	0.841530618	0.627824012	0.602703826	0.135026299
0.877025689	0.480678757	0.409879103	0.170480711	0.559509523	0.517433555
0.129316676	0.826128031	0.145582813	0.574483199	0.11944008	0.603413402
0.877474091	0.448865411	0.439536853	0.170677227	0.559680487	0.527746346
0.213820716	0.211210572	0.825529128	0.609621743	0.581774968	0.118797904
0.88277795	0.054260389	0.875834345	0.17503812	0.69035403	0.17048602
0.866357476	0.866369267	0.095451349	0.159267102	0.162208492	0.617591196
0.867311398	0.866433961	0.087783278	0.159780475	0.162389758	0.619202188
0.393111906	0.877824193	0.484963432	0.582532341	0.170642991	0.62520702
0.014505639	0.881303171	0.014441715	0.697138008	0.175186075	0.697343799
0.448445605	0.877334604	0.444876731	0.57859477	0.170605188	0.608839944
0.137155409	0.861939163	0.845513785	0.566142118	0.154576378	0.149163486
0.093163649	0.317597779	0.269065795	0.622335948	0.626182781	0.624201794
0.841525064	0.113765523	0.100312282	0.135061647	0.625697645	0.60055706
0.00000493	0.0000049	0.88128961	0.699306443	0.69944145	0.175274219
0.459073253	0.425518518	0.877213751	0.57563887	0.539565321	0.170537766
0.08668753	0.078118427	0.869091214	0.671731548	0.660462955	0.162584266
0.445653167	0.448658955	0.87734837	0.608634654	0.578287551	0.170595301
0.874066988	0.055321004	0.870377759	0.168374301	0.654853081	0.164196344
0.87789698	0.459176506	0.422344884	0.170948002	0.591020943	0.554870601
0.884314628	0.0000055	0.875046622	0.17559844	0.699243763	0.17039538
0.876953108	0.473223395	0.403840895	0.170641923	0.625867624	0.586090432
0.424865391	0.877403994	0.46450951	0.57350727	0.170618668	0.609724509
0.867150828	0.865999467	0.087795491	0.159455469	0.162122783	0.6195625
0.013707201	0.875149929	0.882394025	0.697415346	0.170379838	0.17508731
0.432862269	0.877454562	0.448004529	0.558434548	0.170574564	0.59153269
0.027484621	0.027813489	0.027628968	0.69490986	0.69496432	0.695054099
0.826556797	0.190057767	0.186113447	0.118835857	0.611381097	0.580799234
0.473519225	0.404134482	0.877542154	0.625749554	0.586208071	0.170528106
0.855515426	0.065627732	0.078704002	0.148989177	0.652888614	0.633040842
0.855553324	0.079778201	0.071540641	0.149249784	0.648003179	0.627731828
0.078525543	0.869374126	0.081186192	0.663268332	0.162453296	0.674978718
0.178279173	0.091546691	0.188656493	0.61432179	0.616667143	0.615806129
0.100266814	0.841681217	0.113905577	0.600422829	0.134980006	0.625644065
0.102277446	0.841662312	0.08337533	0.605964432	0.134777445	0.631440896
0.872066699	0.874514554	0.075973862	0.164790438	0.168225732	0.650545841
0.146742194	0.128741846	0.826118108	0.603471418	0.575304884	0.119403865
0.028306304	0.027865328	0.880997748	0.694793076	0.695624056	0.175381757
0.877107482	0.480713229	0.40992459	0.17051078	0.55951409	0.517454682
0.42202774	0.877403054	0.459285016	0.555163461	0.170413327	0.590960662
0.113827588	0.099906482	0.841730579	0.626111241	0.6009483	0.135071511
0.141818902	0.861079585	0.845404839	0.564603828	0.153499557	0.149615704
0.429671012	0.877703757	0.459666735	0.524293483	0.170691987	0.559963357
0.062502762	0.062495652	0.062445547	0.638196013	0.638754949	0.63837435
0.027329459	0.875491098	0.884377773	0.695339125	0.170119399	0.175486078
0.329330509	0.339813285	0.825305318	0.611995552	0.581069229	0.11882427
0.087954632	0.866822839	0.865824029	0.619626156	0.159568389	0.162124263
0.877636238	0.470335646	0.419819108	0.170768705	0.559679637	0.520995099
0.111455005	0.864169821	0.854759913	0.592158638	0.155963981	0.155087304
0.054027562	0.051525148	0.057504437	0.654274243	0.654032188	0.654018395
0.420172394	0.878332314	0.470662938	0.520914389	0.171009412	0.559745767
0.881427767	0.054605691	0.054128779	0.175306074	0.690042247	0.69041606
0.062472299	0.062500473	0.06236085	0.638380617	0.63872568	0.638429389
0.46319779	0.878017598	0.452152172	0.53074494	0.171040465	0.560111474
0.469951263	0.411696805	0.877576413	0.590693436	0.551507119	0.170757378
0.855279118	0.065589754	0.078739163	0.149000987	0.652844375	0.633012531
0.877304825	0.437056665	0.446315867	0.170599078	0.575730713	0.546089126
0.864419381	0.856028643	0.116649117	0.155703692	0.155947377	0.590272804
0.459132539	0.422081627	0.877648623	0.59076314	0.55495171	0.170868672
0.877393319	0.448079578	0.435925736	0.170625711	0.57571351	0.542878432
0.000005	0.00000481	0.881068819	0.699333742	0.699407945	0.175174055
0.868967374	0.080945473	0.078171619	0.162553446	0.674963164	0.66328856
0.047198659	0.872053428	0.875341064	0.656996794	0.165021073	0.16859127
0.86629012	0.095464635	0.867161893	0.162425062	0.617353792	0.159106687
0.040973357	0.880960502	0.041173307	0.693039059	0.175024954	0.692364415
0.855593995	0.11665699	0.864301538	0.155599356	0.590268251	0.155499892
0.877368961	0.461612917	0.422160463	0.170576483	0.60951686	0.57313466
0.100286228	0.842014487	0.113986422	0.60048421	0.135043929	0.625763864
0.076116279	0.869304516	0.084148398	0.66130381	0.162501001	0.673534475
0.874367651	0.88201124	0.027326939	0.170313126	0.175123001	0.69519149
0.868982409	0.082700967	0.072679764	0.162649719	0.672669193	0.660458722
0.844689971	0.137273935	0.861717941	0.149151751	0.566289296	0.154629742
0.448158938	0.432775734	0.877781901	0.591027965	0.558189905	0.170845167
0.091292728	0.074534745	0.855467905	0.645623261	0.625410423	0.149156839
0.863980954	0.855207284	0.1167247	0.15542801	0.155369664	0.590268195
0.04612357	0.049208366	0.053053434	0.65769082	0.658377833	0.658971782
0.874065238	0.055329061	0.871282044	0.167829867	0.654768815	0.164355973
0.459018939	0.422013119	0.877466664	0.590705881	0.555013404	0.170482252
0.86350376	0.856649937	0.123108029	0.155274466	0.156499114	0.588645899
0.44632878	0.8773179	0.437057141	0.5460427	0.170619496	0.575685278
0.855284619	0.068940805	0.071392051	0.14921831	0.64946121	0.629428858
0.486208435	0.40261773	0.877265664	0.607835201	0.564807503	0.170503614
0.047725741	0.872035914	0.874408492	0.658352482	0.164797796	0.168510263
0.405940121	0.877400976	0.480575612	0.532727129	0.170498077	0.57516855
0.027363247	0.077117274	0.076987118	0.678661412	0.680121584	0.678523222
0.013705092	0.875549997	0.884083039	0.697275571	0.17003011	0.17533612
0.841767719	0.113609533	0.100387792	0.135239503	0.625986464	0.600378963
0.067898463	0.079772803	0.855674493	0.651817799	0.63228699	0.148920283
0.445101957	0.877481526	0.43831532	0.561939303	0.170551796	0.591616793
0.133381688	0.128755525	0.098438765	0.610091221	0.60987466	0.614343256
0.874330365	0.874509342	0.873927315	0.188702698	0.189311372	0.188905612
0.864130305	0.855041716	0.116730216	0.155370733	0.155306304	0.590288495
0.874844218	0.049442281	0.872297696	0.16843373	0.658440318	0.16529845
0.438494246	0.438489496	0.877009578	0.626575476	0.596401121	0.17043092
0.877337998	0.448071815	0.43587671	0.170597349	0.575690652	0.542851443
0.841856476	0.125231012	0.103014471	0.135169839	0.623659206	0.598505589
0.860730813	0.847321736	0.154001093	0.152574163	0.151744656	0.560987276
0.822324907	0.823230077	0.822903899	0.298279618	0.298657928	0.29843161
0.083387136	0.102240028	0.841702222	0.631329312	0.606064556	0.134670571
0.877388661	0.461724176	0.421967148	0.170548233	0.608449147	0.572174363
0.071488882	0.855527616	0.068787336	0.629384846	0.149306758	0.649845153
0.2103893	0.825081753	0.211964486	0.581638032	0.118926749	0.60996572
0.048770753	0.045286222	0.052915084	0.655405142	0.656242001	0.656152923
0.869193625	0.091089225	0.07837884	0.162679295	0.672675873	0.658997918
0.859942235	0.847019794	0.147448529	0.152958058	0.150750364	0.562569938
0.027731364	0.881110559	0.028507999	0.695454614	0.175277008	0.695476042
0.863668861	0.856294525	0.11666714	0.155743316	0.155900424	0.590270941
0.856382366	0.1304288	0.862297698	0.156866525	0.586496127	0.154890648
0.824608162	0.822931358	0.825724835	0.299227925	0.298508937	0.299296744
0.860626076	0.844852909	0.137070061	0.154445081	0.149287755	0.566213328
0.868876728	0.079844596	0.077767723	0.162489767	0.675067697	0.662545682
0.877399532	0.469918088	0.415487605	0.170546727	0.575373343	0.536107049
0.87736901	0.461612958	0.422159968	0.17057646	0.609516786	0.57313469
0.041220053	0.040874292	0.881497411	0.692311901	0.692737328	0.17539413
0.855465021	0.107690605	0.864668896	0.15488561	0.593805064	0.156674294
0.146245837	0.127273122	0.826372574	0.603525804	0.574677078	0.119171608
0.846275411	0.846492499	0.846362295	0.256737951	0.256989398	0.256738651
0.842048227	0.125082116	0.103467248	0.135187072	0.623886681	0.598400816
0.100163699	0.842037791	0.114112883	0.600512929	0.135045776	0.62577263
0.438581595	0.438576889	0.877184337	0.626497937	0.596350937	0.170228346
0.454466183	0.436889876	0.87723811	0.609334815	0.575499706	0.170569607
0.014240427	0.881168479	0.014345653	0.697165855	0.175169683	0.696898115
0.43849418	0.877019124	0.438498973	0.59658685	0.170218747	0.626538029
0.464844125	0.4243839	0.877392978	0.608082917	0.571489367	0.170513861
0.075169449	0.077422685	0.856350083	0.650057716	0.629730278	0.149307067
0.464924049	0.424909782	0.877470742	0.607974874	0.571322928	0.170508573
0.877385439	0.480739993	0.40141308	0.170240644	0.590185626	0.5480305
0.47535674	0.414132651	0.877480563	0.607918263	0.568365441	0.170598798
0.865939354	0.081479385	0.867272765	0.161374165	0.621465092	0.159375306
0.041032201	0.041355831	0.041383102	0.692456686	0.692636939	0.692425035
0.438483912	0.445067337	0.877552306	0.590806392	0.561187366	0.170681517
0.083933194	0.080671094	0.869136824	0.674288443	0.662578136	0.162573642
0.872319144	0.875312992	0.075930973	0.165028613	0.169185764	0.650350777
0.876391359	0.881949877	0.040858622	0.170447758	0.175083269	0.693081851
0.857368079	0.13044447	0.862716356	0.156577541	0.586441108	0.154341747
0.147419057	0.860678394	0.845665776	0.562715171	0.152772983	0.150353564
0.884279966	0.0000055	0.874988834	0.175716015	0.699260122	0.170502507
0.876935972	0.87691012	0.877435207	0.170758013	0.170569165	0.170602121
0.45070062	0.427277212	0.877992309	0.626376267	0.593209431	0.17072291
0.127536414	0.125314015	0.098740828	0.612034674	0.610585641	0.615102724
0.874742789	0.883998069	0.013706894	0.170510896	0.175755229	0.697342019
0.845205301	0.147400738	0.860728074	0.150842344	0.562728495	0.15323839
0.486504378	0.402029328	0.877292688	0.607467426	0.564580303	0.170462557
0.866819253	0.867233369	0.103988771	0.159297492	0.163035298	0.615272944
0.826703018	0.200331532	0.202634489	0.11934677	0.610902083	0.579120381
0.515675761	0.52593601	0.877449876	0.562061021	0.532305758	0.170605864
0.125088644	0.103220752	0.841551941	0.623744587	0.598563892	0.135341091
0.863898759	0.857135631	0.130379695	0.155384692	0.15717513	0.586433759
0.0000055	0.87466523	0.883988968	0.699192732	0.170742526	0.175720507
0.43858131	0.438576601	0.877183734	0.626571723	0.596364841	0.170281544
0.068997317	0.07963896	0.855191258	0.65191381	0.632383449	0.14878849
0.429561732	0.877484658	0.459567512	0.524204329	0.170655055	0.559957856
0.415575634	0.877686797	0.462138138	0.589579746	0.170661076	0.626211269
0.113775877	0.10010275	0.841798354	0.626128859	0.60088487	0.135077763
0.10309711	0.099112947	0.841491029	0.627622591	0.602514973	0.135016527
