Vam	Vbm	Vcm	Iam	Ibm	Icm
0.875261535	0.882853544	0.054277741	0.170559775	0.174803756	0.690542041
0.868989596	0.091973621	0.078931298	0.162570273	0.672180336	0.660093611
0.0000055	0.875118882	0.883969435	0.699159037	0.170465527	0.175239178
0.825686051	0.286781024	0.296497784	0.118835976	0.612132119	0.585869334
0.855933826	0.068973919	0.071441272	0.149186383	0.649732503	0.629591837
0.864087918	0.856988475	0.123116334	0.155301298	0.156555198	0.588672704
0.866023629	0.081810827	0.866674686	0.161724033	0.621242064	0.159663208
0.843850946	0.133750033	0.863551389	0.14848992	0.567851924	0.155597832
0.876065973	0.883618327	0.01370709	0.170415515	0.175600588	0.697352063
0.113827319	0.100211995	0.841676663	0.625965388	0.600692767	0.135062516
0.393401186	0.878393036	0.485244459	0.582407277	0.170686169	0.625489598
0.081943793	0.85527084	0.067750455	0.631999812	0.14883788	0.653000793
0.066867985	0.053048533	0.082171899	0.672886403	0.672679361	0.673798726
0.877168678	0.473331972	0.403948144	0.170375196	0.625944751	0.586030136
0.484816484	0.392948106	0.877513009	0.625502843	0.582447427	0.170879163
0.877482363	0.877804461	0.877502741	0.170684086	0.170705424	0.170639249
0.111435424	0.865511794	0.855143293	0.592314463	0.155984664	0.154957416
0.44872964	0.439651535	0.877469154	0.559795563	0.527672754	0.170461593
0.111542152	0.864599988	0.85616524	0.592143672	0.15633139	0.155339604
0.866136685	0.866859357	0.104024924	0.159043195	0.162825236	0.615364612
0.072410563	0.065833725	0.08668112	0.670391289	0.670020952	0.670744035
0.4550379	0.436224602	0.877330795	0.610006718	0.576422357	0.170566688
0.071325157	0.854729072	0.068797268	0.629355249	0.148517752	0.649798436
0.055334327	0.871324431	0.875479585	0.654556481	0.164819457	0.169035202
0.106034942	0.083401796	0.854115083	0.643196899	0.623589394	0.149162014
0.877471562	0.473482929	0.404100182	0.170590051	0.625947197	0.586060051
0.486471257	0.401980984	0.877408795	0.607584605	0.564669909	0.17043273
0.099218622	0.84123114	0.102901698	0.602539724	0.135020157	0.62771601
0.412067608	0.877590235	0.470100472	0.551840567	0.170598303	0.590701319
0.027037492	0.074958867	0.07487728	0.67916125	0.680275954	0.679392759
0.43707679	0.446340806	0.877350759	0.575745407	0.546074562	0.170603479
0.877772105	0.448029971	0.432951784	0.170861004	0.591245129	0.558596092
0.082793552	0.868932519	0.09300932	0.656854232	0.16261099	0.670227317
0.083386878	0.102218904	0.841705563	0.631317836	0.606099282	0.134675019
0.877152259	0.438565394	0.438560666	0.170410092	0.626388513	0.596434031
0.085513402	0.868400449	0.082816508	0.664104757	0.162530651	0.675413487
0.863935373	0.846676816	0.137107884	0.154644657	0.149230928	0.566235363
0.863264204	0.857002766	0.130374877	0.154842624	0.156810058	0.586559361
0.459119313	0.42211801	0.877676219	0.590801213	0.55507653	0.170379695
0.878293931	0.485205469	0.393340027	0.170756266	0.625291111	0.582671857
0.880929105	0.027716828	0.027344809	0.174821897	0.694916572	0.695137102
0.864622475	0.854505947	0.111433027	0.155892729	0.154436734	0.591918924
0.869133831	0.083961317	0.075108699	0.162526761	0.670811909	0.659020862
0.469725886	0.411520828	0.877168772	0.590824275	0.551518606	0.170455805
0.844569266	0.137273303	0.863261582	0.149181836	0.566388133	0.154760787
0.126375761	0.825657502	0.144498575	0.57510661	0.118524455	0.603837444
0.863658477	0.85712252	0.130370619	0.155499932	0.157349293	0.586495943
0.083454624	0.083631777	0.083961368	0.632388764	0.632098842	0.632434233
0.01417916	0.881971573	0.014526398	0.697375383	0.175166517	0.697242219
0.882841977	0.054268184	0.876060335	0.17512287	0.690434993	0.170545457
0.481054068	0.401749105	0.878129836	0.590234787	0.548342335	0.170564513
0.844784553	0.147403795	0.860512688	0.150917972	0.562780726	0.153371109
0.841525336	0.092773299	0.099882968	0.134833817	0.629482705	0.604441087
0.103659135	0.841711829	0.124974011	0.59785327	0.135344357	0.623227725
0.875822951	0.076053262	0.871281668	0.169733717	0.650504835	0.164949867
0.427052308	0.877541709	0.450474444	0.592893676	0.170638888	0.62652579
0.825603964	0.146266789	0.129681296	0.119069162	0.603187771	0.574286624
0.12642402	0.825022697	0.143962702	0.575105484	0.118868003	0.603707156
0.027284322	0.076208511	0.075920158	0.678903677	0.679666322	0.679461467
0.401945937	0.877353429	0.487079515	0.564029319	0.170553165	0.606913213
0.078227433	0.081236357	0.868903222	0.675102128	0.664086076	0.162568966
0.857446766	0.130437602	0.863467354	0.156933527	0.586490336	0.154880197
0.859778274	0.845656063	0.154028204	0.152448886	0.151558838	0.560972982
0.123716374	0.121221193	0.09868051	0.612967026	0.611442225	0.614998576
0.055084096	0.054581603	0.055375216	0.690224246	0.690990732	0.690600046
0.425442291	0.877494543	0.464541181	0.573339685	0.170576515	0.609806324
0.862912696	0.862698568	0.863658625	0.218777781	0.218632433	0.219318549
0.470331947	0.419823447	0.877634525	0.559520909	0.520937919	0.170711659
0.125041023	0.103265614	0.841577897	0.623693177	0.598554025	0.135339387
0.864933952	0.854370097	0.111451947	0.156133247	0.154692924	0.591902813
0.825980813	0.295093124	0.29708223	0.118564393	0.614006494	0.585156265
0.32496903	0.82555479	0.311363761	0.58793886	0.118533061	0.616578708
0.863739265	0.857197088	0.130371336	0.155321413	0.157066906	0.586414794
0.11664155	0.864305303	0.856323902	0.590444414	0.155529731	0.155793746
0.102262584	0.841802992	0.083369687	0.606037927	0.134708542	0.631485145
0.108125139	0.865019392	0.855074383	0.593565751	0.156732018	0.15450492
0.088027943	0.866812417	0.865547627	0.619478589	0.159473678	0.162145166
0.071404354	0.856104317	0.068818345	0.629536573	0.14952292	0.650024608
0.438425341	0.876881395	0.438430059	0.596532511	0.16998156	0.626452478
0.883612741	0.0000055	0.875612441	0.175509373	0.699562688	0.170170195
0.462179336	0.415618692	0.877771278	0.626227493	0.58957016	0.170717915
0.881027262	0.014151519	0.014045607	0.175462955	0.696758384	0.697624952
0.319625124	0.825765411	0.309029797	0.582908133	0.118738228	0.612034272
0.450551182	0.427129014	0.877694621	0.626361517	0.593169507	0.170698509
0.877194981	0.480711728	0.41001993	0.170622525	0.559430412	0.517488201
0.854960424	0.107808204	0.864481852	0.15437264	0.5939263	0.156531594
0.104097187	0.866192726	0.867234633	0.615145823	0.158727042	0.163187221
0.871295112	0.874413725	0.047110612	0.164957353	0.168049122	0.657080719
0.080319109	0.217667811	0.212138484	0.620142217	0.618207132	0.620976728
0.877900241	0.481060356	0.410358273	0.1708852	0.559443958	0.517554908
0.470335228	0.419842052	0.877664042	0.55958933	0.521009157	0.170532097
0.484711509	0.39285649	0.87731678	0.625281348	0.582509607	0.170406297
0.876913771	0.483303355	0.496093518	0.169948929	0.559865208	0.531126597
0.083523204	0.076062107	0.855038358	0.648407817	0.627646884	0.148606814
0.08171068	0.867741649	0.866129162	0.621343496	0.159551843	0.161801426
0.125174578	0.103217741	0.841726072	0.623581114	0.598477672	0.135318809
0.84161132	0.092711942	0.099876373	0.134901939	0.629343013	0.60413399
0.081736044	0.86709955	0.865277072	0.620982375	0.15913559	0.161566121
0.013745386	0.014318805	0.01443348	0.696919197	0.697245473	0.697064868
0.867754494	0.865843928	0.081618427	0.160034326	0.16179792	0.621385449
0.027328949	0.875942332	0.883952532	0.69528289	0.17049739	0.175367956
0.103095896	0.099247593	0.841532002	0.627795122	0.60266564	0.135032631
0.825847404	0.221706482	0.224860378	0.119180653	0.609028909	0.583196287
0.866983873	0.866601798	0.095375328	0.159383552	0.162549267	0.617354209
0.856801255	0.130433893	0.86305177	0.156930956	0.586476917	0.154903678
0.8443019	0.141858585	0.860742292	0.149908721	0.564511101	0.153859913
0.439745685	0.877625481	0.448781425	0.527517294	0.170934205	0.55986188
0.091704923	0.078307971	0.86928931	0.672785821	0.658228302	0.162578262
0.845303317	0.13375778	0.862710327	0.148621732	0.567797617	0.155762942
0.86833335	0.866428498	0.087780036	0.159973478	0.162372849	0.619408526
0.027731364	0.881110559	0.028507999	0.695454614	0.175277008	0.695476042
0.040858128	0.876592826	0.883398649	0.693090385	0.171386736	0.175700238
0.845077741	0.141843975	0.86079723	0.149733024	0.564552621	0.153436879
0.873008168	0.875593444	0.047220049	0.165440675	0.168919887	0.656965759
0.841762239	0.083371225	0.10228956	0.134683678	0.63128583	0.605739429
0.866174479	0.866437672	0.103966213	0.159290703	0.162427015	0.615286291
0.027392263	0.028115471	0.028213126	0.694793285	0.695043731	0.695290059
0.862375726	0.844144937	0.133860644	0.155388307	0.148529718	0.567702664
0.103960638	0.841563628	0.124828093	0.597857726	0.135379271	0.623068473
0.864290673	0.858022718	0.130379133	0.155488	0.157356169	0.586492824
0.013706963	0.875849457	0.883960418	0.697388808	0.170552663	0.175447667
0.027080611	0.075837869	0.075889812	0.678921181	0.680017109	0.678451769
0.877394227	0.480589802	0.405687462	0.170587436	0.575064265	0.532684696
0.881909471	0.054546567	0.054149102	0.175524909	0.689557891	0.690322853
0.869023695	0.07818612	0.081528562	0.162415609	0.678128665	0.665861808
0.080362466	0.084210247	0.868368195	0.676331527	0.663758654	0.162643688
0.876499776	0.882182764	0.054278243	0.171092132	0.175239981	0.690511413
0.8774213	0.461846417	0.421961822	0.170543028	0.608318364	0.572012918
0.137269449	0.861275536	0.845506727	0.566174174	0.154522364	0.149313847
0.863808865	0.846511996	0.137108552	0.154684128	0.149219239	0.566230202
0.841798072	0.103106061	0.09918442	0.134874495	0.627851456	0.602563904
0.087987491	0.866475641	0.865744333	0.619524711	0.159021983	0.162022494
0.878051376	0.450728653	0.427307996	0.170510267	0.626536422	0.592990882
0.869085277	0.092768249	0.079871096	0.162691657	0.672809658	0.6592164
0.076026688	0.871123656	0.87492625	0.650499896	0.164671637	0.168570812
0.882731187	0.040849517	0.876996437	0.175238839	0.69285112	0.17098057
0.445454444	0.449260997	0.877349121	0.608474778	0.57826926	0.170600606
0.125177993	0.103014189	0.841784139	0.623607647	0.59840176	0.135334784
0.412121594	0.877393883	0.469886607	0.551195228	0.170695446	0.590218486
0.470479067	0.419876191	0.877852211	0.559612791	0.521023114	0.170694767
0.091290502	0.074664016	0.855786539	0.645626261	0.625818402	0.149490667
0.411861086	0.877257653	0.470013526	0.551596128	0.170602469	0.590337365
0.07142054	0.85658112	0.068833934	0.629626415	0.149534261	0.649919193
0.445495409	0.448867114	0.877318912	0.608472955	0.578253813	0.170610301
0.486622564	0.401880857	0.877390705	0.607435553	0.564514478	0.170480984
0.106588748	0.082905884	0.854103479	0.643179308	0.623586714	0.149194591
0.863142261	0.844123665	0.133771486	0.155217568	0.148082615	0.567802435
0.074672905	0.076571834	0.855514833	0.649150872	0.629505315	0.149291942
0.00000485	0.00000496	0.881040581	0.699120579	0.699555465	0.175146121
0.12524577	0.103299171	0.841399583	0.62384933	0.598712455	0.135341336
0.450587412	0.427160464	0.877762543	0.626366196	0.593174841	0.170578256
0.841440799	0.113766876	0.100300194	0.135084191	0.625729198	0.600561568
0.1250526	0.103333102	0.841653987	0.623494464	0.598433845	0.13535616
0.091567093	0.07952842	0.869176549	0.67104643	0.657371937	0.162518176
0.884276858	0.013705244	0.875412449	0.175580119	0.697264498	0.1705395
0.847416223	0.845752756	0.846611594	0.256814486	0.256951308	0.25664154
0.869018588	0.098314323	0.081052592	0.162770287	0.66747225	0.655994462
0.111450672	0.863319066	0.853923265	0.592121185	0.155921911	0.155133992
0.013762528	0.014592798	0.014517084	0.696983622	0.6973437	0.696906302
0.824938682	0.145398139	0.129002629	0.118851543	0.603381562	0.574521172
0.43585166	0.877310971	0.454286605	0.576601649	0.170525988	0.610212549
0.878056915	0.448319625	0.432944028	0.170881363	0.591021793	0.558622454
0.106397144	0.082702102	0.856142772	0.643340081	0.62368345	0.149542615
0.868956751	0.098643254	0.083089453	0.162809396	0.665040769	0.653491628
0.137185142	0.862097779	0.845201104	0.566181828	0.154845928	0.149716868
0.081646563	0.86786408	0.865253277	0.621174416	0.159626094	0.161584347
0.855272707	0.091297517	0.074193375	0.14930163	0.645703654	0.625839442
0.877653091	0.459034899	0.422254544	0.170754483	0.591140038	0.554964133
0.072060799	0.070029069	0.074061235	0.649518474	0.64988998	0.64959469
0.842857299	0.133741632	0.860298219	0.147887751	0.567801439	0.154942086
0.876713899	0.487357404	0.486117555	0.1698443	0.560586177	0.532510196
0.846603036	0.847022751	0.846798088	0.256910345	0.256985574	0.257030693
0.855329667	0.111439211	0.864658426	0.155535764	0.592154233	0.156491917
0.865492054	0.077067863	0.868054322	0.161164053	0.623216803	0.159963533
0.146806755	0.131357027	0.826045714	0.603523941	0.573918669	0.119306029
0.105818568	0.082788682	0.854675759	0.6431054	0.623769	0.149261947
0.855779111	0.069026351	0.071389537	0.149133116	0.649669733	0.629635829
0.450562693	0.427138333	0.877715598	0.626364882	0.593115911	0.170619681
0.877240504	0.437012721	0.446295417	0.170577944	0.575737044	0.546063985
0.877330808	0.448059951	0.43590026	0.170591448	0.575688557	0.542846508
0.877639853	0.448063814	0.432815434	0.170645211	0.590934892	0.558175035
0.877646619	0.877241636	0.877359599	0.170765992	0.170532154	0.17060442
0.435859599	0.877294422	0.448085547	0.54272571	0.170520019	0.575631652
0.014353572	0.881151836	0.014343394	0.697130019	0.175155894	0.6974247
0.412132124	0.877566444	0.470027584	0.55184973	0.170637596	0.590723898
0.216519965	0.206376012	0.826322983	0.609174646	0.581027465	0.119165976
0.13148417	0.125460673	0.098459509	0.610217481	0.610089492	0.614543456
0.823242483	0.823499866	0.824842598	0.298978581	0.298874295	0.300108068
0.462097329	0.415544108	0.877614028	0.626240176	0.589594014	0.170659442
0.877426337	0.480738311	0.401456994	0.170282542	0.590136752	0.548030689
0.055337114	0.872055071	0.874594014	0.655014986	0.164803715	0.168631399
0.877576773	0.473539208	0.404148403	0.170660961	0.625836907	0.58615697
0.480917339	0.41028384	0.877674273	0.559288562	0.517614228	0.170571914
0.103692432	0.841789888	0.125199122	0.598130089	0.135197121	0.623241958
0.824970061	0.241212654	0.247059698	0.118676364	0.605967861	0.580410462
0.877217571	0.437007766	0.446278599	0.170581174	0.575724272	0.546049911
0.403989987	0.877263755	0.473384645	0.586180848	0.170440435	0.625908479
0.079168819	0.855877005	0.102963756	0.623637877	0.14968356	0.643300972
0.448022209	0.432662936	0.877546824	0.591021927	0.558274617	0.170516444
0.425598837	0.87743964	0.459166031	0.539804025	0.170636749	0.575863713
0.875879848	0.884359949	0.0000055	0.170799209	0.176338512	0.699539091
0.111414564	0.864331444	0.856432596	0.592075406	0.156166342	0.155587443
0.099756252	0.082298065	0.869032171	0.666418283	0.656496863	0.162796316
0.102293141	0.841718204	0.083356512	0.605954537	0.134792303	0.631468493
0.874921399	0.055305613	0.872028093	0.168475289	0.654859928	0.164871765
0.444459034	0.449333021	0.877277065	0.60871494	0.57838574	0.170544608
0.41553907	0.877342383	0.470033317	0.535984884	0.170587502	0.575360676
0.401570713	0.877695648	0.481169421	0.548307047	0.170623972	0.590293766
0.876942116	0.43846036	0.438455658	0.170199728	0.62664113	0.596314275
0.429654908	0.877575675	0.459572443	0.524349015	0.170748336	0.559874919
0.866381406	0.095530717	0.86682208	0.162219202	0.617462845	0.158995849
0.319095725	0.825763201	0.308544643	0.582696703	0.118737513	0.612121519
0.485837039	0.40252431	0.87738506	0.607565932	0.564645047	0.170470074
0.411836609	0.877368924	0.470253048	0.551185935	0.170362758	0.589860543
0.866162698	0.095717703	0.866828954	0.162134884	0.617366882	0.159367942
0.866023253	0.08180506	0.867744624	0.162010095	0.620866147	0.159853913
0.040754667	0.881371685	0.041036041	0.692824064	0.175206676	0.692331112
0.877334169	0.459004605	0.425590202	0.170586145	0.575605764	0.53956177
0.869334557	0.873061589	0.065198372	0.164390981	0.168215349	0.652730148
0.874713533	0.055305835	0.871687415	0.16850816	0.654906511	0.164757347
0.877675918	0.450542995	0.427118095	0.170770893	0.626489697	0.593050361
0.846544159	0.847039447	0.84680339	0.257211737	0.25721975	0.257582518
0.863177696	0.857363725	0.13037732	0.155316278	0.15708263	0.586439936
0.867226839	0.865943879	0.087816571	0.159450875	0.162066977	0.619479195
0.480902971	0.401567872	0.877803288	0.590098417	0.548238703	0.170672485
0.040865185	0.875900168	0.882661768	0.693233169	0.170502722	0.174612971
0.404043564	0.877336771	0.473404743	0.585930819	0.170543097	0.625678833
0.459028717	0.422072298	0.87753601	0.590992347	0.554978144	0.170855957
0.116701095	0.863904967	0.855876483	0.590377728	0.155659842	0.155804474
0.875065212	0.065212968	0.871923963	0.16928147	0.652831077	0.164828341
0.8674653	0.865560344	0.081543959	0.159807234	0.161747168	0.621490557
0.13716142	0.861824863	0.845226063	0.566112904	0.154424236	0.149024726
0.868991558	0.098498813	0.082060935	0.162783932	0.667482225	0.65588697
0.446370735	0.877393727	0.437089394	0.546088848	0.170576463	0.57576694
0.865540725	0.076974638	0.868048329	0.161260408	0.623279823	0.160017846
0.130507733	0.862470922	0.856576661	0.586475198	0.154924501	0.156981699
0.445454955	0.449260886	0.877349335	0.608474766	0.578269366	0.170600564
0.844499658	0.137287108	0.861978852	0.149350154	0.566367738	0.154892991
0.120020362	0.120589754	0.190622652	0.617681143	0.619091617	0.618615862
0.084236426	0.869184686	0.100213104	0.655307598	0.162761457	0.667601678
0.824862272	0.196224416	0.214484927	0.118757493	0.611314551	0.584719125
0.040817112	0.880884578	0.041140517	0.692959666	0.175087652	0.69228418
0.063361555	0.060029257	0.065485759	0.651909701	0.652014075	0.652041944
0.132310885	0.825823298	0.137779465	0.576644732	0.118647885	0.605760489
0.857877229	0.116682491	0.865722972	0.156037335	0.590366199	0.155992103
0.041117558	0.040907621	0.882052013	0.691789731	0.692923233	0.175661475
0.461748371	0.415182444	0.876903857	0.626278087	0.589648779	0.170663999
0.877365682	0.448070569	0.435899059	0.170670258	0.575694078	0.542720363
0.249845326	0.825630358	0.237475692	0.584099944	0.118529568	0.610728749
0.125104977	0.103249394	0.841774608	0.623611911	0.598409246	0.1353481
0.078293091	0.869031941	0.085766639	0.660841272	0.16249474	0.673546727
0.137158678	0.860925202	0.843711411	0.566164571	0.153800102	0.148172475
0.125160058	0.103086716	0.841909421	0.623624039	0.598714954	0.135230851
0.881681383	0.041161837	0.040808256	0.175389456	0.692463185	0.692417269
0.864107012	0.855377773	0.116739961	0.155215119	0.155155194	0.590277804
0.415507419	0.877547399	0.462067413	0.589753887	0.170579756	0.626138245
0.87168739	0.875176004	0.065206733	0.165187645	0.168792446	0.652738478
0.874340039	0.874159517	0.873383859	0.18890413	0.189034491	0.188628595
0.877574703	0.459049561	0.422138252	0.170515303	0.590828627	0.555304906
0.881891382	0.054539249	0.054137754	0.175553959	0.689520003	0.690301877
0.256611085	0.253575312	0.825725065	0.615510412	0.583067779	0.118674955
0.083437637	0.102237755	0.841767258	0.631333341	0.605912442	0.134699362
0.104010411	0.86629365	0.867166626	0.615283199	0.158830817	0.162778585
0.392987624	0.877602885	0.4848655	0.582561009	0.170849401	0.625430748
0.856995731	0.130451105	0.862451894	0.156526819	0.586440605	0.154261063
0.134240627	0.125684623	0.82672024	0.604145754	0.575667438	0.119447442
0.108021017	0.864668412	0.854087716	0.593586839	0.156692704	0.154493665
0.470327749	0.419755185	0.877573442	0.559617588	0.521042066	0.17054503
0.874458034	0.873715149	0.874205507	0.188765019	0.189245033	0.188895253
0.054229545	0.88133443	0.054624441	0.690276173	0.17539313	0.690078026
0.876842446	0.88439477	0.013707246	0.170927169	0.175651405	0.697346519
0.868665007	0.077074521	0.080430527	0.162576267	0.675422096	0.664322467
0.401654593	0.87739222	0.480744452	0.548216957	0.169975442	0.589688128
0.877360561	0.484738117	0.392873528	0.170478744	0.625202827	0.582639422
0.877557223	0.480588424	0.405820488	0.170571626	0.575387405	0.532972651
0.055117453	0.051164576	0.057805284	0.653997641	0.654410838	0.655027029
0.06086005	0.042793841	0.077595069	0.675688661	0.674978461	0.677563628
0.855511905	0.079777878	0.071537126	0.149065457	0.648014809	0.627724172
0.085582932	0.868751009	0.082215771	0.663331412	0.162411864	0.675258122
0.868990944	0.099174222	0.08198474	0.162826558	0.666111785	0.653849822
0.868860937	0.077258249	0.080833036	0.162571682	0.676100111	0.664867068
0.040846602	0.88171236	0.041195606	0.692542993	0.175246221	0.69292948
0.12697196	0.825381596	0.14491233	0.574750725	0.119217793	0.603712076
0.438572268	0.438567559	0.87716561	0.626567902	0.59635411	0.170303228
0.864805465	0.855825757	0.107820692	0.156602644	0.154660101	0.593501954
0.87738336	0.459015396	0.425624991	0.170604129	0.575674619	0.53960752
0.438301621	0.444562586	0.877315194	0.592827621	0.56306429	0.170593336
0.87549626	0.883239281	0.0000055	0.170318458	0.175614212	0.69939382
0.459096913	0.422086027	0.87762297	0.590722942	0.555072983	0.170541699
0.877506244	0.459627957	0.429515126	0.170734209	0.559846625	0.524306127
0.877636414	0.878182486	0.877490369	0.170781887	0.170816087	0.17056317
0.103136811	0.09916511	0.84147104	0.627626132	0.602448053	0.135023766
0.875020435	0.065195206	0.871272742	0.168845978	0.65299235	0.164590886
0.333984903	0.337445276	0.825249702	0.611884593	0.586060815	0.118639852
0.040754182	0.881466782	0.041052316	0.692689742	0.17519748	0.692454399
0.877659906	0.436792049	0.444966699	0.170513281	0.591405476	0.561813158
0.877328297	0.450909979	0.432110969	0.170555137	0.609571171	0.576253239
0.855794799	0.116652671	0.863889882	0.155494848	0.59033323	0.15535355
0.867350869	0.867196551	0.103993353	0.159276351	0.16314959	0.615338673
0.103446691	0.842016811	0.125164099	0.598164913	0.135209815	0.623462632
0.469849991	0.415739313	0.877370927	0.575362206	0.536096784	0.170516429
0.125099423	0.103209972	0.841482619	0.6238068	0.598640548	0.135342885
0.203873846	0.825292945	0.206340066	0.584425166	0.118772304	0.610852534
0.872255711	0.875306211	0.065202815	0.165265314	0.168955566	0.652808709
0.103520653	0.841739673	0.12503442	0.597954645	0.135264726	0.623273666
0.41026681	0.877610657	0.480874166	0.517692979	0.170669563	0.559333249
0.412141577	0.877565788	0.470023539	0.551849575	0.170639199	0.59072433
0.84587656	0.153955319	0.859267906	0.151348572	0.560889861	0.152308362
0.822358391	0.82346495	0.824691834	0.298724234	0.298639818	0.298986583
0.410140833	0.877399314	0.480787079	0.517573885	0.170512369	0.559262827
0.861213689	0.844602118	0.141777217	0.153115673	0.14917885	0.564521536
0.869009828	0.092012074	0.078975142	0.162566812	0.672224039	0.660097047
0.111457718	0.864228657	0.854709468	0.592232596	0.155970719	0.154914124
0.883050936	0.04085204	0.876786612	0.175380471	0.692867936	0.171194959
0.86229255	0.843898011	0.137120901	0.154760297	0.149194599	0.566229535
0.014305387	0.881336906	0.014635633	0.697078434	0.175105882	0.697537591
0.154035951	0.858710096	0.846359427	0.560955905	0.151728387	0.151059488
0.869260524	0.090897264	0.0785395	0.162659618	0.672495276	0.658801606
0.438525743	0.438521128	0.877073572	0.626828278	0.596131813	0.170593205
0.041163313	0.040920431	0.881870167	0.691719971	0.692786958	0.175485852
0.450393074	0.426965561	0.877373279	0.626474238	0.593154974	0.170455399
0.877364108	0.484021294	0.399575006	0.17058237	0.608752586	0.566090192
0.84181499	0.113649035	0.100350063	0.135212654	0.625955449	0.600404641
0.054939682	0.054716208	0.055806299	0.690372828	0.690090633	0.690618915
0.040852896	0.876816359	0.884082501	0.69296835	0.170843841	0.175729089
0.82632181	0.195068121	0.193663214	0.11908837	0.607291013	0.578231674
0.860471361	0.847279725	0.15403585	0.152608032	0.151735424	0.560830155
0.041118419	0.040745697	0.881390044	0.692398642	0.69269486	0.175414434
0.877227842	0.437010014	0.446287127	0.170576711	0.575682367	0.546049726
0.00000493	0.00000494	0.880835996	0.699046074	0.699310304	0.175376643
0.401963759	0.877335854	0.48705476	0.56404766	0.170539699	0.607036947
0.445655344	0.448427579	0.877286842	0.608650797	0.578331054	0.17054625
0.134668915	0.127254557	0.827453128	0.60542877	0.576628037	0.119336063
0.469921674	0.415688327	0.877399928	0.57533905	0.536073021	0.170573217
0.877738562	0.470119929	0.411729194	0.170182965	0.590456884	0.551535869
0.865943517	0.076994003	0.867016308	0.161297508	0.623189819	0.159945847
0.415500141	0.87754287	0.462069811	0.589770389	0.170535683	0.626222151
0.08260834	0.869138348	0.098892893	0.654658806	0.162558885	0.667724171
0.041082983	0.041465904	0.041755315	0.692788861	0.692981834	0.692528091
0.868955523	0.08285219	0.072943971	0.162655902	0.673396489	0.66072579
0.867841905	0.865213215	0.081535852	0.1597929	0.16189922	0.621273331
0.877402002	0.459055388	0.425608549	0.170615248	0.575789287	0.539670638
0.877413109	0.473136099	0.410173345	0.170633636	0.608993213	0.56939975
0.085893811	0.076900406	0.869245371	0.672117189	0.660430457	0.162618874
0.095663139	0.866699711	0.866895994	0.617302382	0.159200169	0.162656448
0.074963011	0.077851157	0.854024027	0.650237613	0.62918258	0.148736031
0.040854597	0.881459445	0.04125224	0.692632418	0.175200589	0.692484829
0.44633274	0.877331538	0.437065671	0.546072524	0.170578962	0.575761659
0.099200151	0.84173881	0.103146503	0.602456814	0.135168357	0.627907244
0.426718247	0.876876693	0.450143506	0.592908995	0.170374357	0.626627042
0.87650468	0.883558975	0.040843877	0.170946627	0.175810873	0.692775955
0.480907439	0.410105168	0.87748711	0.559273911	0.517613857	0.170564524
0.43700337	0.446323988	0.877256923	0.575622945	0.546008949	0.170651613
0.875952653	0.883979291	0.013708735	0.17058292	0.175938395	0.69743166
0.214593576	0.206225331	0.825897207	0.607536742	0.579516512	0.118678586
0.872755555	0.875720407	0.075921685	0.165008459	0.168846532	0.650524086
0.878066759	0.449065638	0.439920723	0.170688966	0.559784704	0.527672343
0.874045874	0.872349651	0.872823082	0.188783259	0.18881942	0.188486795
0.04106813	0.04102232	0.041108038	0.692739008	0.692904185	0.692394054
0.040747357	0.881775681	0.041255377	0.692391017	0.1752043	0.692985661
0.041026591	0.041416128	0.041668136	0.69230202	0.692415315	0.692281809
0.131651067	0.82716054	0.139097685	0.576887222	0.119052947	0.605232405
0.027603168	0.027425299	0.882467965	0.694765152	0.695304187	0.175393045
0.45915828	0.425607842	0.877386348	0.575594034	0.539486386	0.170559723
0.133731868	0.861886343	0.842882468	0.567757689	0.154440434	0.147244215
0.877390295	0.480615119	0.405662752	0.17057773	0.575064756	0.532688773
0.054238086	0.881037972	0.054623346	0.690441124	0.175400928	0.690172603
0.873191142	0.876029681	0.065207961	0.165332643	0.168830504	0.652746613
0.878095092	0.462346271	0.415775913	0.170587376	0.626187355	0.589765142
0.87595037	0.882565831	0.040862224	0.17010632	0.174556317	0.693117894
0.445406539	0.876375616	0.437252935	0.562821821	0.170076066	0.591896475
0.876031088	0.883605033	0.013707121	0.17040512	0.175605036	0.697353493
0.862757341	0.845257492	0.137098566	0.154791611	0.149224861	0.5662195
0.071476746	0.065569842	0.084766003	0.669592707	0.670127055	0.670677106
0.014115721	0.014014134	0.881580766	0.696953427	0.697302438	0.175337657
0.87426301	0.873601564	0.873838098	0.188605373	0.188773823	0.188824712
0.427244409	0.877924446	0.450665179	0.592912885	0.170388905	0.62661336
0.014197909	0.014095771	0.881032435	0.697022089	0.696863772	0.175211485
0.099776365	0.08197936	0.869020426	0.668359444	0.656581851	0.162787861
0.821927299	0.823758992	0.825110254	0.298420123	0.298672945	0.298873043
0.844481048	0.141788693	0.860665578	0.149694954	0.564502325	0.153379987
0.877305179	0.437056561	0.446316337	0.170598823	0.575730029	0.546089245
0.448891823	0.877329476	0.444335911	0.579452053	0.170597927	0.609547491
0.111458752	0.863617251	0.854349533	0.592222956	0.155974529	0.154947372
0.432811181	0.877133934	0.447685639	0.558568346	0.170554986	0.591616649
0.847545441	0.84646991	0.84742223	0.256978964	0.25669183	0.256953648
0.04853568	0.045548266	0.053252146	0.656292558	0.655807241	0.655761103
0.825627497	0.138315948	0.128364466	0.119076545	0.60566852	0.57679787
0.133762912	0.862295317	0.842918358	0.567811573	0.155307044	0.148166524
0.168572239	0.091369775	0.17965564	0.613678646	0.6165975	0.616862908
0.419928235	0.877633584	0.470208999	0.521025069	0.17062407	0.559694697
0.061016824	0.042265503	0.077450659	0.675608059	0.675142937	0.677442782
0.877375482	0.469940388	0.415442866	0.170553689	0.575542817	0.536222883
0.87480842	0.065207839	0.871758786	0.168712491	0.652871729	0.164568332
0.425584353	0.877437648	0.45914233	0.539801788	0.170634805	0.575855434
0.06319393	0.060110221	0.065319361	0.651744282	0.651973551	0.651766916
0.13098503	0.825050679	0.141550685	0.576658794	0.118774361	0.605489729
0.882991242	0.02732534	0.876521968	0.175376791	0.695185602	0.171091402
0.074225331	0.855988075	0.091197398	0.625847602	0.149500669	0.645857661
0.13376267	0.124597551	0.826158552	0.606226432	0.577006425	0.118458638
0.448120295	0.436003452	0.877404704	0.575573425	0.542812074	0.170588072
0.100267556	0.081659306	0.868807216	0.665767793	0.655469835	0.162748481
0.08035153	0.207376535	0.209457156	0.619874366	0.620287228	0.621967183
0.079026435	0.855630133	0.102957821	0.623594309	0.149457494	0.643375268
0.085667172	0.07755376	0.869252214	0.672681363	0.660541363	0.162536773
0.092686001	0.099882655	0.841487553	0.629630904	0.604159645	0.134769878
0.867032282	0.866770708	0.087826322	0.159324335	0.162115106	0.619378885
0.099341204	0.840918568	0.102960408	0.602484482	0.135075864	0.627583698
0.054626931	0.054214946	0.881844443	0.689932696	0.690728059	0.175528884
0.877425742	0.462009892	0.415442883	0.170504136	0.626158352	0.589752636
0.868988791	0.098253284	0.081959996	0.16282719	0.666216691	0.653911777
0.081683268	0.866789343	0.865708499	0.621184854	0.159271153	0.161796459
0.054257666	0.8814568	0.054667697	0.690894685	0.175502168	0.690055299
0.856180212	0.079872532	0.071571476	0.14964662	0.647984509	0.627724746
0.103714328	0.841829974	0.124859354	0.598177434	0.135192217	0.623370735
0.040838383	0.875193991	0.884344655	0.692681503	0.170104414	0.175216385
0.066945296	0.052323084	0.080810919	0.673109975	0.672352581	0.674015472
0.10407682	0.866141851	0.867230486	0.615135003	0.158706139	0.163182235
0.450592231	0.427165739	0.877772661	0.626412003	0.59322431	0.170684026
0.00000478	0.881402825	0.00000488	0.69941488	0.175238056	0.698787138
0.459115394	0.42558457	0.87733203	0.575579218	0.539481434	0.170529399
0.877245683	0.492630053	0.496689504	0.170548957	0.561315837	0.531666369
0.126862469	0.825468551	0.144687866	0.574858424	0.11902729	0.603797389
0.429555984	0.877437811	0.459528294	0.524224505	0.17057334	0.559938321
0.166195872	0.091577873	0.170548377	0.614362824	0.61573218	0.620747064
0.826661843	0.199966261	0.202215265	0.11945455	0.610943423	0.580128733
0.438579437	0.438574729	0.87718002	0.626539402	0.596356692	0.170255557
0.086801353	0.078375203	0.868957222	0.672083289	0.660784844	0.162548601
0.24679918	0.251899673	0.825875028	0.617721003	0.588012044	0.118769527
0.0000055	0.877976987	0.885092703	0.699501806	0.170768486	0.176002143
0.876963207	0.448537609	0.439355624	0.170746861	0.559826013	0.527734827
0.059995459	0.060017591	0.06000813	0.640143087	0.640105355	0.640212254
0.864742789	0.856643077	0.116672557	0.155796814	0.15592288	0.59025886
0.841880405	0.103009689	0.099140368	0.1349333	0.627852559	0.602470234
0.404048595	0.877370771	0.473433992	0.586194919	0.1703707	0.625913682
0.877491337	0.47029121	0.419704924	0.1706227	0.559630156	0.52098642
0.048616813	0.045143337	0.05230395	0.656026422	0.656370911	0.656379378
0.084037569	0.869140888	0.099603105	0.654434041	0.162608252	0.667835989
0.458855082	0.421938609	0.877224723	0.590723335	0.554989881	0.170444009
0.877361215	0.459029281	0.425590705	0.170583663	0.575621773	0.539577444
0.877411848	0.450972195	0.432649508	0.170535338	0.608888479	0.575613366
0.167451715	0.090562442	0.175798894	0.612677842	0.615870929	0.619550021
0.873782743	0.874543014	0.874460478	0.18882023	0.189035699	0.188580444
0.013770426	0.014823002	0.014581095	0.697007201	0.697309078	0.696852776
0.126500954	0.825624451	0.144397396	0.574978314	0.118870821	0.603853944
0.867436267	0.865911642	0.08780267	0.159406677	0.161909546	0.619514748
0.873249103	0.873743667	0.874246999	0.188715752	0.18884061	0.188583088
0.083453221	0.08367737	0.08398807	0.632354897	0.632130853	0.632403573
0.867276866	0.865091359	0.077169681	0.159788192	0.161084063	0.623052541
0.449388828	0.877314351	0.44402053	0.578863973	0.170594816	0.608964501
0.415494324	0.877528156	0.462060531	0.589559924	0.170651637	0.626213954
0.027324673	0.876601974	0.882800244	0.69517972	0.170406468	0.175248133
0.480994158	0.410218709	0.877692518	0.559351195	0.517667105	0.170500056
0.147454107	0.130747579	0.826236884	0.60322427	0.573638278	0.119336756
0.23890818	0.257147995	0.825256206	0.608982415	0.57627626	0.118657904
0.884617312	0.040854979	0.875297278	0.17548462	0.692987261	0.170483215
0.446341113	0.877341078	0.437067833	0.546055549	0.170617955	0.575692596
0.876328306	0.883139703	0.027326261	0.170762092	0.175187328	0.695155227
0.245041217	0.825309929	0.237197063	0.582649358	0.118452222	0.612710511
0.147425316	0.861728038	0.846966428	0.562769429	0.153091269	0.150771478
0.47641837	0.413330075	0.877532685	0.6082703	0.568729958	0.170581353
0.027462598	0.076705102	0.076379704	0.678711662	0.679756608	0.679451446
0.877379028	0.451222186	0.43237742	0.170528911	0.608742451	0.575440618
0.855523212	0.07971606	0.071547108	0.14917517	0.648012015	0.627708063
0.877739938	0.470303766	0.419959882	0.170832846	0.559747771	0.520885402
0.87761833	0.437177893	0.444571706	0.170646291	0.591680784	0.562032207
0.841959039	0.103169521	0.099251141	0.134923278	0.627878001	0.602548924
0.413835665	0.877311541	0.474839569	0.569159187	0.170506259	0.608653948
0.06639904	0.052758772	0.08108458	0.673118961	0.672369507	0.673904049
0.874650947	0.047096853	0.871901992	0.168203258	0.656989256	0.164918034
0.875337502	0.88351351	0.0000055	0.170144655	0.175435398	0.699334487
0.877062326	0.469766629	0.41139584	0.170065521	0.590409491	0.551618293
0.877379639	0.486167994	0.507539549	0.170647783	0.560021532	0.530886046
0.071742694	0.855796064	0.079690316	0.627554118	0.149305283	0.647667015
0.102221605	0.841585231	0.083393113	0.606105457	0.13475727	0.631283304
0.825953885	0.294655699	0.296862986	0.118573492	0.613310752	0.585459347
0.825593464	0.137887691	0.129841218	0.118903935	0.604420427	0.575444119
0.099271312	0.841737584	0.10317323	0.602436748	0.135170239	0.627913596
0.875771262	0.076039307	0.871202634	0.169350726	0.650457627	0.164621808
0.872309499	0.87507171	0.046415407	0.165134546	0.168880755	0.659040748
0.080355934	0.206430196	0.200483671	0.619970672	0.620110743	0.622327612
0.863389629	0.86408099	0.863559796	0.218550831	0.218762453	0.219261553
0.439761721	0.877928363	0.449077888	0.527828306	0.170654674	0.559732073
0.8667535	0.866940473	0.104016568	0.159039802	0.162967603	0.615397309
0.877617363	0.470355432	0.419770556	0.170965781	0.559755499	0.521018589
0.459432865	0.429576075	0.877363164	0.560003473	0.524167796	0.170767613
0.459073717	0.42560417	0.877307549	0.575592108	0.539496718	0.170530961
0.868881857	0.08301348	0.073284491	0.162662954	0.673721025	0.660917156
0.147419083	0.860532046	0.84494316	0.562692412	0.153218775	0.150776105
0.46990015	0.415715125	0.877414512	0.575353344	0.536065878	0.170554007
0.877466898	0.473484244	0.40409386	0.170530187	0.625861497	0.586170975
0.873966594	0.055320101	0.872532745	0.168048327	0.654768755	0.16448908
0.855405563	0.068919023	0.071404495	0.1491387	0.649685018	0.629338088
0.872177703	0.87316584	0.046481938	0.16518424	0.168150196	0.658917168
0.847261081	0.846058197	0.846699386	0.25719199	0.256851792	0.257097484
0.091545151	0.078887885	0.869212225	0.673681685	0.659344074	0.162728181
0.246064225	0.826199259	0.242370476	0.583912772	0.118725963	0.611817513
0.864161263	0.855378915	0.1167378	0.155199032	0.155131356	0.590276552
0.877350711	0.448637308	0.439642625	0.170461355	0.559862565	0.527621671
0.866491607	0.866186375	0.095469021	0.159198333	0.162256019	0.617362866
0.877473055	0.484776549	0.392950038	0.170431723	0.625245459	0.582444386
0.083495148	0.86891129	0.080538316	0.664903386	0.16257098	0.676365959
0.10786779	0.866047007	0.85564395	0.59379852	0.156882574	0.154710088
0.422135377	0.877535368	0.459296461	0.554584376	0.170533467	0.590400403
0.066549455	0.052776361	0.081376515	0.673306213	0.672312219	0.674008193
0.220998042	0.826317922	0.212371476	0.583458112	0.119177249	0.611379986
0.133772495	0.862977711	0.843071011	0.567879885	0.155080523	0.147952801
0.054254303	0.881758994	0.054597774	0.690367804	0.175363404	0.69042751
0.877350709	0.451095806	0.432270948	0.170568586	0.610003875	0.576416969
0.873943992	0.872863567	0.873111299	0.188909885	0.188944012	0.188439571
0.092680774	0.099704799	0.841397253	0.62959006	0.604173843	0.134823489
0.841499832	0.083392143	0.102241067	0.134791387	0.630982032	0.605859474
0.875847357	0.882584866	0.040860421	0.170318977	0.174960004	0.69310738
0.863714429	0.85526846	0.11673207	0.155245129	0.155188905	0.590290149
0.883320933	0.0000055	0.875060695	0.175146599	0.699358397	0.170096966
0.843852871	0.133737411	0.86369684	0.148686925	0.567821631	0.155801096
0.334199904	0.333721022	0.825221737	0.614164224	0.585261749	0.118560278
0.040950931	0.041597065	0.04152491	0.692206901	0.692788732	0.692245417
0.87718808	0.448661593	0.43945434	0.170488106	0.559864726	0.527645033
0.473519083	0.404134337	0.877541867	0.625749702	0.586207978	0.170528184
0.878046082	0.481110294	0.410455117	0.170873159	0.55947539	0.517487831
0.041129682	0.040782245	0.881974179	0.691746337	0.692835892	0.175596377
0.429765632	0.877773393	0.459644284	0.524353067	0.170633244	0.559839187
0.861029979	0.843916442	0.141774744	0.153573051	0.149682578	0.564565299
0.856934468	0.123080787	0.86400018	0.156724024	0.588428427	0.155849153
0.877676791	0.473585504	0.404203159	0.170541405	0.625856665	0.586175342
0.135254346	0.124657312	0.8256324	0.60477995	0.577205553	0.118844708
0.864674786	0.854533131	0.111386096	0.156084796	0.155023163	0.592161423
0.878310424	0.462453063	0.415884444	0.170587881	0.626203426	0.589733835
0.401549669	0.877351918	0.487143912	0.564711327	0.170536284	0.607777285
0.868940966	0.083069967	0.074935904	0.16265985	0.672459258	0.660502205
0.85535448	0.068903508	0.071418833	0.148958563	0.649720843	0.629298676
0.102216868	0.841611944	0.083387413	0.606137803	0.134724565	0.631294376
0.863825502	0.856518189	0.123121056	0.155516478	0.156394707	0.588222198
0.099767703	0.841668716	0.092843569	0.604208835	0.134880004	0.629618596
0.847472819	0.845715531	0.84661758	0.256823325	0.256949629	0.25665876
0.877442201	0.469902519	0.415553197	0.170540984	0.575412581	0.536148392
0.841683363	0.092756972	0.099870463	0.134877007	0.629405091	0.604369779
0.04091081	0.880866899	0.041295017	0.693006575	0.175395622	0.692374642
0.405742206	0.877346628	0.48061742	0.532997547	0.170558884	0.575374262
0.055333814	0.87128269	0.873716932	0.654794153	0.164588294	0.168647761
0.08233115	0.854071546	0.066688944	0.631475762	0.14864863	0.653266114
0.882796472	0.041220562	0.040807456	0.175582176	0.69255708	0.692468308
0.111445547	0.864387599	0.855876004	0.591924853	0.155661748	0.155163472
0.865985719	0.087634302	0.867009045	0.161658048	0.619739139	0.15946377
0.076043958	0.870893999	0.874453743	0.650485963	0.164457173	0.16861818
0.102232363	0.84160446	0.083347795	0.606018275	0.134837114	0.631173754
0.040848816	0.876673111	0.884216313	0.692939437	0.17129397	0.175688422
0.878282571	0.459975314	0.429944013	0.170868704	0.559881107	0.524341646
0.085884427	0.868720594	0.082593053	0.663368055	0.162413233	0.675260424
0.480856525	0.405580325	0.877382486	0.574983519	0.532570435	0.170536843
0.863925157	0.854499587	0.111439178	0.155676403	0.154179169	0.591964771
0.100424918	0.08261335	0.868819674	0.667326258	0.655542694	0.162753728
0.876979964	0.484959474	0.492648377	0.169930302	0.559927399	0.53095144
0.873009237	0.875882251	0.047241881	0.165271211	0.169223045	0.657010849
0.862685498	0.84247681	0.133738772	0.155425674	0.148291089	0.567676995
0.401133178	0.877348638	0.487573838	0.564730781	0.170536773	0.607779429
0.877314016	0.461492151	0.422192153	0.170554046	0.6085153	0.572268667
0.415683722	0.877434505	0.470057496	0.536157024	0.170589043	0.575455978
0.884206033	0.040854483	0.875437158	0.175418367	0.692979163	0.170398444
0.448197061	0.436010387	0.877524102	0.575542579	0.542669042	0.170613744
0.054272257	0.875690322	0.884315236	0.690455774	0.170516581	0.175331218
0.487432422	0.401406179	0.877347873	0.608092739	0.565035229	0.170506802
0.877265974	0.447857779	0.432637719	0.170413669	0.590883851	0.558315432
0.877696029	0.473592721	0.404215074	0.17042542	0.625883268	0.586093813
0.821859471	0.823280028	0.822343463	0.298429397	0.298689332	0.298878604
0.859840611	0.846735689	0.154000375	0.152525086	0.151664133	0.560885746
0.863678942	0.856883749	0.130376853	0.155472397	0.157345935	0.586517729
0.422135305	0.877535002	0.459296288	0.554584242	0.170533542	0.590400599
0.825046221	0.146275108	0.128115239	0.118696203	0.603416321	0.5744601
0.401454176	0.877300281	0.480821538	0.547995819	0.170019285	0.589581027
0.047902925	0.042674668	0.07431758	0.678124469	0.677585704	0.680364631
0.860140525	0.844795269	0.147391129	0.153156771	0.150770122	0.562853335
0.872092613	0.874650265	0.065210316	0.165477953	0.168788782	0.652649423
0.854988848	0.091226272	0.074306634	0.149112758	0.645642395	0.625717781
0.877396137	0.47307875	0.410290259	0.170622312	0.60899657	0.569392741
0.415494046	0.877527592	0.462060245	0.589559679	0.170651571	0.626214013
0.00000275	0.00000299	0.00000296	0.699191639	0.699306511	0.699214782
0.438642761	0.877316554	0.438647376	0.596357159	0.170520277	0.626620836
0.87157501	0.874616383	0.047156349	0.164997028	0.168137458	0.656997229
0.877026387	0.469737156	0.411397415	0.170101708	0.590388567	0.551588411
0.469810678	0.411529657	0.877260295	0.590840367	0.551542376	0.170298216
0.071712774	0.855542946	0.079692549	0.627600426	0.149367913	0.647805216
0.07498111	0.074837933	0.075204035	0.634393562	0.634290148	0.634602044
0.87711811	0.480689687	0.409965623	0.1706004	0.559482946	0.517490374
0.116739628	0.863403081	0.855360477	0.590369189	0.155643065	0.155776703
0.074358872	0.855886331	0.091164759	0.625652022	0.149402217	0.645967566
0.867178266	0.867478996	0.103964358	0.159570381	0.163186513	0.615339734
0.100258145	0.841810839	0.114008189	0.600408289	0.135014208	0.62567048
0.027328605	0.875320906	0.883136466	0.695319221	0.169984447	0.175430668
0.866754756	0.866697753	0.095439797	0.159497688	0.1622939	0.61756576
0.877373104	0.451050142	0.432536231	0.170529839	0.608762695	0.575465464
0.00000495	0.00000485	0.880944704	0.699162952	0.699472034	0.175166823
0.123175713	0.863335396	0.855548106	0.588419468	0.155224247	0.156503432
0.08045133	0.211139265	0.208401027	0.62014995	0.62094931	0.623785374
0.104077713	0.866423065	0.866985773	0.61523671	0.158783203	0.162841148
0.411739526	0.877088328	0.469985186	0.551479655	0.170162031	0.590051516
0.4592034	0.425613407	0.877428653	0.575542751	0.539432055	0.1705652
0.027449518	0.028334011	0.028136921	0.69490745	0.694874558	0.695051393
0.45916169	0.422129562	0.877731418	0.590735051	0.55512441	0.170454972
0.095533797	0.86661378	0.866506052	0.617220135	0.158894857	0.162364121
0.103462701	0.841994166	0.125199342	0.598165003	0.135275875	0.62349269
0.855748411	0.091311787	0.074392586	0.149168961	0.645732333	0.62569962
0.027260383	0.075699368	0.075567011	0.678916221	0.680021806	0.678488477
0.071519942	0.855576832	0.068763581	0.629360807	0.149453109	0.649844391
0.404005808	0.877274847	0.473380878	0.586044906	0.17069482	0.625884883
0.867112817	0.867436621	0.103989934	0.159578328	0.163176722	0.615311858
0.87729568	0.43705452	0.446310775	0.170589825	0.575734507	0.546082118
0.092754533	0.099708827	0.841428901	0.629571317	0.604234397	0.134839527
0.843170363	0.13374579	0.861093074	0.148111813	0.567783488	0.154957288
0.083388658	0.102234969	0.841777752	0.630986266	0.605809933	0.134749175
0.82614329	0.137999663	0.129046794	0.119224329	0.605903623	0.577141797
0.884126011	0.0000055	0.876202082	0.175774134	0.69934589	0.170893356
0.473749068	0.404361012	0.877999559	0.625845718	0.586088967	0.170796361
0.460131513	0.430094751	0.878598704	0.559968185	0.524282298	0.170754574
0.245424172	0.825171355	0.248146531	0.582104125	0.118594216	0.611774857
0.141804075	0.860964168	0.844943487	0.564516146	0.15346609	0.149586465
0.147418239	0.860752886	0.845689953	0.562733083	0.152758408	0.150325271
0.444806126	0.449438637	0.877337086	0.608554893	0.578260999	0.170559008
0.107843818	0.865150698	0.85485966	0.593664377	0.157016567	0.15473488
0.876702238	0.450055868	0.426631491	0.170480021	0.626571481	0.592997178
0.087353047	0.079545337	0.868884945	0.671946722	0.660744274	0.1625674
0.0286511	0.028226465	0.88282486	0.694840063	0.695408737	0.175406018
0.130506829	0.863447472	0.85722354	0.586564019	0.154969772	0.157193786
0.825664614	0.137882386	0.131399904	0.118899246	0.604441684	0.575389736
0.00000495	0.00000486	0.881332564	0.699116704	0.699365667	0.175421897
0.846204951	0.153920771	0.860320048	0.150726737	0.560833349	0.151565603
0.243388025	0.251068325	0.825249805	0.615353864	0.581920383	0.118692245
0.074174675	0.855665399	0.091191711	0.625883801	0.149291026	0.645648539
0.480683716	0.405949161	0.877442997	0.575168676	0.532701689	0.170588577
0.826628614	0.195872619	0.19628979	0.119531305	0.610854608	0.580758427
0.845424186	0.141814695	0.859893914	0.150142672	0.564536181	0.153819321
0.059770327	0.043082539	0.077163913	0.674742904	0.675149465	0.676709705
0.083399166	0.102239602	0.841844461	0.631026851	0.605750581	0.134731171
0.855900704	0.103050402	0.078848541	0.149417641	0.643651613	0.62355478
0.459367252	0.877894359	0.455254907	0.530919986	0.170667793	0.559809813
0.059443961	0.042780392	0.076366222	0.675040341	0.674962288	0.676457837
0.06240674	0.062535676	0.062370663	0.638102839	0.638302626	0.638563869
0.214649105	0.206453211	0.8260764	0.60993713	0.581934079	0.119171798
0.842482509	0.137257167	0.859561887	0.14839902	0.566237259	0.153938205
0.88349893	0.040848704	0.876691646	0.175385139	0.6928272	0.171157595
0.435869149	0.877234383	0.448005975	0.542707328	0.170537385	0.575620211
0.881059543	0.041151031	0.04088742	0.175287523	0.692032839	0.692744788
0.411629654	0.877406475	0.470337486	0.551211655	0.170255629	0.589802042
0.0000048	0.881337164	0.00000491	0.699511301	0.175138116	0.699250587
0.877525182	0.448157937	0.435972053	0.17064197	0.575722493	0.542789397
0.881417014	0.000004899	0.00000477	0.175227293	0.698900771	0.699436467
0.860480439	0.845470551	0.147380111	0.153193482	0.150786541	0.562850367
0.855555701	0.103068292	0.078910673	0.149643547	0.643517148	0.62360749
0.856951658	0.13042561	0.863413268	0.15679341	0.586518356	0.154874308
0.876084985	0.883802491	0.054272838	0.170541981	0.175783161	0.690496021
0.876492902	0.882377591	0.054280343	0.171046181	0.175215415	0.690542539
0.826187582	0.195206387	0.190376648	0.118940111	0.607921113	0.57786572
0.844494795	0.133720426	0.862196428	0.148129819	0.567805657	0.155018288
0.108138423	0.86500491	0.854970314	0.593566141	0.15672402	0.154496306
0.087968993	0.866420019	0.86575489	0.619525402	0.15901797	0.162020748
0.866922493	0.86653424	0.087847845	0.159304689	0.162108625	0.619344205
0.459060876	0.425754679	0.877437224	0.575548907	0.539450662	0.170560958
0.867438997	0.865839288	0.087805585	0.159423332	0.161861176	0.619469627
0.883223191	0.040853642	0.876282048	0.175288246	0.692935565	0.17068665
0.459017973	0.425630634	0.877265985	0.575655141	0.539541032	0.170543567
0.429737368	0.877742294	0.459641292	0.524354649	0.170648322	0.559839724
0.415609466	0.877435243	0.470053227	0.536034782	0.170581478	0.575398558
0.401480072	0.877296445	0.480812667	0.547994358	0.170024711	0.589584816
0.873246213	0.875165532	0.046629319	0.165206891	0.168344884	0.658943455
0.100227343	0.842215624	0.114134726	0.600641952	0.13507613	0.625842166
0.480554684	0.405990617	0.877396537	0.575181903	0.532654271	0.170565033
0.882345031	0.013705337	0.876348637	0.175527228	0.697284513	0.171306792
0.877907501	0.450657368	0.427235483	0.170747272	0.62649499	0.593066502
0.876639767	0.883443678	0.0000055	0.171362556	0.175657578	0.699294837
0.455178842	0.436218559	0.87734613	0.61001261	0.576397206	0.170553089
0.401647168	0.877496676	0.480857573	0.548343027	0.169974863	0.589904759
