Va	Vb	Vc	Ia	Ib	Ic
0.040497732	0.046473541	0.074382175	0.677751918	0.67711219	0.679489789
0.087949724	0.867029223	0.866334488	0.619577088	0.159667919	0.161979675
0.080662221	0.855863513	0.105013577	0.623310036	0.149586761	0.642774415
0.13373585	0.862268789	0.844375878	0.567733768	0.155236284	0.148243407
0.480869144	0.410202833	0.87754596	0.559261619	0.517666888	0.170464129
0.435904527	0.877320053	0.448076888	0.542884453	0.170513886	0.575824173
0.081678157	0.867502231	0.865973528	0.621277298	0.15973836	0.161727872
0.103515334	0.841922188	0.125144953	0.598624779	0.135323328	0.62358488
0.073062706	0.855761736	0.081961453	0.627789589	0.149480996	0.647588817
0.872040352	0.874700944	0.047107994	0.164826815	0.168230112	0.657012112
0.067558806	0.067732526	0.067833564	0.636185481	0.636272539	0.636751729
0.86650072	0.095543687	0.867537704	0.162316189	0.61720788	0.159372463
0.865543483	0.081459821	0.867445189	0.161505286	0.621323713	0.159314029
0.454776859	0.436111683	0.877422112	0.611017111	0.577296359	0.170576902
0.868777781	0.076374458	0.080453008	0.162575799	0.676058308	0.664400176
0.092589852	0.080352267	0.868995894	0.667806449	0.656975183	0.162693564
0.43599988	0.877324469	0.454400925	0.576359161	0.170564169	0.609791209
0.473596939	0.404214766	0.877699622	0.62594716	0.586162958	0.17058638
0.871586887	0.875383999	0.047441821	0.164897565	0.168794734	0.657117473
0.877388496	0.462713141	0.420669631	0.170663893	0.609512143	0.572976254
0.877388339	0.437232408	0.444125947	0.170309097	0.591531797	0.562100932
0.099901294	0.081376577	0.869210016	0.669231359	0.657463557	0.16274274
0.047138729	0.872036841	0.873772912	0.656833473	0.164728061	0.167976482
0.882115911	0.00000492	0.00000486	0.175427265	0.699269228	0.699270992
0.081509871	0.869091893	0.099397578	0.656367251	0.162653604	0.668831193
0.487051136	0.401401069	0.877438389	0.607419204	0.564315279	0.170529301
0.077093338	0.867427742	0.865806256	0.623105425	0.160278463	0.1617383
0.883936318	0.040851984	0.876782964	0.175134901	0.692948519	0.170668889
0.013708835	0.876114688	0.882725308	0.697444294	0.171067265	0.175243332
0.863550847	0.855359848	0.116652734	0.155736098	0.155719274	0.590322233
0.071019193	0.051311528	0.082892148	0.673511387	0.672731838	0.674859444
0.00000277	0.00000288	0.00000285	0.699294947	0.699301152	0.69949819
0.869069176	0.099230471	0.081864145	0.162766101	0.668265574	0.654607358
0.8652279	0.85424761	0.107700235	0.156365162	0.154476171	0.593865403
0.462138448	0.415577358	0.877688506	0.62624687	0.58963113	0.17076068
0.863261582	0.856604507	0.130350134	0.15465992	0.156826796	0.586421107
0.08172587	0.867432613	0.86634495	0.621288796	0.159707754	0.161713848
0.877712996	0.4505615	0.427136851	0.170747829	0.626499927	0.59307082
0.877394373	0.440863764	0.443584865	0.170621186	0.609051787	0.578446345
0.080275926	0.869101972	0.093373039	0.659107042	0.162719761	0.670468592
0.415565943	0.877670041	0.462131254	0.589724303	0.170561893	0.626246741
0.099696916	0.841610684	0.092690999	0.60457654	0.134844516	0.629779668
0.42439668	0.877402209	0.465111777	0.573179882	0.170546478	0.609861907
0.855963576	0.068685583	0.071970256	0.149441468	0.649968683	0.629929224
0.882364317	0.041046044	0.040878062	0.175711594	0.692217842	0.692987363
0.877299955	0.437048153	0.446320265	0.170594353	0.575721842	0.546062565
0.419866905	0.877619906	0.470268853	0.520890489	0.170640654	0.559682826
0.44633978	0.877313064	0.437042562	0.546064108	0.170572257	0.575714003
0.027324822	0.876608352	0.882739784	0.695199692	0.171202836	0.175734419
0.411483821	0.877250314	0.46984053	0.551637026	0.17021427	0.590528713
0.8771187	0.436682757	0.44450743	0.170434085	0.591559812	0.562214091
0.873675797	0.873585417	0.87268788	0.188551667	0.188995849	0.188511637
0.045444523	0.048094937	0.05344639	0.6558472	0.656062132	0.656043396
0.841446809	0.124876996	0.104008093	0.135348163	0.622899655	0.597810507
0.446328997	0.877334575	0.437071474	0.546066302	0.170568751	0.57572769
0.103062694	0.099091647	0.841790621	0.627728262	0.602657804	0.134978198
0.877749536	0.462170038	0.415606511	0.170729722	0.626343843	0.589628693
0.217603929	0.21973729	0.826248701	0.60686518	0.581994973	0.11916506
0.075986986	0.871071802	0.874388444	0.650559501	0.164636927	0.168504478
0.09215544	0.074428045	0.857570906	0.645622128	0.625747418	0.149385244
0.86024082	0.84598279	0.147431104	0.153208564	0.150868548	0.562529934
0.140974406	0.825554024	0.148308632	0.574091873	0.118507028	0.601547427
0.437062149	0.446299275	0.87729251	0.575708647	0.545995998	0.170575924
0.424232369	0.877427289	0.465317866	0.573056731	0.170558308	0.609802318
0.876270869	0.883908621	0.027326356	0.170592235	0.175763417	0.695201588
0.060017323	0.060042843	0.059906382	0.639813154	0.640158664	0.639964268
0.877407445	0.450745147	0.432445639	0.17056094	0.609761902	0.576353921
0.875770362	0.882689826	0.040862026	0.170350683	0.174894434	0.693165813
0.872782913	0.873760571	0.055341535	0.165203673	0.168495656	0.654679368
0.15393311	0.8600421	0.847061051	0.560909011	0.152845837	0.15202932
0.877429921	0.884637375	0.013707924	0.170872302	0.176087193	0.697409263
0.856023652	0.068863819	0.071673062	0.149111756	0.649522067	0.629190267
0.099479909	0.134917122	0.177436654	0.618233783	0.618618792	0.619693567
0.028334245	0.027752149	0.881760572	0.694721494	0.694869189	0.175407808
0.041047849	0.883052408	0.041375656	0.692844734	0.175614938	0.692605444
0.074833147	0.074929385	0.075033911	0.634234725	0.634461683	0.634406185
0.86890811	0.080895969	0.077867236	0.162637132	0.672462971	0.661604228
0.871375817	0.874974178	0.046318391	0.165085128	0.168533302	0.658054921
0.102351739	0.126086504	0.16810961	0.616738442	0.621947883	0.619279061
0.877485202	0.480502739	0.405827164	0.17059172	0.575397453	0.532974517
0.877407596	0.450745301	0.432445712	0.170560898	0.609761795	0.576354006
0.841576297	0.113798897	0.100329752	0.135150256	0.625754974	0.600839084
0.881363309	0.0000048	0.00000487	0.17536706	0.699325596	0.699691893
0.147451044	0.858936901	0.845827417	0.562865902	0.152541078	0.150370356
0.392920731	0.877426564	0.48475834	0.582439725	0.170484265	0.625286809
0.070051388	0.071482003	0.073647816	0.649863189	0.650001005	0.650145209
0.437104033	0.446347318	0.877384799	0.575807666	0.546045902	0.17056992
0.881913726	0.054609139	0.054304674	0.175220297	0.689862913	0.690239191
0.877622144	0.438800529	0.438795795	0.170828175	0.626567057	0.596430832
0.14114154	0.1325833	0.82562598	0.606026812	0.577404727	0.119338739
0.102198288	0.84169266	0.083486883	0.60606428	0.134769469	0.630905395
0.133724411	0.862538988	0.84387829	0.567811778	0.155248145	0.148197535
0.577545273	0.877293578	0.522805621	0.529511672	0.170591119	0.558483612
0.866312132	0.095426142	0.867251102	0.162513642	0.617198951	0.159535805
0.130477143	0.863384867	0.857082695	0.586604394	0.155101758	0.157242572
0.072926428	0.855946348	0.071338807	0.629644822	0.149579336	0.650189946
0.077024622	0.867405212	0.865771471	0.623101915	0.15990461	0.16144431
0.480699294	0.401351012	0.877375595	0.590161396	0.548029326	0.170481961
0.854983785	0.111458825	0.864234652	0.154904502	0.592181759	0.156085701
0.871964027	0.875242472	0.055333533	0.165172487	0.168784301	0.654858877
0.861052833	0.844855886	0.141740283	0.153604894	0.149680613	0.564496136
0.424185455	0.877388537	0.465194616	0.573174661	0.170547325	0.609860888
0.881462834	0.00000489	0.00000478	0.175330984	0.699131187	0.699197941
0.861981696	0.862525792	0.863511003	0.218714084	0.2191118	0.219093908
0.841668034	0.124716635	0.103667639	0.135296469	0.623174683	0.598062355
0.459674432	0.429660306	0.87769891	0.559826543	0.524419121	0.170723571
0.865299245	0.077061978	0.86689929	0.161005109	0.622716464	0.160135393
0.844455274	0.141766353	0.861171572	0.149525913	0.564644411	0.153481647
0.868979812	0.090262095	0.076190917	0.16270696	0.671499641	0.659421821
0.877366612	0.462315046	0.421208317	0.170643223	0.608647251	0.572226442
0.863153965	0.857153333	0.130338932	0.154640067	0.156827511	0.58642519
0.462207107	0.415640784	0.877820951	0.626203281	0.589683633	0.170612543
0.866553825	0.095594134	0.867216919	0.162530167	0.617252037	0.159528369
0.825144074	0.147583623	0.131809372	0.119027544	0.604100651	0.576031938
0.866602377	0.866635112	0.104510686	0.159152972	0.16281823	0.615223228
0.480504977	0.405799694	0.877274065	0.575017198	0.532528153	0.170526401
0.153941674	0.859904372	0.847520129	0.560817153	0.152183436	0.151366261
0.067579685	0.067716551	0.067814063	0.636491625	0.63669277	0.636745107
0.877337705	0.45900361	0.425571759	0.170582404	0.575603109	0.539607295
0.442909743	0.448260252	0.877341115	0.606649029	0.576578789	0.170613021
0.875494639	0.884291855	0.0000055	0.170282101	0.17580471	0.699616186
0.054270293	0.876986753	0.884578511	0.690461938	0.171262231	0.175521368
0.137217018	0.859974253	0.844441149	0.56635272	0.154185641	0.148994106
0.111383353	0.864874439	0.855244633	0.592032495	0.156336395	0.155299647
0.841689786	0.124810556	0.103578242	0.135290382	0.623329233	0.598039241
0.876564852	0.438271694	0.438266985	0.170326517	0.626518925	0.596469725
0.432716877	0.877649231	0.44812437	0.558375899	0.170475419	0.591051934
0.877549991	0.448746968	0.439715967	0.170839502	0.559844971	0.527566864
0.877341152	0.448067501	0.435841827	0.170626708	0.575762113	0.542869746
0.826394502	0.147237133	0.130508217	0.119440377	0.60179049	0.574089065
0.079649792	0.869007779	0.092862365	0.65880244	0.162746246	0.670200305
0.045403163	0.048109148	0.053236992	0.656025304	0.656134252	0.656033948
0.446337923	0.877350106	0.437077587	0.546074447	0.170574789	0.575732052
0.095651906	0.866778843	0.865585326	0.617372059	0.159103265	0.162111186
0.438177401	0.444467716	0.877426982	0.592767366	0.563235141	0.170345827
0.443122957	0.447265636	0.877366632	0.608548126	0.577942331	0.170579119
0.458943582	0.425707799	0.877325013	0.575517535	0.539381877	0.170589626
0.415480994	0.8772652	0.469980624	0.536011809	0.170509061	0.575269663
0.027724232	0.027380713	0.027718802	0.69486677	0.69453108	0.695202384
0.15394914	0.860094661	0.846669867	0.560850308	0.152731428	0.151910954
0.877004491	0.4384916	0.438486972	0.170335148	0.626474848	0.596504732
0.013704473	0.8762646	0.88325221	0.69717705	0.170741149	0.175525116
0.85679528	0.123042795	0.863918913	0.156484519	0.588469804	0.155491669
0.080247693	0.869024408	0.093680564	0.65916516	0.162689996	0.670391997
0.876722558	0.884031084	0.054283355	0.171374007	0.175844963	0.690639734
0.855295175	0.079633559	0.072041398	0.14882869	0.647887367	0.627984429
0.123111125	0.863481865	0.85702794	0.588350015	0.155574211	0.156741645
0.054321638	0.881288349	0.054655739	0.690749009	0.175473048	0.689913925
0.855778806	0.123103024	0.864051927	0.155717401	0.588331005	0.154968728
0.04524598	0.872095114	0.874847203	0.659163598	0.165547179	0.168760015
0.855315745	0.102931282	0.078887246	0.149116	0.64354943	0.623601149
0.401146549	0.87702171	0.480579028	0.548627028	0.17024491	0.590502075
0.091741217	0.074263589	0.856434528	0.64533021	0.625910132	0.149691966
0.076004157	0.8716845	0.87522067	0.650527088	0.164557663	0.169022554
0.87283355	0.875937959	0.075936167	0.164786463	0.169491912	0.650565919
0.877790315	0.437484485	0.444456075	0.170675283	0.591268697	0.561600144
0.074816404	0.074958794	0.075034338	0.634072474	0.634383933	0.634528136
0.09967682	0.841621045	0.092662858	0.604520068	0.134889866	0.62975715
0.877125067	0.436703861	0.444442293	0.170490406	0.591661778	0.562404736
0.073216909	0.85528327	0.071725162	0.629170977	0.148819257	0.649129181
0.87819444	0.485151747	0.393293708	0.170736281	0.625223306	0.58264691
0.067708826	0.067600788	0.067849342	0.636437351	0.63657263	0.636764789
0.102200548	0.841596083	0.083429347	0.606114616	0.13470804	0.631436744
0.881213409	0.00000484	0.00000482	0.175399318	0.699118074	0.699580679
0.041120124	0.041024511	0.881194163	0.69241107	0.693078231	0.175080691
0.846627166	0.845600863	0.847805096	0.258256201	0.257176643	0.257607329
0.434964105	0.877454401	0.454789795	0.574374428	0.170574443	0.607806501
0.065234087	0.871842458	0.87430681	0.652749833	0.165043242	0.168595391
0.863879275	0.85643076	0.123150404	0.155174457	0.155983092	0.588574841
0.881432318	0.00000483	0.00000491	0.175454093	0.698842102	0.699309876
0.846876026	0.153989225	0.858816299	0.151196017	0.560846317	0.151851962
0.00000549	0.874546008	0.88257662	0.699421662	0.169745484	0.175508404
0.871621043	0.874347452	0.047238481	0.164849888	0.168031251	0.657022459
0.824954428	0.823040581	0.825085296	0.298551601	0.298588796	0.298168644
0.867967516	0.865644689	0.077539751	0.160488656	0.161684204	0.62333994
0.877643018	0.448808053	0.439734974	0.170793217	0.559869632	0.527613377
0.877279894	0.440409771	0.443939682	0.170555042	0.608087099	0.577709757
0.099210306	0.84180663	0.103123555	0.60253527	0.134909831	0.627673967
0.099742485	0.841639073	0.092782032	0.604351779	0.134825417	0.629716486
0.099708199	0.841754159	0.092666093	0.60432387	0.134829843	0.629769075
0.027417282	0.882084859	0.027503018	0.695258934	0.175365145	0.69491562
0.141859225	0.860834816	0.844946522	0.564452339	0.153726076	0.149841426
0.855786069	0.091226259	0.074176924	0.149252255	0.645866424	0.625612345
0.08122319	0.855508848	0.066902012	0.630816522	0.148865516	0.652181238
0.867115482	0.865839776	0.077523386	0.159927198	0.161581017	0.6226713
0.146953737	0.132615487	0.8258193	0.601314975	0.572002581	0.119861661
0.484978982	0.393134571	0.877861362	0.625171437	0.582583426	0.170791467
0.878128451	0.485116667	0.393262791	0.170799073	0.625202774	0.582592914
0.825849137	0.280817879	0.298874935	0.118477999	0.610836341	0.583065199
0.868939962	0.090134256	0.07550718	0.162667882	0.671466461	0.659248601
0.877355388	0.47364504	0.410092865	0.170519827	0.609045746	0.569263516
0.42422016	0.877391581	0.465183208	0.573170391	0.170545337	0.6098421
0.875235241	0.884989878	0.0000055	0.17050199	0.175982041	0.699616032
0.866168794	0.86526473	0.088212274	0.159310545	0.162025861	0.619397559
0.124785399	0.103089685	0.841851327	0.623995425	0.598659617	0.135250218
0.496424041	0.512272041	0.877481174	0.559985383	0.531471939	0.170636125
0.877355938	0.483937078	0.399908775	0.170490164	0.60820932	0.565465855
0.877990926	0.470437203	0.420063234	0.170827172	0.55967498	0.521098074
0.437071496	0.446333036	0.87733499	0.575707846	0.54600189	0.17063349
0.480795814	0.40589847	0.877509254	0.57477352	0.532347875	0.170570306
0.868925206	0.089935429	0.075679403	0.162686626	0.671489409	0.659200663
0.080246746	0.855799919	0.104466729	0.623677232	0.149343296	0.643422786
0.876767259	0.883020862	0.013707128	0.170357887	0.175279819	0.697336734
0.130404151	0.863699317	0.857740377	0.586431615	0.155147412	0.157452545
0.435537097	0.877257894	0.454716718	0.574232139	0.170563714	0.60803857
0.875358428	0.884671176	0.0000055	0.170380172	0.1758828	0.699612706
0.844712817	0.846011097	0.846816899	0.257247543	0.256791731	0.257605992
0.462023496	0.415455713	0.877452025	0.626127456	0.589827247	0.170585442
0.432606995	0.877276031	0.447873647	0.558218516	0.170722303	0.591403293
0.877227023	0.470309238	0.411803971	0.170386367	0.59065952	0.551626866
0.438710503	0.438705783	0.877442552	0.626592624	0.596363994	0.170445265
0.470059654	0.411726055	0.87771306	0.590650026	0.551418138	0.170709994
0.435902646	0.877386305	0.448157809	0.542781758	0.170558404	0.575662048
0.877409444	0.473427243	0.41049962	0.170544868	0.609303614	0.569440236
0.056216126	0.044582957	0.074517601	0.675412362	0.674690208	0.675881097
0.068793482	0.071278037	0.855492889	0.649648797	0.629339534	0.149004343
0.081737756	0.867275078	0.866388707	0.621150187	0.159668849	0.161676699
0.87807905	0.448985515	0.440006658	0.170691197	0.559760119	0.527788543
0.00000277	0.00000292	0.00000285	0.69913568	0.69954724	0.698809679
0.062475076	0.062473456	0.062428077	0.638279887	0.63846329	0.638514008
0.054690912	0.055523792	0.05492864	0.690408526	0.690242448	0.690856737
0.084246858	0.306620658	0.281712614	0.619707429	0.618428234	0.618249613
0.473481164	0.404102645	0.877472003	0.625878152	0.58605023	0.170539635
0.883664495	0.040852544	0.876560383	0.175083444	0.69293852	0.170728733
0.855640325	0.079530661	0.071811454	0.148825261	0.647909084	0.627604216
0.027322087	0.876481571	0.882938275	0.695106993	0.17073066	0.175278434
0.425644612	0.877426657	0.459187072	0.539404163	0.170557097	0.57545929
0.43869553	0.438690806	0.877412471	0.626641878	0.596359551	0.170686199
0.873964459	0.055399393	0.871754897	0.168487187	0.655093551	0.164743518
0.103025955	0.099186755	0.841683731	0.627792251	0.602655077	0.134956995
0.874157438	0.871828341	0.87203338	0.188881773	0.188550342	0.188094198
0.092758463	0.099648954	0.84155873	0.629524345	0.604459461	0.134927218
0.883720388	0.054279452	0.875916382	0.17492982	0.690564307	0.170560928
0.873681717	0.065237829	0.87051966	0.168248602	0.652761863	0.164329279
0.174688693	0.158201224	0.095414387	0.616688784	0.616296025	0.615906865
0.014361526	0.881132017	0.014484823	0.697185785	0.17524668	0.697678338
0.88288131	0.054274738	0.876697255	0.174901316	0.690500011	0.170839945
0.127156982	0.293416607	0.198911207	0.621695468	0.624509427	0.623573102
0.130474964	0.86362543	0.857300827	0.586599562	0.155248737	0.157357756
0.130404755	0.863173193	0.857472	0.586307541	0.155097084	0.157382099
0.877544888	0.43876192	0.438757232	0.170478052	0.626450148	0.596432611
0.442997526	0.448150156	0.877352184	0.606591553	0.57658943	0.17060578
0.871736047	0.876041565	0.075937287	0.164578211	0.169219126	0.650415201
0.00000482	0.00000493	0.881688937	0.699296269	0.699144581	0.175218984
0.862264733	0.863370208	0.863299086	0.219153204	0.219125646	0.219498785
0.447835448	0.432516662	0.877215568	0.590794468	0.558461523	0.170194835
0.43836862	0.444860961	0.877706804	0.59322432	0.563482455	0.170594149
0.12967657	0.314046769	0.215365997	0.62367782	0.626610142	0.621181543
0.469724959	0.41143293	0.877074296	0.590508855	0.552093442	0.170021618
0.073674826	0.855423011	0.082379183	0.628008116	0.149436094	0.648246669
0.068714348	0.071344271	0.855601506	0.649902788	0.629379418	0.149211471
0.013707438	0.877681612	0.884314107	0.697316764	0.170912684	0.175701917
0.854700893	0.11148081	0.864548678	0.154788425	0.592183783	0.155946253
0.303888404	0.825984487	0.30125809	0.590464583	0.118817994	0.617847269
0.876596094	0.883255193	0.013705822	0.170737666	0.175590211	0.697280609
0.111425994	0.864762817	0.855743607	0.592148985	0.156316118	0.155507995
0.419659444	0.877449503	0.470293697	0.521039081	0.17062412	0.559660159
0.855982607	0.091210609	0.074137634	0.149415571	0.645496637	0.625678638
0.04115539	0.881504013	0.041771469	0.69302109	0.175438023	0.692573594
0.140994775	0.130828054	0.826498658	0.605967966	0.577512831	0.119308732
0.872737948	0.875479932	0.046669528	0.165120341	0.168450334	0.658316685
0.102222764	0.841244235	0.083320735	0.605834857	0.13480531	0.631307239
0.469543712	0.411263321	0.876716121	0.59036277	0.551915275	0.170133277
0.469961259	0.415616147	0.877418775	0.575459733	0.536307438	0.170544656
0.845706703	0.147464936	0.859435537	0.150127227	0.562647141	0.152513991
0.841679015	0.102999941	0.09908677	0.135041366	0.628089528	0.60271731
0.438821699	0.877674561	0.438826403	0.596453021	0.170513724	0.626603179
0.392680192	0.87697707	0.484546826	0.582533322	0.170688238	0.625284457
0.054305921	0.881769763	0.054606062	0.690600608	0.175453459	0.690235815
0.882988325	0.054275492	0.875818678	0.174878383	0.690509289	0.170837972
0.045247808	0.872601693	0.874871453	0.659153562	0.165534707	0.168776977
0.461737431	0.415172483	0.876882567	0.626252258	0.589673105	0.170508844
0.860985572	0.844795978	0.141755084	0.153920917	0.149852776	0.564530606
0.040857425	0.875889055	0.883354507	0.693092948	0.170567482	0.175797963
0.872124703	0.874916677	0.04621077	0.165128914	0.168606745	0.65804428
0.875138742	0.055404969	0.871816481	0.168506265	0.654991827	0.164525188
0.143010071	0.130047389	0.097676917	0.618952601	0.617518779	0.615232186
0.877342033	0.480778714	0.410099907	0.170935958	0.559631992	0.517374768
0.877320053	0.437239781	0.444098076	0.170448464	0.591530031	0.561949964
0.864469192	0.855538047	0.111454697	0.15621181	0.155398518	0.592238754
0.844444822	0.137214829	0.861480637	0.149068186	0.566366689	0.154516787
0.877366014	0.448089471	0.435853775	0.170628146	0.575771911	0.542883028
0.866536867	0.86663973	0.104376383	0.159107975	0.162816749	0.615175304
0.092856727	0.099660198	0.841640629	0.629307516	0.604395689	0.134978333
0.067637115	0.06762213	0.067859751	0.636208751	0.63634158	0.636634711
0.429389624	0.877078601	0.459339337	0.524463546	0.170537359	0.559721735
0.124909342	0.10329367	0.841670916	0.623338367	0.598387132	0.135161191
0.497372482	0.51294577	0.877458063	0.559421803	0.531373083	0.170600336
0.476292735	0.413462768	0.877409217	0.610575846	0.57055457	0.170554857
0.824415058	0.822890049	0.823696109	0.298465618	0.298532449	0.297701133
0.027912572	0.027974918	0.882028584	0.694818856	0.694879739	0.175248845
0.083404217	0.102187493	0.841692321	0.631114536	0.605746675	0.13472808
0.866445749	0.104044971	0.866683637	0.162592417	0.615316131	0.159065646
0.485144751	0.393266681	0.878162089	0.625249851	0.582653593	0.170690972
0.826019077	0.136804714	0.126666326	0.119156867	0.605511938	0.577894385
0.458888996	0.425730675	0.877315333	0.57543508	0.539349124	0.170587667
0.48078786	0.405795553	0.877438653	0.574771324	0.53232882	0.170579612
0.401606	0.877596059	0.480732904	0.548226	0.170460655	0.589948496
0.081899411	0.30455464	0.289233316	0.619947879	0.618568006	0.61754439
0.056324662	0.044721944	0.075106177	0.674423727	0.674673658	0.675633664
0.067682103	0.067563378	0.067849522	0.636219161	0.636324772	0.636635793
0.077035653	0.866772901	0.864806037	0.623177361	0.159969778	0.161293421
0.081952525	0.856055404	0.068297236	0.631480931	0.149105083	0.652804417
0.111370212	0.864792459	0.854711374	0.592048698	0.156249819	0.155228347
0.871100404	0.874544429	0.075957265	0.164406533	0.168139554	0.650371371
0.866922127	0.095304206	0.867277902	0.162436226	0.617730517	0.15941041
0.448138817	0.435907899	0.877392113	0.575699645	0.542717286	0.170568024
0.027939708	0.027647029	0.881187118	0.694807561	0.695240004	0.174845482
0.459295482	0.429358087	0.877005938	0.559804759	0.524392566	0.170629982
0.00000549	0.875919879	0.884346395	0.69936069	0.170596897	0.176115597
0.871762296	0.874757835	0.047429507	0.164637834	0.168553667	0.657103635
0.572780494	0.877109552	0.543622695	0.53859645	0.170404566	0.565913101
0.153851188	0.140640557	0.095144979	0.617122975	0.61632627	0.615013491
0.865398292	0.077097913	0.867931208	0.161141427	0.623358365	0.159691527
0.10397001	0.86707874	0.86684874	0.615805334	0.159201861	0.162839027
0.8637471	0.854843879	0.111364849	0.155665307	0.154619495	0.592069312
0.303068538	0.825780751	0.288291039	0.585862571	0.118895691	0.615832424
0.877346249	0.437067157	0.446347327	0.170601448	0.575720461	0.546072915
0.127355494	0.293377354	0.198594934	0.621827126	0.624758439	0.623535377
0.872876119	0.87409372	0.87300362	0.188561326	0.189274991	0.188955519
0.068834535	0.071222901	0.854946121	0.649866659	0.629588459	0.148890107
0.438937758	0.438933095	0.877896908	0.626645207	0.596473487	0.170669436
0.480919449	0.410253478	0.877651301	0.559421848	0.517531004	0.170711097
0.856000403	0.091271947	0.074247601	0.149491152	0.645448328	0.625927049
0.34813339	0.825457365	0.328359182	0.585505522	0.118655935	0.615111964
0.878019771	0.481053556	0.410495394	0.170910063	0.559595655	0.517391718
0.415535836	0.877611202	0.462102228	0.589695214	0.170690934	0.626229027
0.881287898	0.00000486	0.00000485	0.175390654	0.699066601	0.698905527
0.875488657	0.883692767	0.0000055	0.170748488	0.175547547	0.699382947
0.437481125	0.445403904	0.877327303	0.592348284	0.562141467	0.170463552
0.439984461	0.878134013	0.449060867	0.527519836	0.170836343	0.560014284
0.43705491	0.446292979	0.877278573	0.575694664	0.545984277	0.17057891
0.05459748	0.054207006	0.881958769	0.689923244	0.690608946	0.175401676
0.877168266	0.461879725	0.415315447	0.170733651	0.626290306	0.589652478
0.877107244	0.461847432	0.415287142	0.170572625	0.626138468	0.58977816
0.860972839	0.844411566	0.141740775	0.152883329	0.148963915	0.564528962
0.013880662	0.01415777	0.013812431	0.697069592	0.696991157	0.69678274
0.39302816	0.877658773	0.484881925	0.582567839	0.170732512	0.62527498
0.099882041	0.081008442	0.869056112	0.668608658	0.65664393	0.162622577
0.446006897	0.877452922	0.437503072	0.563016014	0.170620227	0.592686837
0.875169675	0.882960719	0.01370667	0.17038966	0.175321106	0.697326025
0.153941953	0.859915489	0.846848991	0.560894039	0.152845288	0.151992701
0.013704794	0.876141046	0.882270667	0.697216392	0.170759245	0.175577093
0.868851196	0.075943448	0.078896114	0.162518818	0.676396993	0.664468948
0.844355672	0.141812333	0.859769726	0.149682097	0.56457471	0.153643608
0.058804828	0.03820415	0.077025407	0.679624613	0.67889767	0.680212713
0.438906295	0.877842866	0.438910968	0.596533693	0.170610229	0.626485416
0.877562869	0.462079288	0.415510378	0.17055272	0.626145147	0.589801824
0.825179273	0.823154524	0.823905434	0.298329544	0.298480087	0.297319835
0.435908042	0.877256574	0.448015816	0.542889456	0.170512312	0.575835802
0.074975785	0.85617339	0.091496799	0.62563663	0.149814726	0.645912863
0.881360945	0.00000479	0.00000488	0.175368585	0.699315545	0.699694016
0.104080039	0.866214584	0.866862187	0.615648218	0.159195814	0.162853311
0.855628412	0.107546476	0.865541507	0.154997419	0.59382414	0.1570454
0.141782143	0.861387049	0.846048066	0.564520068	0.154195226	0.150441896
0.881920535	0.00000483	0.00000484	0.175402418	0.699192665	0.699320208
0.877490033	0.440364509	0.444365027	0.17062716	0.609650491	0.579177477
0.498400739	0.514393904	0.877889758	0.557974474	0.52939889	0.170966418
0.067555861	0.067708766	0.067749214	0.636421523	0.63662997	0.636777311
0.083416945	0.102155097	0.841518178	0.630757069	0.605901983	0.134737184
0.437046597	0.446295403	0.877274094	0.575715095	0.545995936	0.170579048
0.00000278	0.00000293	0.00000284	0.699150474	0.699289902	0.698565309
0.82567884	0.136361886	0.126132362	0.118843556	0.606541747	0.577821424
0.415565193	0.877428522	0.46999076	0.53619805	0.170551511	0.575467679
0.411391083	0.877069995	0.469773979	0.551440827	0.170474219	0.590522282
0.067645268	0.067587268	0.067813139	0.636386386	0.636315174	0.636707468
0.87782735	0.47043795	0.419904033	0.170923986	0.55965275	0.521083742
0.877404607	0.450743295	0.432453273	0.170560131	0.609764308	0.576354389
0.877448868	0.473491762	0.410125639	0.170616293	0.60929579	0.569487747
0.877205359	0.447828886	0.432844639	0.170259828	0.590957751	0.558570616
0.860676393	0.84360666	0.137237407	0.153784846	0.148573898	0.566148599
0.486894078	0.401406945	0.877450387	0.609395973	0.566038534	0.170502026
0.866990617	0.104027479	0.866669236	0.162832967	0.615471057	0.158915487
0.876974531	0.883705954	0.04085864	0.170841188	0.175804198	0.693123147
0.401194586	0.876952469	0.480486852	0.548640475	0.170332386	0.590494315
0.137211182	0.861739184	0.844361002	0.566080443	0.15463038	0.149087074
0.877336192	0.484252423	0.399558476	0.170536802	0.608535015	0.565951612
0.443924067	0.447530201	0.877370051	0.607215074	0.577777245	0.17058557
0.856203842	0.111457525	0.86477151	0.155763677	0.592156074	0.156764563
0.153945827	0.859873488	0.846902658	0.560828023	0.152715533	0.151816878
0.480833082	0.410041137	0.877352507	0.559263302	0.517668042	0.170415249
0.459701659	0.42973012	0.877793235	0.559835203	0.524433112	0.170821057
0.854852231	0.111476223	0.864503096	0.155237075	0.592133892	0.156497165
0.082484341	0.079466873	0.868784169	0.675249003	0.66357627	0.16257879
0.073137668	0.855326329	0.082113283	0.627644531	0.14924829	0.647561167
0.028240551	0.027898416	0.88107791	0.695025537	0.695775726	0.175196573
0.087768868	0.079259706	0.86852308	0.672843105	0.662097408	0.162798047
0.862303924	0.843260785	0.133712459	0.155124354	0.147823352	0.567810729
0.875084479	0.055407829	0.871817099	0.168510966	0.654986226	0.164531023
0.100492049	0.841804173	0.114173445	0.60042148	0.13497724	0.625559635
0.079589849	0.868976474	0.093415509	0.659241571	0.162662906	0.67039393
0.083408019	0.102174149	0.841538202	0.63115804	0.606302984	0.134857972
0.877091669	0.438535081	0.438530379	0.170244263	0.626605914	0.596439602
0.866486736	0.095495732	0.86741545	0.16232968	0.617196201	0.159433218
0.054276628	0.876737448	0.88437237	0.690545722	0.171018167	0.175591174
0.00000278	0.00000292	0.00000285	0.699354902	0.698827956	0.698926598
0.066542323	0.078544608	0.855903122	0.653413787	0.63327062	0.149547814
0.091884027	0.074486958	0.856612835	0.645539869	0.625547735	0.149660271
0.476220278	0.412953018	0.877343521	0.61062803	0.570862105	0.170535276
0.872340512	0.87371457	0.047226094	0.165602898	0.168550375	0.656987581
0.480844452	0.41011913	0.877434458	0.559186565	0.517609861	0.170511104
0.872279114	0.874549816	0.065214544	0.165360119	0.168992809	0.652858751
0.862909396	0.843611276	0.133725804	0.15528728	0.148153412	0.567777484
0.086411106	0.868834237	0.083204953	0.66494502	0.162513283	0.677402197
0.881693267	0.00000493	0.0000048	0.175531626	0.699165024	0.699154611
0.876337068	0.882698708	0.040848546	0.171122235	0.17536858	0.692936441
0.079645099	0.071544742	0.855818171	0.647904813	0.627606187	0.149154063
0.411615191	0.877541693	0.47000364	0.551601959	0.170439479	0.590543514
0.459299292	0.422322463	0.878061907	0.59097376	0.555116748	0.170302188
0.855359169	0.102858989	0.079016323	0.149304479	0.643401009	0.623629599
0.877457015	0.480696304	0.401783061	0.17038359	0.590204327	0.54848624
0.856569389	0.079543066	0.071817319	0.149382907	0.647982901	0.627513735
0.857051163	0.130438711	0.862844887	0.156820293	0.586479452	0.154616951
0.841718083	0.11382463	0.100187248	0.135041862	0.625909692	0.600476702
0.864612674	0.864044076	0.863426062	0.219077129	0.219428407	0.219246001
0.279676975	0.300365952	0.825891191	0.61315685	0.583871583	0.118714661
0.123088946	0.864235565	0.857149786	0.588471278	0.155747251	0.156973323
0.099744145	0.841607015	0.092775439	0.604345911	0.134831978	0.629697143
0.447758345	0.432440655	0.877048372	0.590828017	0.558347659	0.170115243
0.013842402	0.014475979	0.01406358	0.69659382	0.697519137	0.697282203
0.055367974	0.872870967	0.875170248	0.654875185	0.16507786	0.168872507
0.470330048	0.419820293	0.877639967	0.559690094	0.521071786	0.170750049
0.073129984	0.855274304	0.07167968	0.629161172	0.148800391	0.649131858
0.041161162	0.040915496	0.881221091	0.692377492	0.693106712	0.175164539
0.881208855	0.054549988	0.054226554	0.17495319	0.690154661	0.690494595
0.877267321	0.440511899	0.443848915	0.170621114	0.608449079	0.577902464
0.855386845	0.111415059	0.864539355	0.155010106	0.591973176	0.156046277
0.089962081	0.075816344	0.868951266	0.668515511	0.659005014	0.162572647
0.481072892	0.410311772	0.877871562	0.55936218	0.517520902	0.170627329
0.083404997	0.102195055	0.841803332	0.631192757	0.605772113	0.13471284
0.153941937	0.860102651	0.84699557	0.560901748	0.15284578	0.15198642
0.476039937	0.413058626	0.877336047	0.610545397	0.570858899	0.170524599
0.099242357	0.841917084	0.103131983	0.602371396	0.13488696	0.627689663
0.081513234	0.85546314	0.067293986	0.63086202	0.148906261	0.652153388
0.142648058	0.825518521	0.149423066	0.573870988	0.118502932	0.601615244
0.881431684	0.00000485	0.00000488	0.175475232	0.698875516	0.699273019
0.123473351	0.11391329	0.145527383	0.616181775	0.614551	0.616197911
0.100321768	0.082195704	0.869291667	0.669188285	0.657632012	0.162685585
0.877235643	0.440184973	0.444142574	0.17061882	0.608365113	0.577841398
0.822867649	0.823036377	0.821853249	0.29791089	0.298743319	0.298265951
0.103219533	0.125068529	0.170750457	0.617115109	0.618890424	0.617524034
0.825664108	0.276767749	0.279009445	0.118323587	0.61139413	0.584141733
0.427181564	0.877805812	0.450609881	0.59315624	0.170531277	0.626427572
0.133746732	0.861929004	0.843793623	0.567734217	0.154821935	0.147847112
0.153908435	0.859563466	0.84680654	0.560905764	0.152423875	0.151606708
0.415759621	0.878059073	0.462326591	0.589817786	0.170679069	0.626107516
0.401164061	0.876512721	0.480083759	0.548295848	0.17009985	0.590239565
0.149840383	0.13522988	0.825477233	0.603937862	0.57424963	0.119280947
0.08399265	0.868803224	0.085370121	0.660760258	0.162614677	0.675490817
0.469695184	0.411595089	0.87720951	0.590579548	0.551746384	0.170392361
0.864477068	0.855536893	0.111455384	0.156212846	0.155398075	0.592234341
0.09965059	0.841763347	0.092637089	0.604339517	0.134838971	0.629761133
0.054590136	0.054216329	0.88201223	0.689987939	0.69058109	0.175760309
0.013820214	0.014218073	0.013940631	0.696597504	0.69737388	0.696883205
0.877353019	0.437078489	0.446342181	0.170589451	0.575753825	0.54607909
0.455048822	0.435898422	0.877388984	0.610970529	0.577443556	0.17059073
0.843879131	0.137130259	0.861624783	0.148845989	0.566230692	0.154332387
0.065230611	0.87233604	0.875429265	0.652811594	0.165096434	0.168623736
0.432603788	0.877488464	0.448088861	0.558171348	0.170743638	0.591084293
0.014208345	0.88110991	0.014532828	0.697222166	0.175308526	0.697672496
0.045620592	0.048738333	0.051869923	0.657320758	0.658267081	0.659035776
0.111393928	0.864740084	0.855014456	0.592065006	0.156394961	0.155321082
0.868016361	0.865214832	0.077633109	0.160072368	0.161580501	0.623452458
0.841664141	0.083353336	0.102233646	0.134855097	0.631270415	0.605929345
0.861904427	0.845753593	0.141712396	0.153868556	0.150037774	0.564595496
0.067510111	0.067739457	0.067753415	0.636239579	0.636490679	0.636788964
0.860038308	0.843631526	0.137163676	0.153974749	0.148499878	0.566313136
0.099326108	0.841798746	0.103040024	0.602369951	0.134904835	0.62765847
0.054280137	0.875704781	0.883445987	0.690582798	0.170915098	0.175446055
0.486875246	0.401394124	0.877302693	0.607694407	0.564745438	0.17050207
0.87733004	0.437058826	0.446340152	0.170608071	0.575712285	0.546061593
0.864958553	0.855318035	0.111435058	0.156147945	0.155209119	0.592297545
0.076986768	0.86811652	0.865931167	0.623218141	0.160275723	0.161416907
0.013818119	0.014011418	0.013814505	0.696616167	0.697367139	0.69683337
0.498754786	0.519518615	0.877447076	0.559555936	0.530797385	0.170671461
0.080805701	0.869061073	0.093979193	0.659110972	0.162707228	0.670439948
0.87729184	0.440342741	0.44404607	0.170516324	0.60805046	0.577723689
0.448184318	0.435876517	0.877415816	0.575802488	0.542830852	0.17055651
0.487120475	0.401248171	0.877431715	0.607412817	0.564312363	0.170529384
0.826154432	0.192451733	0.20786084	0.118799151	0.61027895	0.57792411
0.055349544	0.872082797	0.874225594	0.654918009	0.16502515	0.1685501
0.856737578	0.091224888	0.074180309	0.149318568	0.645832733	0.625652713
0.102170133	0.841576003	0.08344364	0.606081002	0.13470624	0.631436665
0.862331038	0.84262468	0.133734195	0.154738105	0.147487	0.567696618
0.85930267	0.845747544	0.153942994	0.151583249	0.150742825	0.561019265
0.014300943	0.881173708	0.014307256	0.697479554	0.175516732	0.696764189
0.054553296	0.055355127	0.054919477	0.690250156	0.690092002	0.69036638
0.473558159	0.40418388	0.877629735	0.625900571	0.586124266	0.170792261
0.469991532	0.415706946	0.877429355	0.575429406	0.536228918	0.170552424
0.877171622	0.877543962	0.877919724	0.170656197	0.170779286	0.170928789
0.075982435	0.871583799	0.874622528	0.650511181	0.164618578	0.168518237
0.883744874	0.040857552	0.875586488	0.175305855	0.693033367	0.16996744
0.01422137	0.881065831	0.014326965	0.697257758	0.175364759	0.69654844
0.848196265	0.845975337	0.848311883	0.257446425	0.257127761	0.257258733
0.095591251	0.86722508	0.866410208	0.617458387	0.159522258	0.162532203
0.876335472	0.883636829	0.040856199	0.170654219	0.175921704	0.693067476
0.856029032	0.068837328	0.071545575	0.149021663	0.649570279	0.629141829
0.147100449	0.133152118	0.825762634	0.601570016	0.571762052	0.119370424
0.856594645	0.130471005	0.86215023	0.156446257	0.586480611	0.154433167
0.877420344	0.462709549	0.420836573	0.170634831	0.609502934	0.57292913
0.867195505	0.104018472	0.866508989	0.16277759	0.615494333	0.15893846
0.874155044	0.055400158	0.872038074	0.168507732	0.655077613	0.164744923
0.883436224	0.013706697	0.875662856	0.175139828	0.697335909	0.17051631
0.855537361	0.102877119	0.078902344	0.149521416	0.643393095	0.623571394
0.047145369	0.871748667	0.874218723	0.656883965	0.164682031	0.168269099
0.070562742	0.051572961	0.082820443	0.673504634	0.672513814	0.674162112
0.028206061	0.028091578	0.881767668	0.694692054	0.694937826	0.175442349
0.303623679	0.826165124	0.291649725	0.584726465	0.118979165	0.613915091
0.470311697	0.419782917	0.877582105	0.559652314	0.520990555	0.17059924
0.027376782	0.881665426	0.027660921	0.695476569	0.17499668	0.694326423
0.877616337	0.48093513	0.410209381	0.170874439	0.55958184	0.517361943
0.087822766	0.867090709	0.866424227	0.619364888	0.159516032	0.162518136
0.844784172	0.846347938	0.845982513	0.256837381	0.256772809	0.257604797
0.869105614	0.08118598	0.07798786	0.162560199	0.674209011	0.663020669
0.860702621	0.845103656	0.14753439	0.152698491	0.150268296	0.562821754
0.424390721	0.877452306	0.465485012	0.573146838	0.170547758	0.609867926
0.447763237	0.432435239	0.877054913	0.590833062	0.558349393	0.170149764
0.874864179	0.065249402	0.87129907	0.168657761	0.652692661	0.164851654
0.877413686	0.483559807	0.400435298	0.170589575	0.608638161	0.566074961
0.844136423	0.846457994	0.845474272	0.256767043	0.257054151	0.2572213
0.865853437	0.076994534	0.867077008	0.161113472	0.622947469	0.159489386
0.877964274	0.48112952	0.410352904	0.170617474	0.559434415	0.517389073
0.058837197	0.038493107	0.077294193	0.679860111	0.679058114	0.680224127
0.866480061	0.865619121	0.104182643	0.159319582	0.162557335	0.615204304
0.393355565	0.87834059	0.485234402	0.582665618	0.170844092	0.625240917
0.845624957	0.147500035	0.859668421	0.150231204	0.562778843	0.152704931
0.045267612	0.048612742	0.053619725	0.655913339	0.655967601	0.656231405
0.130402824	0.86320003	0.857479631	0.586427666	0.155142049	0.15744499
0.100033902	0.080942832	0.869011837	0.668380447	0.656497751	0.162617471
0.466089165	0.424466309	0.877325978	0.608525113	0.571947967	0.170558504
0.448877428	0.439754534	0.87770883	0.559872101	0.527585745	0.170661439
0.079077939	0.869008165	0.088301802	0.659898541	0.162605587	0.670627754
0.458973021	0.421923177	0.877338093	0.590735581	0.555084924	0.170312496
0.299423112	0.825970061	0.289420387	0.58740333	0.118896005	0.617639338
0.081604321	0.869223415	0.099503558	0.657151969	0.1626495	0.669526641
0.081795386	0.867727875	0.866205633	0.62133926	0.160015531	0.16158098
0.068844714	0.071291609	0.855560916	0.650102225	0.62938871	0.149047111
0.07703736	0.868486783	0.866111274	0.623260917	0.16031068	0.161272779
0.130453095	0.825984384	0.149511256	0.57531059	0.118947665	0.603812464
0.442699718	0.448839652	0.877310117	0.606710252	0.577080124	0.170592897
0.095429477	0.866783314	0.865675035	0.6175322	0.159203057	0.162113823
0.459073728	0.425727447	0.877390834	0.575491008	0.539380915	0.170570521
0.855024206	0.068898601	0.071899414	0.149211654	0.64987245	0.629423037
0.278650369	0.282591316	0.826189911	0.610940647	0.582493303	0.119097447
0.862948647	0.843805145	0.133708352	0.155119172	0.147826713	0.567843195
0.872896306	0.875888555	0.047444665	0.165341074	0.169082742	0.657149173
0.081727431	0.867448415	0.865206797	0.621287857	0.160064338	0.161630232
0.065218511	0.871480693	0.874361079	0.652679523	0.1644254	0.168661754
0.051434395	0.05370984	0.057182306	0.653726631	0.654172664	0.654020414
0.826329629	0.148692318	0.130969668	0.119270669	0.602084044	0.574649656
0.040857254	0.875676189	0.883293533	0.693090723	0.170559426	0.175777332
0.876570951	0.883583162	0.027332501	0.170653666	0.17584986	0.695419134
0.855341463	0.102878258	0.079133154	0.149131873	0.643410727	0.623566918
0.092757012	0.099632802	0.84140386	0.629561919	0.604414392	0.134849056
0.875678085	0.06523721	0.871492151	0.168296384	0.652810178	0.164399414
0.027326234	0.877150562	0.884542552	0.695247546	0.170964362	0.175776085
0.414622477	0.877382787	0.47452829	0.569660439	0.17055202	0.60884143
0.864605661	0.855579975	0.111452094	0.156243302	0.155443648	0.592193157
0.826127701	0.181788092	0.192807073	0.118912765	0.609214006	0.578437555
0.877365723	0.473945334	0.409942393	0.170534072	0.60932255	0.56943296
0.439468896	0.877309378	0.448757379	0.527701912	0.170585149	0.559780218
0.871242088	0.874211676	0.065178181	0.164786586	0.168584024	0.652780339
0.469571373	0.41117696	0.876639285	0.590435338	0.551917033	0.170194128
0.855927097	0.068693954	0.071935685	0.149466476	0.649899885	0.629937567
0.040857103	0.876036609	0.883300638	0.693088754	0.170555005	0.175764598
0.866268448	0.077164212	0.868583855	0.161504447	0.623242658	0.159873565
0.48057844	0.401238604	0.877132742	0.590079874	0.548141683	0.170151235
0.087484909	0.078923668	0.868775605	0.672858593	0.661610147	0.162717579
0.877473424	0.480837806	0.410166463	0.170443574	0.559328531	0.517587116
0.14082214	0.13230563	0.825702879	0.606031882	0.577395812	0.11935384
0.067748829	0.067593193	0.067911396	0.636446864	0.636555538	0.636754968
0.054717355	0.05519726	0.05464939	0.690422582	0.690381947	0.690634236
0.439086428	0.878203826	0.439091142	0.596287598	0.171068038	0.626669522
0.865806023	0.081537246	0.867523748	0.161385925	0.62117512	0.159646048
0.874339277	0.050511915	0.872010845	0.16826377	0.658871466	0.165010876
0.045005903	0.049251468	0.051381342	0.657373651	0.657976506	0.658722855
0.0000049	0.00000488	0.88142965	0.699406593	0.699137203	0.175029173
0.866103584	0.081522442	0.866803022	0.161678958	0.621358227	0.159649699
0.013705155	0.875736931	0.882305479	0.697267241	0.170226901	0.174649918
0.826235558	0.148329351	0.131191809	0.119589971	0.601665265	0.573575393
0.877415764	0.483570113	0.400426748	0.170588449	0.608638979	0.566075796
0.857429504	0.123115616	0.863592338	0.156111608	0.588519184	0.154944544
0.86696603	0.104018441	0.866766698	0.162802636	0.615464764	0.158961005
0.877368846	0.451182759	0.431791213	0.170511001	0.608785159	0.575368183
0.422096414	0.877757169	0.459336667	0.55484201	0.170812191	0.591107331
0.070241957	0.065312541	0.085337495	0.670373517	0.670982739	0.672514537
0.286043597	0.298014463	0.825569358	0.61618527	0.588277214	0.11871545
0.113767774	0.10031857	0.84180417	0.626257656	0.600769597	0.134975537
0.87628173	0.883356572	0.027323101	0.170471666	0.175731689	0.695125697
0.867306839	0.865271001	0.077602342	0.159666566	0.161215004	0.622757199
0.111412406	0.864105608	0.855797334	0.592067627	0.156320707	0.155234283
0.485011725	0.393137936	0.877900114	0.625238439	0.582582603	0.170781147
0.133724451	0.862312503	0.843961228	0.567762056	0.155337774	0.148308058
0.462050427	0.415488373	0.877511412	0.62635579	0.589663151	0.170458432
0.113767774	0.10031857	0.84180417	0.626257656	0.600769597	0.134975537
0.013705155	0.875727596	0.88230979	0.697267242	0.170227401	0.174651
0.074626562	0.855631466	0.091449189	0.625984787	0.149373704	0.645545628
0.445066831	0.877507715	0.438486481	0.562506864	0.170818057	0.592221962
0.444474188	0.877457382	0.438651414	0.56187085	0.170413767	0.591285938
0.062477386	0.062478782	0.062438183	0.638256768	0.638405077	0.638528378
0.860155164	0.845881327	0.153950063	0.151710787	0.150891299	0.560991112
0.059458209	0.064532117	0.06314477	0.652167592	0.651905947	0.651935066
0.044694421	0.050054193	0.051483226	0.658630676	0.659779712	0.658662332
0.066341482	0.078267093	0.855198035	0.653623409	0.634123247	0.149202925
0.434998606	0.87738874	0.454908944	0.574037108	0.17055546	0.607676145
0.855777836	0.123106214	0.863950312	0.15568956	0.588332343	0.154951388
0.878367039	0.449277269	0.440001036	0.170711917	0.559780032	0.527708808
0.06969808	0.065170731	0.084670912	0.670502944	0.670449881	0.672721801
0.866806616	0.095188221	0.867362226	0.162354944	0.617698566	0.15943871
0.826375804	0.263320875	0.272695678	0.1188107	0.613649871	0.584715454
0.065200615	0.871681655	0.875022171	0.652841048	0.16448318	0.16868297
0.041986344	0.041018737	0.042221544	0.693273792	0.692126208	0.692233094
0.875084051	0.047240647	0.871131738	0.168583002	0.65669187	0.164255613
0.074601859	0.854687497	0.091471815	0.625875359	0.149178961	0.645406195
0.48618642	0.402236982	0.877416125	0.608780538	0.565400614	0.170515618
0.045184216	0.872587796	0.875064897	0.659145185	0.165558175	0.168585924
0.877385237	0.462713248	0.42066448	0.170664554	0.609512435	0.572974818
0.841855758	0.113745336	0.100365239	0.135166718	0.626165397	0.600885489
0.872125675	0.875383642	0.055326467	0.165274747	0.169100198	0.655020899
0.848515366	0.846610741	0.847147227	0.257345388	0.257279004	0.256797744
0.45974499	0.429788238	0.877897457	0.559851909	0.524439498	0.170769684
0.864302187	0.855075385	0.111421711	0.155775601	0.154689919	0.591925967
0.080507567	0.855235149	0.103532247	0.623576509	0.149340413	0.643389909
0.821798914	0.82373192	0.824483337	0.298398753	0.298731765	0.298423656
0.103089502	0.099113895	0.841683926	0.627711778	0.602605846	0.135005646
0.856038743	0.091311973	0.074127407	0.149427798	0.645708233	0.625510359
0.866765645	0.866002355	0.088406539	0.159441018	0.162018791	0.619133498
0.437682493	0.445244682	0.877674364	0.592962838	0.563391526	0.170526869
0.825270596	0.147904352	0.13147124	0.119150174	0.603426292	0.575860754
0.470670342	0.420122529	0.878287489	0.559502183	0.521135329	0.170491472
0.446046423	0.877327197	0.444450696	0.576477207	0.17057303	0.607154784
0.404090896	0.877462006	0.473482567	0.586251488	0.170740274	0.625804414
0.877686259	0.47031756	0.419885287	0.170739454	0.559639361	0.520957203
0.848257415	0.846598537	0.847081484	0.257403025	0.257499513	0.256721988
0.872979346	0.874887636	0.87450642	0.188454538	0.189008164	0.188664048
0.87757481	0.472180578	0.47935016	0.170689714	0.561249063	0.532263423
0.432747427	0.877743696	0.448172106	0.558274274	0.170848185	0.591361571
0.438845327	0.438840634	0.877712254	0.626610968	0.596288878	0.170763441
0.422057319	0.877449845	0.459021055	0.555289878	0.170247658	0.591058346
0.090929052	0.077125769	0.868960062	0.667921982	0.657830911	0.16254932
0.131913978	0.825688704	0.149051389	0.575203384	0.118870676	0.603968354
0.868778316	0.08455833	0.076374391	0.16267245	0.672777025	0.661560636
0.455044077	0.435879034	0.877394034	0.611012516	0.577443556	0.170591141
0.823218416	0.823300343	0.822588185	0.297650572	0.298730237	0.297605643
0.868945745	0.090770269	0.076948507	0.162666151	0.671391886	0.65930761
0.062445418	0.06248724	0.062416748	0.638262255	0.638321508	0.6385667
0.067585379	0.067726203	0.067849694	0.63628169	0.636545706	0.636774484
0.140851558	0.826209418	0.150881322	0.576332496	0.118876681	0.603271249
0.877760179	0.484933008	0.393079885	0.170647724	0.625325185	0.582613044
0.133800079	0.862143373	0.844267889	0.567658528	0.154736287	0.147832026
0.856597066	0.130472192	0.862254377	0.156436081	0.586459448	0.154427998
0.87245537	0.875071091	0.047066662	0.165329184	0.168307218	0.658590223
0.867176357	0.865658485	0.081833777	0.15973702	0.16155846	0.620936116
0.861428326	0.863449189	0.861924072	0.218472282	0.219052565	0.219243455
0.842914519	0.133825873	0.861405841	0.147379984	0.567696694	0.154405037
0.872391367	0.875399747	0.065208188	0.165490233	0.169039598	0.652773102
0.8713384	0.875882582	0.065171438	0.165052932	0.169360446	0.652709974
0.438807945	0.877647105	0.438812673	0.596336618	0.171009835	0.626533514
0.438466405	0.444569653	0.877657844	0.593216833	0.563469871	0.170611404
0.877154438	0.437128449	0.444038343	0.170473187	0.591700466	0.562394993
0.082444513	0.079507673	0.868941504	0.675280614	0.662563214	0.162506395
0.877191241	0.459486949	0.429341067	0.17045745	0.559804628	0.524425133
0.147426406	0.861546788	0.846521423	0.562761952	0.153090407	0.15080367
0.876381058	0.884049843	0.054273999	0.170887517	0.175731168	0.690487378
0.410152064	0.877500658	0.480868295	0.517470607	0.170612078	0.559459348
0.881405176	0.00000481	0.00000493	0.175426431	0.698948125	0.699106219
0.877336156	0.448102955	0.435845438	0.170623776	0.57575222	0.54286619
0.131219114	0.82607692	0.15002684	0.576254583	0.118908728	0.604010374
0.861198023	0.843773043	0.13721179	0.153826797	0.148208078	0.566254393
0.862810453	0.855466801	0.116645743	0.155445242	0.155508652	0.590385264
0.45976918	0.429669947	0.877809937	0.559832333	0.524455105	0.170625668
0.841486805	0.124893294	0.104224029	0.135326817	0.62295995	0.597741116
0.877350415	0.45913658	0.422114941	0.170400284	0.590590633	0.554770792
