Va	Vb	Vc	Ia	Ib	Ic
0.095429477	0.866783314	0.865675035	0.6175322	0.159203057	0.162113823
0.874863046	0.065249378	0.871301666	0.168658114	0.65269266	0.164851914
0.459282174	0.429317779	0.876955578	0.559880125	0.524368022	0.170640745
0.086558629	0.869317387	0.083281453	0.665436335	0.162461042	0.677481997
0.107831162	0.864559144	0.854528299	0.593779315	0.156553161	0.154515939
0.826083389	0.221161989	0.237038753	0.118840729	0.61080894	0.582503157
0.075995694	0.871120868	0.874119912	0.650504832	0.164467299	0.168730133
0.298813284	0.825704817	0.29323133	0.584863324	0.118895247	0.614652967
0.102224339	0.841249946	0.083344577	0.605821742	0.134797163	0.631330267
0.041131567	0.040947824	0.880843455	0.692560982	0.693061547	0.174995009
0.130423246	0.863925445	0.857822211	0.586519022	0.15520583	0.15732321
0.846031508	0.147455301	0.859145479	0.150202117	0.562635507	0.152605858
0.8814833	0.00000485	0.00000486	0.175359941	0.69928216	0.699758591
0.447846389	0.432506119	0.877211579	0.591212134	0.558128437	0.17045153
0.449152934	0.440047455	0.878281137	0.559786052	0.527744281	0.170654027
0.059472682	0.064055621	0.063085891	0.652114148	0.651511747	0.65113185
0.877454809	0.448670901	0.439700332	0.170845757	0.55985454	0.527582561
0.826111578	0.148514266	0.131937766	0.119106731	0.605045201	0.57556552
0.124386473	0.111842841	0.142834642	0.615226577	0.615323581	0.615953248
0.868941929	0.090887275	0.07693123	0.162668936	0.671390766	0.659309881
0.062485319	0.062478804	0.06245388	0.638264936	0.638421203	0.638521869
0.065234725	0.87221465	0.875167017	0.652768524	0.16507177	0.168629033
0.863942238	0.856235324	0.116628174	0.155642155	0.155647596	0.590340811
0.875154384	0.065252909	0.871392566	0.168569502	0.652652688	0.16476375
0.872794564	0.87547186	0.055319742	0.165270523	0.169068584	0.655014393
0.133736492	0.861899936	0.844291202	0.56777728	0.155359056	0.14832061
0.865787913	0.081503634	0.867595208	0.161448784	0.621167745	0.159609101
0.874644264	0.047310565	0.871623317	0.168444664	0.656863324	0.164503264
0.877420669	0.462008385	0.415438987	0.170514924	0.626079465	0.589819972
0.099392331	0.135204546	0.177198842	0.618350344	0.618706333	0.620398194
0.073095524	0.85534389	0.082119104	0.627660731	0.149193989	0.647559699
0.864005003	0.862963823	0.864264172	0.219530827	0.219401204	0.219494352
0.863478067	0.856588197	0.123161045	0.15567875	0.156447556	0.588424515
0.874770282	0.047249719	0.871884134	0.168511519	0.656893768	0.164866786
0.092835155	0.099655925	0.841666683	0.62930958	0.604400461	0.134974008
0.104078687	0.867159153	0.866777862	0.615751138	0.159278458	0.162885057
0.082421919	0.869049293	0.099828159	0.656191427	0.162650225	0.668821318
0.877668746	0.480814227	0.401891673	0.170663096	0.590308167	0.547974983
0.872473588	0.87553884	0.055323659	0.165280958	0.169118951	0.655019067
0.058051586	0.045254098	0.077017627	0.675457912	0.674616482	0.676325456
0.85487455	0.11142615	0.864681304	0.155041369	0.59197476	0.15603294
0.124563722	0.10327891	0.841969905	0.623824284	0.598631504	0.135239632
0.100531789	0.841808907	0.113993646	0.600964546	0.135058155	0.625971807
0.099771631	0.081255579	0.868859324	0.667890116	0.657442097	0.162607042
0.877186097	0.438582601	0.43857791	0.170347312	0.626406325	0.596491806
0.081704343	0.85600769	0.068666575	0.63337242	0.149154857	0.654426877
0.047143082	0.871233931	0.873758737	0.656954268	0.164402293	0.168074349
0.465955175	0.42446317	0.877282924	0.608296637	0.571703531	0.170556522
0.103200741	0.078871281	0.856374547	0.643698303	0.623562096	0.149628719
0.099331495	0.841907528	0.103149647	0.602270306	0.134909516	0.627728061
0.877342924	0.437071396	0.446338481	0.170588272	0.57573713	0.546083527
0.130389478	0.863721458	0.857071617	0.586232879	0.154982238	0.15736417
0.125914001	0.295915597	0.202872086	0.621490521	0.623499732	0.623826846
0.099000273	0.08027163	0.869076623	0.667279902	0.656801489	0.162562467
0.446196777	0.877313924	0.445501635	0.577022774	0.170557551	0.607311184
0.877340616	0.448091377	0.435845256	0.170624198	0.575761358	0.54286972
0.090883792	0.079222438	0.869414109	0.668122548	0.657056966	0.162655953
0.041219241	0.040901625	0.882023248	0.692720477	0.692956489	0.175279443
0.099675075	0.841634659	0.092667625	0.60451346	0.134894237	0.629752178
0.885094501	0.01370788	0.877678558	0.175746549	0.697448195	0.170962357
0.103176531	0.078835581	0.856240301	0.643196871	0.623706011	0.149671574
0.855927097	0.068693954	0.071935685	0.149466476	0.649899885	0.629937567
0.060064878	0.060034813	0.059937828	0.639800599	0.640184168	0.640011446
0.862246308	0.843268741	0.133711868	0.155020421	0.147741282	0.567701606
0.827193957	0.186004689	0.197190558	0.118934122	0.610438332	0.580481664
0.045574692	0.048222568	0.054171392	0.655583733	0.656389011	0.655276197
0.82165142	0.823462057	0.82108695	0.29790925	0.298751361	0.298186246
0.439667164	0.87757247	0.448822042	0.527486113	0.170756398	0.559986709
0.282597619	0.283743778	0.825824973	0.612540211	0.583206549	0.118609827
0.877355938	0.483937078	0.399908775	0.170490164	0.60820932	0.565465855
0.857860927	0.130379148	0.862839492	0.156548214	0.58659301	0.154274678
0.068796985	0.071391551	0.8547981	0.649674038	0.629456922	0.149166031
0.877388287	0.483690462	0.400180625	0.170612397	0.6086401	0.56606427
0.458997878	0.422019721	0.877457231	0.590951047	0.555023846	0.170287117
0.286009674	0.281844219	0.825967528	0.613874044	0.585136749	0.11859974
0.877358409	0.483931584	0.399923001	0.170489991	0.60820776	0.565465883
0.027360852	0.881651126	0.027661273	0.695426301	0.175016126	0.694344151
0.874503172	0.065245154	0.872438526	0.16862046	0.652710362	0.164810986
0.082924036	0.868935755	0.08475331	0.660094463	0.162670918	0.673287596
0.845159316	0.141759126	0.861400471	0.149952947	0.564566711	0.154078126
0.881498554	0.00000482	0.0000049	0.175293236	0.699633208	0.699594481
0.480970559	0.410292241	0.877736538	0.559258811	0.517677413	0.170466673
0.058885121	0.038378833	0.077341631	0.679833146	0.679059139	0.680198759
0.841065823	0.083354155	0.102224975	0.134832538	0.631264422	0.605941119
0.069870447	0.05152767	0.08242203	0.67346161	0.67255115	0.674883115
0.469910526	0.415649161	0.87739223	0.575436016	0.536279802	0.170561021
0.869127637	0.090572609	0.076128607	0.162669974	0.671824061	0.659773188
0.150756815	0.131682878	0.82624468	0.603101638	0.575323588	0.119296894
0.846109396	0.14749734	0.860563267	0.150764251	0.562855172	0.15304471
0.865112857	0.081496239	0.866727186	0.161455689	0.621392405	0.159321284
0.855882954	0.107566079	0.865195871	0.155211933	0.593663349	0.157104345
0.084897268	0.869016135	0.081795477	0.66537092	0.162533317	0.677397676
0.410346363	0.878060382	0.481219753	0.517538511	0.170570819	0.559355692
0.028242083	0.028007806	0.881769183	0.694671895	0.694976223	0.175442508
0.028187682	0.028065361	0.881101388	0.69479558	0.695026348	0.174882367
0.855809214	0.068876936	0.071605489	0.1488814	0.649752448	0.629153258
0.873027437	0.874237357	0.872943487	0.188326109	0.189297367	0.189256415
0.041199974	0.040949286	0.881458509	0.692533913	0.692890097	0.175255558
0.415634478	0.877398997	0.469888294	0.536206581	0.170530722	0.575458166
0.877246398	0.440307455	0.443713757	0.170509625	0.608077608	0.577810841
0.062504426	0.062485643	0.062413933	0.638340584	0.638412552	0.638539802
0.877322217	0.458998512	0.425576829	0.170590219	0.575631477	0.539607461
0.876784682	0.884052246	0.054279861	0.17137993	0.175384154	0.690601654
0.86165708	0.844988671	0.137231077	0.154430709	0.149249194	0.566283379
0.883707323	0.040844753	0.875696847	0.175513247	0.692833906	0.170372348
0.027882858	0.027484407	0.028166995	0.694932718	0.695559385	0.695466659
0.864091419	0.856984373	0.123161948	0.155789592	0.156572096	0.588452349
0.04496275	0.048879855	0.051268255	0.657283785	0.658054689	0.659045115
0.846507141	0.153946829	0.859285109	0.150781309	0.560926965	0.151658096
0.067650934	0.067590303	0.067844641	0.636447782	0.636340869	0.636716205
0.422094421	0.877462515	0.458978638	0.555311172	0.170410527	0.59114375
0.877790315	0.437484485	0.444456075	0.170675283	0.591268697	0.561600144
0.868892362	0.091034214	0.07823446	0.162694739	0.671338267	0.659345522
0.073127437	0.855662495	0.082521491	0.627731744	0.14938634	0.647604201
0.066991719	0.07866185	0.854791228	0.65388788	0.633752592	0.149207214
0.859505196	0.846515203	0.15399354	0.152198489	0.151365915	0.56095687
0.862730147	0.843804738	0.133715583	0.155138017	0.147819242	0.567813642
0.095590107	0.866595597	0.865989757	0.617510643	0.15888787	0.16198756
0.876664647	0.877758352	0.878021584	0.170558315	0.17073492	0.170763741
0.137195132	0.861742004	0.844340654	0.566105419	0.154626868	0.149079945
0.014518992	0.014159564	0.881621278	0.697567709	0.697518429	0.175161913
0.00000276	0.00000293	0.00000289	0.69945248	0.698800067	0.698733529
0.111441953	0.864184526	0.856028124	0.592081006	0.155872334	0.155101162
0.045585371	0.048408737	0.054153018	0.656068456	0.656099207	0.656078599
0.43706025	0.44632133	0.877311191	0.575689582	0.545984474	0.170637667
0.447783525	0.432542207	0.877187647	0.590876913	0.558252433	0.170251104
0.868867042	0.081130948	0.078112978	0.162616129	0.673284629	0.661671053
0.079466619	0.868946397	0.088678986	0.660594122	0.162621348	0.670667961
0.1284755	0.321523251	0.224301771	0.622409522	0.622588669	0.620877257
0.013704772	0.876072673	0.881922631	0.697249858	0.170272844	0.174766438
0.435779873	0.877224539	0.448094113	0.542861177	0.170529951	0.575801447
0.866366284	0.86570293	0.081752295	0.159378421	0.161407075	0.621418974
0.484920376	0.393053237	0.877723007	0.625206143	0.582641889	0.170677043
0.884228184	0.013706689	0.876149376	0.175098412	0.697326008	0.170687124
0.040599737	0.046542592	0.074571562	0.677605939	0.677496423	0.680328794
0.876966357	0.480171867	0.473353748	0.170725509	0.560878952	0.531438591
0.10355226	0.84135836	0.124991208	0.598542185	0.135288867	0.623395498
0.459854396	0.429966211	0.878187886	0.559863137	0.524463856	0.170781658
0.12787348	0.111988109	0.149739592	0.615319887	0.613712315	0.615770591
0.877332586	0.459000906	0.425570891	0.17058365	0.575594821	0.539603049
0.027399513	0.881659816	0.02753464	0.69500654	0.17502889	0.694942546
0.404048532	0.87737854	0.473440339	0.586244319	0.170669604	0.62572792
0.341617897	0.825277535	0.335570146	0.588179838	0.118513537	0.615384309
0.074987543	0.074918387	0.075269349	0.634073603	0.63452245	0.634424485
0.877562869	0.462079288	0.415510378	0.17055272	0.626145147	0.589801824
0.410104439	0.877388736	0.480809502	0.517492881	0.170460875	0.559456376
0.841861042	0.113783552	0.100109556	0.135168461	0.62618429	0.600875655
0.877346249	0.437067157	0.446347327	0.170601448	0.575720461	0.546072915
0.866585957	0.866060928	0.088246564	0.159426671	0.162019274	0.619566153
0.875740259	0.075982715	0.871237338	0.168976513	0.650417568	0.164615989
0.439127787	0.439123014	0.878277016	0.62663795	0.596396346	0.170680859
0.877352427	0.483941821	0.399895517	0.170490548	0.608211633	0.565465567
0.845506982	0.141825532	0.860153859	0.149763635	0.564504019	0.153537393
0.882876978	0.013706112	0.876290833	0.175362536	0.697314751	0.170772822
0.882834243	0.013706573	0.876017689	0.174922886	0.697332713	0.170412604
0.877194682	0.438586522	0.438581882	0.170254384	0.626592416	0.596399637
0.47004184	0.411744073	0.877681208	0.590655032	0.551446459	0.170681967
0.877383375	0.459019639	0.42563339	0.170601387	0.575704616	0.539668668
0.87735624	0.437069907	0.446354336	0.170599367	0.575718663	0.546078843
0.393206571	0.8780013	0.485047639	0.582652011	0.170763492	0.625162849
0.402721454	0.877417279	0.485672379	0.564838648	0.170546929	0.607530794
0.480665147	0.405686851	0.877330901	0.575271827	0.532760714	0.170517596
0.841583372	0.083391895	0.102213655	0.134861634	0.631156662	0.606263901
0.875700388	0.88435809	0.0000055	0.170893841	0.176320202	0.699653876
0.873997528	0.048590156	0.872257947	0.168272628	0.658964692	0.165345798
0.067711741	0.067601531	0.067840264	0.636419145	0.636587234	0.636765812
0.062471701	0.062486851	0.062453157	0.638311284	0.638228504	0.638506133
0.43711082	0.446378709	0.877421961	0.575772974	0.546059048	0.170604596
0.85577133	0.064937828	0.078589615	0.149133439	0.652532504	0.631347876
0.470025456	0.415642692	0.877387813	0.575403833	0.536208898	0.170551353
0.113778719	0.100118764	0.841988517	0.625815358	0.600793103	0.135205329
0.095385633	0.866934325	0.866451546	0.617416723	0.159306688	0.16247587
0.882934623	0.054274235	0.87630264	0.174872827	0.690494492	0.170834831
0.876052746	0.877176316	0.875991814	0.170336605	0.170706761	0.170506587
0.133730785	0.861846092	0.843992133	0.567832045	0.155188454	0.148151774
0.130527238	0.110865162	0.154115926	0.615742204	0.614113902	0.614972276
0.866440315	0.865554304	0.10429089	0.159351664	0.162602305	0.615171544
0.863550083	0.844236835	0.133708755	0.155118429	0.147857475	0.5678374
0.87186643	0.873985215	0.047863308	0.165072261	0.168123275	0.658624786
0.041102301	0.040959375	0.881754062	0.692653357	0.692945854	0.175250773
0.868877738	0.075630572	0.078875089	0.162527948	0.676533545	0.664345028
0.140980013	0.825490859	0.14895379	0.573868878	0.118526042	0.601652307
0.068848858	0.071254294	0.855312857	0.650003396	0.629975987	0.149025879
0.874396448	0.051303605	0.871832666	0.16833723	0.659095174	0.165035225
0.861977499	0.843521166	0.133718158	0.154879919	0.147819712	0.567800659
0.052017844	0.05352947	0.058415356	0.653765378	0.654153629	0.653536603
0.00000492	0.00000475	0.881713498	0.699337971	0.69910416	0.175356445
0.393121833	0.877843299	0.484973302	0.582645009	0.170720571	0.625165386
0.080174231	0.855518728	0.104120582	0.62363262	0.149329295	0.643683499
0.415479642	0.877494069	0.462041782	0.589832922	0.170514582	0.626053099
0.877702726	0.450556918	0.427130913	0.170593497	0.626386002	0.593172244
0.846489541	0.153917189	0.859592858	0.151259301	0.560796546	0.152203099
0.87636969	0.883950785	0.054277676	0.171207242	0.175695246	0.690564501
0.067682103	0.067563378	0.067849522	0.636219161	0.636324772	0.636635793
0.442941808	0.448256165	0.87734672	0.606569638	0.576604919	0.170603104
0.859975697	0.844578717	0.141759833	0.152991292	0.14932181	0.564556009
0.099479909	0.134917122	0.177436654	0.618233783	0.618618792	0.619693567
0.841414907	0.102940981	0.09901199	0.134979356	0.627614981	0.602621662
0.86238654	0.86325754	0.862655975	0.218419533	0.218940029	0.219334622
0.877403074	0.450677859	0.432475739	0.170575747	0.60977187	0.576349286
0.054515906	0.055129426	0.054711597	0.690239192	0.690163989	0.69022813
0.067654379	0.067625535	0.067920109	0.636361659	0.636308995	0.636696211
0.864469731	0.855537973	0.111454743	0.156211874	0.155398486	0.592238469
0.130404304	0.863434605	0.857513016	0.58627477	0.155089705	0.157420646
0.014053468	0.881440208	0.014345194	0.697284069	0.175420038	0.697059558
0.855539666	0.065460404	0.079215981	0.148547987	0.652417009	0.63184337
0.841808453	0.113742727	0.10028693	0.135133065	0.626208455	0.600805787
0.087737553	0.079275775	0.868542241	0.672864267	0.661814776	0.16279656
0.869110441	0.081074248	0.077940793	0.162561416	0.674219468	0.663011943
0.856539412	0.111466804	0.86557697	0.155497007	0.592158917	0.156743758
0.040852562	0.874547349	0.881853819	0.693015277	0.170225117	0.17497151
0.065899936	0.078885038	0.854950752	0.6536868	0.634184136	0.149185598
0.877300484	0.438639576	0.438634832	0.170318099	0.626574931	0.596423558
0.459065108	0.425715548	0.877362768	0.5754904	0.539369066	0.170572357
0.85607431	0.116696578	0.863410493	0.155370326	0.590448939	0.155258788
0.113649621	0.100336966	0.841415136	0.62610291	0.600684669	0.135008152
0.104030021	0.866606835	0.866965057	0.615813339	0.159189283	0.162819955
0.436023694	0.877445337	0.448134883	0.542691192	0.170599999	0.575493579
0.882565944	0.0000055	0.876458203	0.174955088	0.699379435	0.170416812
0.866186772	0.087725635	0.867697061	0.161979383	0.619307871	0.159353289
0.450242623	0.426818123	0.877075058	0.626487259	0.593093781	0.170409267
0.081333416	0.869228972	0.099072073	0.656697755	0.162662152	0.669392099
0.877415724	0.483568988	0.400427949	0.170588526	0.608638852	0.566075784
0.113753089	0.100280138	0.841846977	0.626250945	0.6008613	0.135017394
0.07599731	0.871547549	0.874667255	0.650454241	0.164336776	0.168753981
0.272122217	0.271292594	0.826703652	0.612126132	0.583818684	0.118742874
0.86701627	0.095338599	0.867156527	0.162548093	0.617539402	0.159398891
0.102146896	0.841647443	0.083430874	0.606168432	0.134738474	0.631384279
0.825234257	0.135840512	0.128961756	0.118689177	0.605918714	0.576650612
0.44631962	0.877320028	0.437066737	0.546059511	0.170563342	0.575727392
0.848124484	0.84660999	0.847412174	0.257457168	0.257012235	0.257181332
0.056469791	0.044756816	0.075306809	0.674667382	0.674751873	0.675523393
0.013708013	0.876185846	0.881939411	0.697406306	0.170933962	0.175225788
0.437064787	0.446303148	0.877298964	0.575700138	0.545992898	0.170575836
0.877185177	0.459486307	0.429336109	0.170466755	0.559805516	0.52442573
0.057799415	0.038479354	0.076642569	0.679830382	0.679025054	0.680211854
0.877348905	0.459010474	0.42559668	0.170580339	0.575609329	0.539612721
0.877318683	0.484721484	0.392847287	0.170721117	0.625231838	0.582661416
0.876960391	0.480574571	0.401399701	0.170695741	0.590235722	0.548240822
0.878129206	0.485121781	0.393258793	0.170730649	0.625247374	0.582673953
0.866500464	0.866129123	0.104231597	0.159349448	0.162630663	0.615344452
0.480463001	0.405903078	0.877327749	0.575281662	0.532784668	0.170518563
0.862295006	0.863372768	0.86328792	0.219153927	0.219122572	0.219500952
0.130401911	0.825976631	0.14954853	0.575311428	0.118948744	0.603811668
0.448846258	0.439660051	0.87758685	0.559710236	0.527880736	0.170783406
0.448160799	0.435901925	0.877406929	0.575685658	0.542708742	0.170568419
0.087557263	0.868623967	0.085190461	0.663931094	0.162589716	0.676911129
0.455098089	0.435826913	0.87735674	0.610417437	0.577099117	0.170598987
0.487556782	0.400770683	0.877290399	0.607735042	0.564782518	0.170503001
0.844274445	0.137204567	0.861589627	0.14894091	0.566294999	0.154452081
0.028162396	0.027602365	0.881439767	0.694988403	0.694858503	0.174981731
0.858904702	0.846403273	0.154035711	0.152185702	0.151194229	0.560777346
0.866697188	0.865599461	0.081814651	0.159229799	0.161367043	0.62146748
0.869028495	0.080197958	0.077230098	0.162568202	0.674743104	0.663098754
0.882768318	0.0137066	0.876107937	0.174928645	0.697334602	0.170433661
0.059996941	0.060026198	0.059967438	0.63937964	0.639979209	0.640072141
0.864268282	0.853723573	0.107683579	0.156451754	0.154062368	0.593729679
0.062506735	0.062481023	0.062443532	0.638356576	0.638332029	0.638509554
0.422374021	0.877979588	0.459243286	0.554799294	0.170537528	0.590721886
0.10217206	0.841509208	0.083383456	0.605558755	0.13469383	0.630665767
0.111397424	0.864732786	0.855041396	0.592062353	0.156331206	0.155295222
0.877279368	0.459108534	0.422096819	0.170352992	0.590765852	0.554956475
0.027883314	0.027588005	0.028108758	0.695378626	0.694979999	0.695190805
0.082011515	0.079339727	0.868872067	0.675644182	0.663921386	0.162577255
0.841744989	0.092714209	0.099687967	0.134806367	0.62956518	0.604359126
0.103067978	0.078841327	0.856040976	0.643190498	0.623677449	0.149676569
0.863370967	0.856646279	0.123162916	0.155694345	0.15646157	0.588425814
0.855462286	0.10277692	0.078739592	0.149410082	0.643410004	0.623760211
0.883329391	0.013706279	0.87597301	0.175110014	0.697313171	0.170670187
0.079767455	0.869083862	0.088793981	0.659565884	0.162636483	0.670921014
0.099713264	0.841555608	0.09268722	0.604604659	0.13482309	0.629784313
0.877788786	0.470438188	0.419855349	0.170697498	0.559608067	0.520951761
0.855856888	0.066577812	0.078948332	0.148836851	0.6521221	0.631703988
0.861511956	0.843046846	0.133713143	0.154709973	0.147441131	0.567698101
0.041251006	0.040952757	0.881268119	0.692607815	0.693059738	0.174941536
0.873199048	0.875885153	0.047399229	0.165596992	0.168723634	0.656992616
0.823424431	0.823823081	0.825649988	0.298704174	0.298660907	0.298582549
0.506643497	0.508110751	0.877237931	0.561169585	0.531855336	0.170657346
0.844458613	0.137217719	0.86184707	0.149087917	0.566360572	0.1545322
0.846241884	0.147444259	0.858945292	0.150272201	0.562634277	0.152673771
0.856833377	0.068718546	0.072090591	0.149555864	0.650189163	0.628839388
0.226103357	0.229777158	0.827141266	0.610494213	0.578884339	0.118920219
0.87500604	0.065240406	0.871404022	0.168260239	0.652778009	0.164306245
0.419706565	0.877397273	0.470205803	0.521040116	0.17055312	0.559629123
0.862246405	0.843255904	0.133710455	0.155023068	0.147745337	0.567697873
0.092783111	0.09962258	0.841631063	0.629462746	0.604453093	0.134933596
0.130540885	0.82593693	0.149485497	0.575322237	0.118951672	0.603852382
0.864342768	0.854596797	0.10767595	0.156332319	0.154204615	0.593872807
0.438091795	0.445025832	0.877629626	0.590775007	0.561423009	0.17036669
0.480702083	0.401430556	0.8774437	0.589984117	0.548201787	0.170611325
0.147030671	0.133788863	0.824752889	0.602818446	0.572198331	0.119105769
0.100175764	0.135292257	0.180193993	0.618218104	0.618401889	0.619650846
0.877373247	0.437078327	0.446362163	0.170595336	0.575727195	0.546087892
0.877302607	0.462453233	0.421022907	0.170578531	0.608612989	0.572162704
0.080507567	0.855235149	0.103532247	0.623576509	0.149340413	0.643389909
0.06252243	0.062485589	0.062433592	0.638357301	0.638410224	0.638539548
0.123765217	0.112512503	0.149676607	0.61545848	0.613429574	0.615310842
0.855095744	0.079629334	0.071813071	0.148856599	0.647858522	0.627998568
0.102152439	0.841519376	0.083417308	0.605479394	0.134659062	0.630742498
0.447475348	0.87729315	0.444467165	0.577263062	0.170565856	0.607517967
0.055370417	0.871725345	0.874564545	0.65500234	0.164875684	0.168855435
0.099105664	0.841825675	0.103197627	0.602347874	0.134899413	0.627669386
0.863257931	0.857200521	0.130392504	0.154909677	0.156908669	0.586415118
0.411689029	0.877696072	0.470091917	0.551432652	0.170593241	0.590579311
0.141480188	0.129819156	0.825075623	0.605348954	0.577648084	0.11867847
0.087656001	0.868609832	0.085165835	0.664018089	0.162591172	0.67695914
0.856827904	0.068762024	0.0721407	0.149578037	0.650219904	0.628791993
0.070685746	0.051518596	0.08289079	0.672898428	0.672447215	0.674345146
0.082502019	0.304550432	0.286959102	0.619733595	0.615593646	0.615455087
0.05868168	0.038306578	0.076983879	0.679500064	0.678888127	0.68016863
0.435870131	0.877255093	0.44804586	0.542876491	0.170529351	0.575813124
0.874914891	0.051123255	0.872048078	0.168369127	0.659088619	0.165019256
0.862951586	0.856549955	0.130384555	0.155064324	0.156916621	0.586459898
0.446912072	0.877365088	0.444139902	0.576607571	0.170544458	0.6069941
0.858870485	0.846424523	0.154038125	0.152203195	0.151217865	0.560773216
0.459081549	0.425724022	0.877393915	0.575496385	0.53938304	0.17057047
0.077093338	0.867427742	0.865806256	0.623105425	0.160278463	0.1617383
0.00000278	0.00000293	0.00000284	0.699150474	0.699289902	0.698565309
0.85773145	0.130444007	0.862733492	0.15670562	0.586448887	0.154445659
0.469724949	0.411432889	0.877074252	0.590508881	0.552093431	0.170021709
0.439766581	0.877750764	0.448898831	0.527535962	0.170859785	0.559998964
0.070329977	0.071555157	0.073953928	0.649909529	0.650225329	0.650684076
0.881182851	0.00000483	0.00000481	0.175398614	0.69912871	0.699525403
0.11371489	0.100310998	0.841563973	0.626148839	0.600713029	0.134969801
0.415469734	0.877475471	0.46203301	0.589833647	0.170525469	0.626053827
0.062508585	0.062481378	0.062447437	0.638349087	0.638329988	0.638508556
0.027832645	0.027700565	0.028382304	0.695462412	0.695188609	0.695000238
0.075971381	0.871791217	0.874519347	0.650543576	0.164589187	0.16855965
0.041500158	0.882056846	0.041496555	0.69255888	0.175482649	0.69212362
0.059415026	0.06421391	0.063364662	0.652180065	0.651529936	0.651782287
0.872721301	0.87384146	0.055339913	0.164595923	0.167757447	0.654733485
0.054289433	0.881547728	0.05464537	0.690405771	0.175352068	0.68999387
0.868743426	0.076743584	0.080530209	0.16258041	0.676019218	0.664292075
0.874169777	0.872051345	0.872323229	0.188977217	0.188438352	0.18819549
0.099308719	0.841937626	0.103154504	0.602302059	0.134905602	0.627744447
0.403932422	0.877155397	0.473333535	0.586288049	0.170700265	0.625766279
0.082706599	0.299940062	0.281270237	0.620192127	0.620971472	0.617813582
0.101039918	0.130083589	0.171264814	0.617158185	0.622099064	0.620675002
0.091694682	0.074421414	0.855319537	0.64547065	0.625863418	0.149308749
0.00000477	0.881388308	0.00000488	0.699343249	0.175295915	0.699151066
0.872317403	0.875271722	0.065196906	0.165265521	0.168965492	0.652846606
0.855220266	0.102895825	0.078950193	0.149163271	0.643480402	0.623684897
0.013706801	0.87614175	0.883541615	0.697362058	0.170872128	0.175629677
0.877436122	0.450694079	0.432342671	0.170567095	0.609655224	0.576270257
0.068778127	0.071284335	0.855923156	0.649941273	0.629697705	0.149107061
0.069810389	0.065021207	0.084776199	0.67050576	0.670370984	0.672757198
0.086303322	0.868945518	0.08310022	0.665104939	0.16249389	0.677419157
0.877267321	0.440511899	0.443848915	0.170621114	0.608449079	0.577902464
0.854944666	0.111430513	0.863575093	0.154684879	0.592258627	0.155668276
0.874859336	0.076023662	0.871294713	0.16848174	0.650478389	0.164512323
0.877474313	0.484796495	0.392927635	0.170695425	0.625195012	0.582623746
0.841391074	0.083339487	0.102238512	0.134859765	0.631100063	0.605909651
0.140435035	0.132590964	0.825273479	0.605402112	0.577647182	0.11868542
0.874757065	0.873326078	0.874885416	0.18886171	0.18857046	0.18896589
0.027501946	0.881930758	0.027786639	0.694928225	0.175116248	0.695178171
0.885684197	0.027327713	0.878022243	0.176170343	0.695272095	0.170764157
0.860283292	0.84512894	0.147500816	0.152699181	0.15028862	0.562878128
0.856012256	0.107560858	0.865267157	0.154969595	0.59366312	0.156960928
0.877788852	0.447966121	0.433366116	0.170619805	0.59122738	0.558649011
0.874530634	0.065237643	0.871472156	0.168524567	0.652721125	0.164753992
0.102219594	0.841594701	0.083447755	0.606183302	0.134768344	0.631220935
0.877245802	0.450328943	0.426901774	0.170653027	0.626597048	0.593071538
0.877194176	0.458823181	0.422265179	0.170302225	0.590515535	0.554567959
0.825612458	0.148998604	0.133445471	0.118912241	0.604574301	0.575822183
0.88337627	0.0000055	0.87630929	0.175485349	0.699372409	0.171218711
0.041126088	0.040867387	0.881717034	0.692576325	0.693012719	0.175064825
0.448170646	0.435898351	0.877429654	0.575827996	0.542876429	0.170552432
0.415526352	0.877253289	0.469902684	0.536049727	0.170522422	0.575345462
0.074489605	0.855287368	0.091438662	0.625783912	0.149073963	0.645517969
0.099235677	0.841730937	0.103107505	0.602414876	0.134906913	0.627648468
0.455009645	0.435885141	0.877399717	0.611028609	0.577432905	0.170589364
0.424748751	0.87743495	0.464998519	0.573188806	0.170544611	0.609871338
0.013824941	0.014052875	0.013864016	0.697379755	0.696831011	0.697106039
0.04535589	0.048285938	0.053493259	0.656073955	0.656070248	0.656087159
0.877604133	0.462099187	0.415532187	0.170563073	0.626155552	0.589770696
0.059269301	0.03864907	0.077955119	0.679801521	0.679095467	0.680122536
0.43889486	0.877820881	0.438899553	0.596391655	0.170924658	0.626521082
0.068860996	0.071259895	0.85513412	0.649945162	0.629938929	0.148946013
0.863913904	0.85675807	0.123109443	0.155664935	0.156500894	0.588560628
0.857372693	0.130482468	0.862662092	0.156736156	0.586552917	0.154585493
0.401608554	0.877581742	0.48072343	0.548225444	0.170458277	0.589948849
0.87484453	0.047219024	0.871627664	0.168393935	0.656950102	0.164811505
0.111499888	0.863641847	0.854531995	0.592090239	0.155956014	0.155121089
0.102914175	0.133339794	0.180233053	0.617718637	0.620948602	0.621592629
0.864524797	0.855535165	0.111453444	0.156212083	0.155395457	0.592230484
0.411377816	0.87706554	0.469785233	0.551441286	0.170461727	0.590486808
0.877154438	0.437128449	0.444038343	0.170473187	0.591700466	0.562394993
0.872918695	0.874615233	0.874293655	0.188635411	0.189013332	0.189038364
0.102154772	0.841676384	0.083407694	0.606154055	0.134774193	0.631108023
0.079705991	0.082286921	0.868820043	0.677768125	0.665444902	0.162585338
0.164235287	0.154159413	0.094937076	0.617404656	0.615853355	0.615924166
0.874136697	0.872559912	0.873382778	0.189019278	0.188374108	0.188236292
0.475517465	0.413824101	0.877391596	0.608444277	0.569135097	0.170612919
0.069945376	0.065330644	0.085153663	0.670340432	0.671138159	0.672777745
0.44776322	0.432435171	0.877054836	0.590833058	0.558349387	0.1701497
0.860300268	0.847096839	0.153958925	0.152348448	0.151467441	0.560923789
0.450503365	0.427076031	0.877594065	0.626538054	0.593069293	0.170697582
0.415522274	0.877574858	0.462079969	0.589685978	0.170686374	0.626198588
0.00000549	0.875623217	0.884248632	0.699270882	0.170147197	0.175714207
0.126063394	0.111626713	0.147634219	0.615048538	0.614313378	0.614933195
0.081616925	0.855727236	0.066645103	0.631493385	0.149040125	0.652313141
0.824129039	0.823940715	0.826812075	0.29877063	0.298693384	0.29884064
0.139972686	0.133480497	0.825614963	0.606108857	0.57737958	0.118856319
0.877615405	0.44879009	0.4397412	0.170716956	0.559966438	0.527628908
0.87483395	0.065249867	0.871324781	0.168614471	0.652686537	0.164806872
0.841464482	0.124918362	0.104237817	0.135340697	0.622920723	0.597782366
0.080420587	0.856230981	0.104280881	0.623627129	0.149409669	0.643654123
0.0798423	0.869057909	0.088777981	0.664330331	0.162632611	0.674069976
0.454897	0.435871386	0.877360827	0.609697584	0.576445507	0.170594948
0.058405711	0.038132935	0.076422647	0.67947129	0.678812165	0.680191398
0.877271386	0.438625286	0.438620524	0.17033006	0.626430094	0.596528878
0.856210419	0.091292827	0.074074328	0.149469895	0.645674147	0.625926345
0.448142897	0.435916471	0.877417195	0.575823469	0.542886595	0.170551868
0.883116092	0.05427493	0.876457391	0.174771905	0.69051986	0.170820286
0.062489163	0.062481529	0.062436222	0.638244046	0.638348039	0.638574549
0.865802854	0.081523794	0.867412584	0.161472837	0.621168634	0.159601161
0.874587895	0.049151021	0.872731732	0.168450476	0.659267798	0.165250997
0.427116215	0.877672638	0.45054166	0.593066786	0.170823381	0.626463226
0.09272974	0.099637799	0.841385748	0.629506226	0.604540448	0.134950236
0.877355388	0.47364504	0.410092865	0.170519827	0.609045746	0.569263516
0.07692926	0.868134019	0.865115163	0.623129623	0.160424131	0.161429706
0.014361526	0.881132017	0.014484823	0.697185785	0.17524668	0.697678338
0.874439653	0.047216154	0.871944453	0.168513446	0.656880784	0.164867776
0.054274807	0.875937312	0.883415272	0.690515115	0.17082427	0.17520695
0.869067863	0.089981954	0.075972432	0.162692183	0.67154931	0.659565868
0.864390024	0.856351737	0.123138412	0.155285647	0.156148586	0.588607271
0.856683116	0.079511121	0.071910144	0.149361973	0.647920194	0.627526648
0.072913994	0.854746553	0.071677521	0.629515227	0.148731538	0.649770812
0.34184356	0.825835942	0.332050075	0.583284959	0.118934783	0.612004677
0.875888023	0.877170521	0.875836433	0.17026694	0.17072602	0.1705585
0.877109843	0.459158008	0.421860849	0.170393763	0.590757347	0.554880269
0.054274285	0.876375943	0.882657433	0.6905059	0.170884483	0.175243596
0.825918254	0.225774219	0.231609213	0.118816608	0.612885899	0.583242855
0.863064982	0.843843986	0.133695944	0.155140665	0.147958392	0.56790183
0.855366551	0.102842963	0.079027142	0.149369342	0.643546629	0.623534254
0.867125757	0.866294167	0.095373823	0.159293073	0.162532428	0.617246698
0.843536593	0.137218048	0.860799385	0.148643636	0.566240317	0.154254394
0.855422101	0.10288759	0.078937487	0.149336275	0.643363551	0.623535009
0.111371276	0.864970171	0.85511771	0.592034044	0.156236932	0.155206875
0.447894632	0.432577564	0.877327797	0.59091807	0.558513345	0.170224235
0.113759777	0.100310154	0.841496279	0.626133967	0.600706985	0.134980175
0.865077006	0.854588978	0.111457953	0.155870661	0.15481874	0.591884884
0.874057043	0.076029568	0.870632128	0.168371404	0.650532038	0.164808174
0.864061451	0.857443911	0.130297837	0.155386689	0.157334573	0.586535819
0.076977207	0.868018817	0.864939801	0.623029815	0.160081354	0.160986531
0.0000028	0.00000296	0.00000282	0.699198631	0.698981938	0.698359763
0.077526875	0.080893741	0.868992867	0.678273012	0.666124068	0.16252713
0.866112048	0.081552856	0.867574233	0.162009179	0.621669846	0.159834282
0.054604312	0.054287309	0.882006282	0.689936407	0.690771131	0.175280941
0.153937202	0.859723833	0.846437825	0.560806683	0.152331265	0.151465909
0.10770082	0.864350713	0.853758483	0.593727498	0.15677857	0.154461384
0.065223092	0.871175878	0.875151885	0.652945471	0.164735655	0.168884729
0.8727678	0.875546052	0.055326955	0.165446195	0.168765689	0.654862295
0.877957221	0.877249791	0.877922983	0.171028972	0.170699101	0.171060864
0.447801656	0.432490341	0.877151732	0.590813706	0.558437298	0.170206682
0.860871244	0.843957819	0.137134709	0.153905833	0.148326841	0.566308967
0.05537574	0.871812585	0.874377981	0.654914475	0.164666719	0.168458238
0.054606957	0.05425503	0.881737115	0.689857166	0.690275723	0.175599834
0.05460219	0.054258478	0.881826291	0.689973222	0.690189031	0.175315734
0.855141624	0.064218819	0.078147295	0.148833878	0.653197148	0.632707217
0.87759308	0.480896069	0.401704931	0.170621005	0.590361962	0.548030408
0.081631189	0.869242506	0.099350652	0.656384094	0.162640697	0.669024455
0.480773016	0.401402669	0.877495515	0.59032618	0.548023452	0.170438474
0.0411682	0.040880717	0.881235204	0.692368991	0.69311369	0.175183311
0.475498048	0.413756877	0.877318028	0.609117701	0.569818773	0.170617917
0.868925642	0.089295468	0.076301969	0.162677132	0.672125037	0.659784338
0.877722225	0.470369595	0.419865988	0.170659628	0.559639007	0.520964337
0.877302472	0.462452802	0.421023107	0.170578502	0.608612993	0.57216262
0.856736844	0.123031924	0.863755458	0.156503906	0.588454866	0.155457443
0.867376437	0.865739979	0.081866824	0.159853012	0.161518125	0.620935187
0.439890211	0.877960369	0.448975916	0.52752113	0.170833724	0.560000692
0.446044549	0.877352631	0.44451938	0.57644443	0.170561758	0.606948775
0.410199275	0.87762932	0.480948887	0.517524239	0.170635551	0.559400478
0.111392154	0.864931985	0.855880514	0.592248198	0.15629679	0.155509156
0.860749605	0.845104015	0.147540634	0.15268903	0.150253723	0.562809697
0.41558061	0.87734994	0.470048558	0.536011026	0.170508097	0.575258632
0.165622491	0.15298547	0.095211934	0.617567358	0.617074336	0.615732686
0.08040095	0.855901427	0.10482577	0.62343532	0.149691904	0.642681558
0.855966866	0.079515055	0.071855615	0.149417227	0.647944134	0.627436971
0.822722641	0.823425132	0.824129562	0.298693521	0.298711486	0.298570052
0.013705852	0.876159859	0.883772323	0.697225901	0.170849771	0.175588403
0.081509871	0.869091893	0.099397578	0.656367251	0.162653604	0.668831193
0.00000485	0.881413779	0.0000049	0.699345288	0.175039004	0.699134723
0.446320421	0.877292654	0.437041033	0.546044459	0.170610632	0.575725474
0.823786347	0.823908218	0.8259506	0.298967135	0.298608589	0.298607908
0.348391288	0.826318285	0.332336771	0.583033849	0.118687147	0.611071608
0.054498117	0.055171054	0.054923961	0.690262719	0.690087642	0.690327914
0.027553642	0.881395771	0.027667333	0.695234291	0.174953747	0.694348321
0.077052873	0.867513231	0.864420995	0.623131274	0.160205424	0.161193219
0.865730476	0.087709145	0.866803151	0.161862276	0.61934193	0.159304004
0.877203949	0.462406562	0.420920835	0.170554962	0.608651139	0.572182261
0.864803383	0.854660687	0.107789932	0.156299565	0.154273646	0.593664756
0.857597562	0.123138398	0.86356701	0.156281464	0.588560721	0.155258245
0.304642431	0.825946921	0.301952084	0.589175731	0.118804511	0.617897422
0.121601326	0.298464301	0.209998669	0.622218569	0.626468639	0.623195885
0.484911965	0.393053224	0.877713567	0.625401244	0.582440062	0.170623005
0.33336882	0.826309987	0.330159236	0.584037972	0.11884794	0.614603565
0.841704695	0.0927206	0.099614647	0.134785828	0.629501192	0.604357084
0.480786832	0.405844333	0.877458329	0.57475973	0.532336041	0.170574958
0.877371853	0.450390672	0.426966622	0.170601099	0.62645028	0.5931167
0.863234862	0.863157794	0.863657688	0.219587543	0.219142555	0.219523233
0.401220421	0.876971417	0.480505282	0.548588491	0.170030834	0.590487619
0.426784335	0.877011315	0.450212233	0.593137404	0.17047627	0.626522306
0.103162228	0.09918693	0.841636735	0.627698383	0.60256372	0.134966784
0.439132203	0.439127556	0.878285849	0.626639991	0.596501721	0.170680405
0.295748238	0.295117826	0.825727304	0.615603333	0.58732574	0.118708854
0.393143613	0.877885772	0.484993946	0.582640798	0.170839448	0.625175701
0.066555247	0.079057633	0.855638836	0.653457001	0.633439279	0.148967139
0.88296889	0.054275275	0.875907847	0.174971716	0.690513766	0.170625229
0.856148603	0.11669192	0.864465438	0.155882482	0.590302151	0.156187008
0.868895028	0.075897314	0.078855859	0.162528985	0.676668105	0.664602738
0.405847422	0.877284671	0.480549431	0.532768815	0.170558363	0.575072527
0.487086343	0.401455109	0.877441851	0.607430818	0.56431904	0.170539265
0.861367529	0.863490987	0.862006261	0.218499641	0.219135671	0.219158543
0.841616452	0.124780048	0.103671782	0.135280169	0.623410151	0.598012292
0.847790463	0.846403066	0.847302451	0.257716253	0.25744525	0.257060709
0.070519206	0.071461638	0.074235086	0.649936351	0.650230891	0.650687974
0.040800811	0.046510194	0.074772683	0.677569128	0.677591151	0.680415673
0.877688023	0.480928056	0.401818456	0.170806419	0.590286628	0.547959406
0.401220374	0.876971334	0.480505252	0.548588487	0.170030965	0.590487645
0.099980715	0.081362551	0.869225962	0.668921761	0.6568482	0.16263563
0.455299839	0.435484145	0.877330421	0.610041507	0.576773475	0.170596699
0.439067035	0.87816496	0.439071756	0.596277501	0.171237507	0.62672791
0.874382569	0.049832794	0.872162412	0.168268691	0.658804701	0.165009107
0.55925245	0.877305528	0.551368714	0.539106513	0.170559707	0.56648389
0.841499083	0.102969694	0.099020326	0.1349953	0.627612127	0.602492579
0.469870288	0.415662343	0.877268318	0.575274745	0.536083429	0.170542653
0.147233424	0.134275086	0.09721837	0.618868213	0.617875597	0.615360431
0.069810979	0.051344743	0.082227199	0.673486988	0.672596066	0.674903672
0.854882087	0.068649987	0.072079942	0.149291557	0.649862566	0.629124199
0.083807008	0.868958559	0.08540707	0.660024373	0.162646647	0.673862483
0.062489163	0.062481529	0.062436222	0.638244046	0.638348039	0.638574549
0.02823267	0.028029011	0.881767395	0.694678692	0.694962508	0.175443094
0.027841506	0.027597216	0.028126397	0.695226297	0.695597819	0.695434513
0.876958478	0.459373182	0.429236746	0.170722141	0.559787191	0.524474641
0.882002126	0.00000489	0.00000485	0.175391913	0.699230607	0.699359517
0.027497114	0.881948272	0.027802466	0.694964575	0.175050751	0.695141016
0.858303233	0.845192383	0.153945475	0.151588313	0.150796001	0.560980065
0.882138269	0.054639121	0.054226273	0.175794867	0.690227627	0.690320213
0.862332659	0.843616029	0.133734406	0.155266371	0.148157946	0.567777832
0.876984142	0.447496696	0.432993784	0.170369693	0.590817616	0.558337219
0.437095651	0.446349393	0.877377318	0.575735484	0.546040574	0.170600143
0.872725883	0.874521684	0.874297218	0.18870874	0.189045117	0.189252443
0.877279072	0.877196237	0.877120441	0.170514954	0.170621323	0.170161092
0.107660403	0.864804877	0.855134655	0.593760016	0.156788173	0.154502412
0.01390988	0.014404441	0.013933163	0.6970063	0.697458054	0.69756688
0.877516513	0.448109019	0.432879453	0.170536882	0.590754121	0.557804621
0.877237564	0.461911866	0.415353198	0.170519237	0.626131272	0.589807716
0.0873558	0.078776996	0.868771491	0.67282956	0.661402886	0.162703765
0.877266264	0.448123359	0.435751161	0.170599396	0.575684119	0.542808323
0.841827739	0.102968657	0.099083938	0.134994469	0.627737981	0.602580597
0.859721113	0.846651066	0.15397371	0.152349132	0.151452798	0.560940447
0.860311419	0.844511272	0.141741475	0.152920332	0.149061952	0.564556485
0.855471575	0.079621965	0.071988482	0.149039878	0.647928708	0.627851044
0.054294696	0.881371518	0.054644781	0.690246161	0.175401069	0.689967363
0.841401703	0.083338253	0.102225974	0.134872586	0.631080804	0.605904814
0.825941536	0.18987526	0.197796821	0.118677609	0.61292394	0.580583055
0.04136257	0.041090756	0.041852544	0.692968105	0.691928911	0.692175483
0.856234958	0.116766795	0.8631549	0.155513278	0.590293257	0.155420349
0.051923825	0.053485703	0.058228187	0.653996855	0.654074232	0.653904782
0.099648907	0.841881304	0.092698286	0.604410079	0.134882664	0.629762538
0.475520768	0.413757329	0.877513512	0.608335293	0.569006044	0.170608923
0.054304209	0.881585943	0.054632519	0.69104926	0.175403203	0.690186722
0.410293442	0.877934666	0.481150624	0.517573956	0.170520448	0.559340793
0.858881013	0.846246617	0.153952986	0.152245028	0.151318737	0.560866478
0.402603701	0.877386856	0.486023386	0.56469136	0.17054046	0.607336733
0.884293331	0.04084369	0.875653644	0.175455363	0.692831624	0.17025428
0.877356805	0.459131863	0.422136491	0.170398028	0.59059039	0.55477069
0.039718374	0.046679857	0.073666992	0.676702125	0.676895691	0.677079702
0.083405277	0.102214466	0.84173146	0.631126032	0.605744325	0.134717599
0.877448228	0.469820705	0.415609166	0.170588955	0.575627589	0.536342857
0.276607598	0.301229753	0.825879665	0.614635505	0.585072772	0.118610524
0.279204352	0.825857411	0.272227242	0.581672954	0.118823776	0.612554698
0.438881466	0.438876763	0.877784466	0.626741933	0.59635222	0.170510811
0.874328361	0.065239803	0.87110486	0.168659692	0.652768634	0.164662254
0.875073516	0.873236534	0.875138419	0.188837436	0.188532477	0.188831281
0.866755746	0.866114907	0.081708073	0.159194634	0.161762465	0.621208864
0.826061064	0.264058425	0.267263771	0.118848904	0.612826816	0.584612728
0.869129892	0.097680282	0.078900921	0.162749414	0.66992398	0.657314182
0.074895726	0.855887628	0.091435783	0.625853987	0.14972543	0.645548222
0.877253315	0.46245779	0.420950927	0.170542674	0.608581975	0.572148513
0.448676568	0.439627727	0.877372727	0.559898975	0.527577112	0.170537619
0.874509489	0.055403924	0.872587391	0.168503112	0.655038986	0.16475469
0.86071297	0.844427479	0.14172648	0.152882963	0.148974431	0.564553195
0.450480276	0.427056874	0.877551608	0.626495749	0.593057938	0.170666348
0.845729926	0.141759021	0.861095427	0.150220996	0.56457664	0.153980546
0.436023504	0.877445168	0.44813481	0.542691116	0.170600123	0.575493522
0.429783576	0.877827569	0.459685796	0.52439464	0.170706273	0.559898149
0.865906873	0.08150053	0.867331812	0.161524513	0.621288325	0.159590795
0.06249653	0.062483639	0.062494324	0.638290814	0.63848318	0.638504553
0.826458565	0.200692758	0.198769413	0.11893206	0.608526221	0.577976401
0.130388908	0.863537069	0.857673626	0.586406299	0.154823563	0.157249617
0.422109259	0.877456269	0.458970276	0.555311821	0.170429683	0.59114721
0.877685922	0.470317581	0.419885029	0.170739853	0.559640991	0.520957182
0.872935216	0.875615757	0.046807483	0.165145865	0.168398713	0.65836999
0.877339254	0.437073067	0.446333917	0.170589785	0.575755101	0.546078131
0.844445985	0.13721509	0.861583874	0.14908003	0.566369385	0.154525038
0.077008135	0.868105914	0.865963616	0.623089514	0.160393855	0.161418501
0.133723468	0.862141268	0.843668087	0.567761136	0.155233714	0.148226365
0.079359235	0.868942123	0.088630534	0.660418639	0.162619859	0.670644095
0.153908435	0.859563466	0.84680654	0.560905764	0.152423875	0.151606708
0.074836999	0.074957425	0.075128044	0.634140022	0.634332723	0.634642034
0.874412514	0.048582098	0.872280796	0.168273765	0.658905138	0.165278172
0.87464676	0.055430641	0.871823971	0.168541051	0.654984116	0.164581083
0.867967516	0.865644689	0.077539751	0.160488656	0.161684204	0.62333994
0.864009058	0.863024527	0.86421216	0.219524116	0.219387535	0.219494446
0.150001213	0.140788285	0.094331977	0.617801277	0.616189648	0.615237377
0.877482551	0.450448107	0.427019835	0.170481347	0.626419207	0.59320301
0.070104372	0.065340181	0.085147971	0.670421259	0.671050297	0.672694342
0.076987688	0.867917612	0.865707892	0.623105709	0.160345081	0.161807268
0.081968657	0.25969028	0.243816875	0.620446311	0.627478272	0.624938147
0.877347891	0.437075102	0.446339488	0.170591516	0.57574467	0.546086521
0.868600064	0.865979002	0.077144814	0.160059378	0.161350514	0.623236872
0.434996965	0.877389198	0.454909796	0.574037422	0.170555408	0.6076759
0.877331934	0.483459516	0.400459939	0.170494706	0.608248697	0.565562356
0.125729244	0.30287175	0.209521397	0.62278818	0.623817499	0.621691339
0.092777549	0.099648817	0.841706227	0.62932296	0.604408014	0.134963326
0.411616518	0.877546306	0.470014816	0.551594437	0.170463324	0.590532267
0.132800054	0.825698543	0.149461229	0.575014453	0.118903124	0.603953062
0.864039607	0.856053533	0.116639142	0.155503317	0.155530944	0.590353863
0.877332292	0.459019476	0.425571099	0.170600347	0.575691557	0.539645971
0.028098096	0.027506584	0.02834264	0.695180809	0.694919016	0.695180274
0.051893758	0.053837608	0.058664563	0.653982857	0.654112894	0.65400235
0.058634111	0.038422905	0.077255571	0.679554602	0.679085231	0.680062078
0.439365852	0.876870649	0.448431943	0.527551037	0.170829425	0.559901419
0.231238941	0.237606748	0.825796497	0.611358323	0.582168817	0.11889126
0.861240274	0.845425896	0.141731296	0.153852142	0.149868097	0.564563202
0.062486909	0.06248006	0.062460491	0.638259067	0.638418444	0.638523136
0.065214602	0.870913586	0.873627466	0.652860948	0.164651894	0.168248816
0.86682019	0.86579656	0.088366972	0.159311124	0.161978816	0.619062378
0.43705491	0.446292979	0.877278573	0.575694664	0.545984277	0.17057891
0.877395134	0.450403365	0.42697723	0.170501638	0.62636176	0.593214331
0.496424041	0.512272041	0.877481174	0.559985383	0.531471939	0.170636125
0.841111988	0.083333323	0.102219815	0.134843045	0.63121453	0.605943558
0.040934713	0.88188317	0.041431398	0.692975458	0.175537322	0.692729629
0.047161714	0.871828189	0.87416013	0.656851283	0.16469251	0.168297208
0.06886452	0.071361687	0.855142483	0.649839285	0.62970521	0.14896277
0.103032009	0.078899606	0.855868553	0.643370339	0.623375997	0.149267615
0.079911223	0.869075928	0.093485177	0.658944751	0.162739527	0.670288787
0.432867783	0.877769965	0.448081044	0.55832535	0.170589733	0.591195758
0.45939995	0.429580476	0.877336925	0.559743086	0.524345797	0.170713285
0.102969647	0.07884127	0.85557086	0.643499316	0.623562095	0.149212356
0.876717961	0.447773751	0.432480131	0.170405325	0.590815984	0.558251977
0.855471575	0.079621965	0.071988482	0.149039878	0.647928708	0.627851044
0.124790125	0.103167887	0.84173094	0.623451868	0.598430067	0.135252302
0.877934767	0.462260906	0.415701196	0.170775275	0.626260763	0.589660139
0.060026378	0.060039265	0.059903305	0.639853421	0.640172398	0.639929273
0.402519772	0.877403439	0.485726144	0.564837322	0.170548629	0.607549664
0.864742909	0.863449359	0.864176839	0.219655926	0.219735232	0.21923046
0.403932644	0.877382559	0.484579626	0.564731574	0.170537303	0.60738147
0.868943511	0.082942033	0.075165562	0.162637853	0.673636263	0.661696308
0.10315023	0.099056848	0.841558288	0.627688578	0.602580182	0.134955754
0.041172735	0.040902217	0.881351155	0.692644782	0.69280079	0.175233712
0.867032883	0.865487021	0.081844328	0.159469969	0.161626684	0.621322562
0.881351636	0.027442419	0.027457361	0.175431227	0.694781437	0.695431794
0.434996965	0.877389198	0.454909796	0.574037422	0.170555408	0.6076759
0.825549796	0.136664607	0.127138554	0.118878019	0.603593698	0.576067048
0.856311764	0.09133227	0.07418586	0.149326755	0.646162676	0.625446526
0.877403018	0.44877823	0.439528731	0.170646533	0.559814051	0.527829393
0.328743844	0.826091052	0.329289655	0.585442174	0.118545848	0.612623266
0.448128009	0.435921809	0.877392737	0.575578971	0.542618637	0.170577058
0.23411987	0.241418712	0.826000822	0.608560097	0.581145319	0.119105022
0.055363765	0.872861803	0.875114677	0.655001612	0.16492499	0.169010209
0.133729924	0.862604367	0.843823963	0.567816308	0.155204439	0.148160962
0.446112872	0.877352657	0.44450164	0.576439745	0.170563397	0.606941232
0.462140887	0.415580275	0.877693865	0.626095383	0.589660673	0.170488372
0.041256642	0.040992114	0.881341323	0.692503146	0.692907507	0.17526013
0.8752157	0.883868858	0.054271256	0.170745842	0.175479875	0.690440557
0.843848263	0.846435052	0.845361964	0.256593333	0.257196846	0.256921906
0.480768894	0.401475137	0.877558934	0.590035109	0.548257699	0.170413277
0.00000278	0.00000292	0.00000285	0.699180635	0.698933375	0.699415293
0.405700236	0.87726027	0.480684025	0.532757082	0.170560737	0.575061959
