Va	Vb	Vc	Ia	Ib	Ic
0.40433217	0.877935444	0.473714797	0.586262507	0.170675811	0.625757334
0.864440606	0.855699742	0.111402609	0.156105528	0.155212208	0.59231194
0.873464901	0.055344957	0.870935015	0.168100666	0.654921915	0.164507961
0.450295267	0.426863566	0.877173558	0.626368685	0.593231211	0.170250492
0.131495302	0.82620877	0.148512609	0.575417616	0.118967625	0.603910027
0.870724734	0.874003122	0.05533667	0.164208908	0.168220511	0.654891524
0.415637061	0.877411952	0.469942111	0.53620256	0.170574143	0.575466512
0.438844159	0.877718773	0.438848897	0.59640443	0.170712034	0.626509146
0.083354337	0.102189285	0.841314833	0.630819453	0.606013651	0.134853728
0.872745402	0.874088431	0.047241094	0.164942908	0.16812128	0.656989181
0.877364131	0.450388899	0.42696069	0.170610065	0.626351756	0.593260145
0.062426362	0.062482004	0.06237717	0.63825201	0.638391489	0.638538497
0.823927797	0.823735424	0.825770333	0.298808579	0.29866667	0.298767548
0.824825294	0.823059738	0.824743052	0.298625724	0.298582913	0.298318699
0.437541936	0.445304498	0.877382762	0.591405618	0.562064027	0.170392171
0.133733619	0.861894896	0.843475358	0.567744185	0.155230956	0.148236387
0.124685663	0.10306662	0.841729567	0.623867296	0.598142695	0.13514013
0.104030657	0.867192779	0.866783002	0.615774096	0.159234179	0.162879819
0.438769507	0.877570009	0.438774217	0.596446182	0.170702598	0.626554792
0.100676097	0.135433807	0.17790612	0.618174864	0.620087765	0.621982853
0.86617816	0.081519775	0.866851323	0.161689573	0.621371193	0.159631927
0.079720939	0.07154501	0.855502399	0.648088686	0.627368071	0.148952331
0.875612412	0.883686039	0.0000055	0.17075659	0.175562871	0.69937463
0.869140174	0.082633931	0.074910348	0.162567763	0.672658423	0.659572727
0.426997281	0.877427695	0.450415882	0.593023268	0.170608571	0.626439999
0.082828467	0.85579829	0.068694143	0.633532392	0.148992112	0.654216827
0.027327585	0.881649253	0.0276642	0.695366721	0.175052526	0.694377128
0.877579696	0.450495313	0.427069329	0.170663578	0.626547155	0.593053638
0.877376299	0.483930138	0.399949084	0.170561997	0.608661555	0.56604097
0.822704427	0.823380694	0.822089365	0.297629291	0.298714944	0.297539359
0.876168773	0.877200081	0.876405998	0.170493652	0.170640092	0.170252172
0.132310567	0.82626171	0.149441305	0.576273524	0.118910476	0.604203938
0.881564922	0.041098353	0.040894748	0.175452856	0.692795823	0.692916435
0.824879362	0.190550323	0.202749083	0.118710097	0.612130097	0.579639049
0.877598706	0.462097862	0.415527959	0.170514245	0.626134665	0.589882276
0.877543643	0.473519127	0.404135971	0.170570918	0.625962087	0.586066503
0.855395644	0.102837264	0.07904517	0.149279608	0.643492679	0.623529692
0.844198767	0.13371467	0.863375596	0.148496544	0.567775039	0.155754929
0.415503273	0.877551133	0.462074838	0.589941681	0.170687392	0.62607197
0.877505021	0.473495282	0.404121256	0.17060531	0.62576246	0.586066299
0.848722572	0.846572571	0.847882956	0.257378728	0.257099249	0.257035867
0.865723823	0.087709894	0.86680213	0.161864169	0.61933655	0.159305219
0.841723484	0.10289917	0.098932896	0.135017859	0.627686876	0.602600059
0.855764982	0.102843856	0.078863192	0.149590318	0.643283779	0.623696245
0.87415489	0.872191488	0.872586233	0.188995246	0.188416016	0.188211418
0.884864101	0.027327301	0.877133954	0.176427236	0.695243214	0.170701973
0.104115063	0.866186963	0.866523685	0.615393442	0.159104843	0.162906207
0.066336683	0.078349242	0.855685015	0.653451363	0.633380401	0.149439348
0.092916381	0.080996754	0.868975354	0.667808236	0.656848398	0.162715279
0.027578536	0.881858658	0.027718605	0.695281482	0.175357194	0.695165999
0.054304508	0.881554397	0.054623763	0.691053882	0.175408118	0.690155361
0.470315392	0.419771225	0.877570775	0.559555657	0.521101959	0.170459395
0.848246615	0.847326541	0.846478205	0.257277277	0.257507882	0.256952686
0.062491524	0.062476585	0.062466749	0.638305406	0.638494983	0.638494593
0.446362727	0.877385312	0.437089221	0.546058196	0.170610829	0.5757523
0.09175646	0.074402066	0.855100614	0.645365587	0.6256223	0.14873011
0.143090702	0.826099291	0.148969042	0.576203363	0.119266647	0.605658977
0.111397664	0.864904307	0.855815226	0.592204846	0.156287046	0.155364039
0.863600151	0.85647011	0.123136733	0.155722713	0.156482149	0.588452183
0.876781404	0.463569427	0.489581381	0.170784325	0.562784774	0.533948318
0.856948662	0.079541399	0.071783872	0.149234307	0.647901398	0.627477483
0.480697078	0.401353071	0.877372974	0.590160115	0.548028601	0.170468707
0.877356222	0.473615231	0.410057607	0.170524411	0.609060814	0.569267052
0.874018787	0.047234289	0.8703551	0.168551031	0.656825022	0.164378951
0.130356123	0.863130044	0.857111431	0.586442274	0.154706644	0.157180284
0.877686217	0.470317571	0.419885246	0.170739501	0.559639573	0.520957204
0.846693989	0.15397484	0.858657004	0.150915247	0.56086297	0.15158551
0.877223047	0.877457729	0.877431338	0.170599111	0.170615037	0.170138261
0.079632876	0.082640595	0.86883107	0.677563855	0.665304106	0.162582849
0.869136063	0.090520368	0.076150051	0.162661422	0.672101085	0.659838812
0.867032389	0.866375435	0.088294953	0.159597037	0.162432757	0.619673434
0.862248084	0.842201264	0.133721517	0.154905801	0.147664287	0.56766197
0.086196498	0.869056308	0.083266421	0.665094968	0.162463391	0.677131852
0.040854973	0.873932878	0.881135184	0.693055721	0.170013527	0.175080114
0.40578128	0.877348884	0.480695401	0.532734771	0.170630612	0.575050678
0.013899366	0.014584938	0.014035067	0.696761199	0.69730285	0.696149492
0.413898568	0.877394882	0.475682821	0.566036203	0.170676227	0.60548406
0.877368846	0.451182759	0.431791213	0.170511001	0.608785159	0.575368183
0.427152255	0.877742089	0.450575218	0.593066597	0.170814005	0.626454964
0.402795845	0.877365596	0.485792008	0.564888633	0.170493948	0.6075993
0.872953284	0.876201491	0.075941469	0.164772148	0.169431648	0.650566999
0.87740796	0.450745702	0.432445712	0.170560811	0.609761507	0.576354189
0.864656014	0.854927245	0.111420363	0.155964933	0.154922321	0.591914804
0.883171341	0.040857852	0.875595013	0.175087455	0.693025144	0.170675813
0.041030874	0.882102789	0.041655971	0.69277504	0.175726765	0.692052386
0.435537097	0.877257894	0.454716718	0.574232139	0.170563714	0.60803857
0.841890668	0.092679355	0.099680709	0.134790487	0.629626152	0.604385138
0.874568006	0.065240485	0.871407905	0.168533164	0.652757876	0.164754547
0.040862007	0.875237417	0.883708283	0.693146924	0.170666329	0.175619764
0.081034709	0.855766423	0.067425932	0.631529723	0.149038415	0.652343545
0.091736876	0.074179023	0.855274359	0.645321134	0.625806529	0.14869976
0.87512467	0.075985542	0.871435656	0.168907268	0.650418253	0.164516594
0.073847984	0.855212372	0.08213759	0.627997255	0.149428284	0.647840568
0.875014082	0.076026277	0.871094515	0.168500195	0.650492156	0.16452553
0.111386061	0.864937343	0.855605221	0.592042994	0.156327247	0.155295038
0.124915578	0.103458054	0.841665005	0.623397056	0.598260537	0.135139639
0.00000482	0.00000489	0.881493846	0.699328784	0.699105609	0.175029234
0.419717543	0.877448062	0.470247996	0.520935564	0.170695478	0.559670368
0.87800802	0.485053195	0.393206944	0.170732826	0.625206189	0.58263152
0.843593273	0.137222229	0.861101776	0.148935247	0.566199533	0.154455747
0.081624045	0.301623254	0.287638541	0.619710772	0.617529605	0.617187803
0.00000492	0.00000495	0.881907639	0.699278247	0.699311407	0.175061405
0.480725557	0.405747405	0.877244353	0.5745467	0.532022601	0.170544416
0.855528985	0.116688255	0.863116858	0.155372248	0.590437192	0.155267852
0.113770347	0.100097151	0.842088235	0.625867203	0.600735176	0.135111609
0.869066724	0.097861256	0.080648837	0.162768204	0.669920138	0.656912159
0.438713272	0.438708551	0.877448091	0.626618942	0.596367293	0.170489091
0.841648898	0.124611781	0.103662726	0.135303436	0.623080714	0.598048006
0.059509811	0.064102725	0.062848144	0.652388887	0.652190065	0.651524916
0.062503388	0.062479196	0.062461518	0.638281263	0.638278035	0.638495064
0.877278658	0.462414999	0.421020658	0.170576227	0.608620502	0.572150145
0.286938754	0.299665369	0.825612751	0.615356045	0.584848223	0.118695622
0.855318213	0.111433482	0.864479449	0.154802691	0.592241377	0.155726696
0.875258879	0.07602039	0.871253565	0.168520657	0.650474884	0.164555334
0.877455724	0.437835603	0.443744793	0.170549099	0.590762735	0.561140606
0.099650237	0.841913076	0.092699735	0.604370727	0.134884263	0.629762757
0.862430669	0.843342844	0.133711242	0.155121878	0.147822367	0.567819329
0.866469751	0.866706212	0.104342658	0.159065897	0.162809729	0.615161478
0.08185605	0.867289461	0.86624476	0.621028812	0.159681022	0.161883586
0.341156374	0.825328011	0.338549535	0.587921286	0.118521236	0.615279686
0.103236425	0.078844642	0.85624037	0.64321869	0.623708567	0.149690888
0.419901957	0.877651805	0.470266723	0.520887351	0.170584301	0.559677425
0.127947568	0.321562955	0.224858935	0.62262345	0.623184466	0.620927254
0.855327818	0.064337448	0.078044307	0.148816942	0.653400162	0.632565164
0.860534434	0.844909858	0.147509325	0.152741004	0.150319292	0.562881152
0.062505275	0.062483636	0.062457178	0.638411028	0.63844272	0.638539375
0.099343383	0.841786543	0.103025848	0.602347243	0.134902176	0.627667627
0.422227192	0.877864846	0.459290226	0.555169489	0.170343743	0.590441456
0.877290898	0.462472002	0.420958497	0.170547436	0.608631091	0.572153656
0.841816664	0.102965164	0.099178364	0.135041254	0.627730643	0.602569314
0.059475661	0.06415104	0.06278326	0.652291457	0.65201618	0.651561276
0.083464989	0.868883181	0.084836023	0.660768216	0.162621524	0.672907106
0.080887913	0.084357615	0.86896606	0.679623156	0.666593752	0.162501378
0.100620968	0.841926407	0.11393589	0.601057293	0.135125751	0.625942033
0.091857657	0.078983548	0.869257508	0.668292642	0.657084588	0.162657493
0.868958796	0.089322613	0.075433105	0.162665618	0.672183753	0.659743643
0.87773505	0.448913503	0.439726412	0.170673862	0.559930021	0.527592545
0.111498894	0.864189716	0.855558996	0.591951624	0.155855152	0.155118896
0.459078829	0.422126676	0.877645064	0.590877243	0.555033261	0.170694148
0.459061443	0.422135281	0.87762773	0.59085774	0.555018916	0.170594623
0.867075925	0.104032397	0.86630769	0.162765346	0.615243868	0.159035099
0.856157983	0.116692291	0.86425521	0.155844041	0.590319421	0.15603534
0.139951216	0.131125376	0.825574283	0.606069322	0.577467642	0.119174223
0.227195498	0.214906914	0.825559907	0.608551208	0.583480407	0.119163713
0.874926732	0.047239709	0.871018882	0.168532284	0.656867205	0.164450218
0.07700496	0.867824827	0.865717492	0.623103439	0.160344212	0.16180884
0.85679528	0.123042795	0.863918913	0.156484519	0.588469804	0.155491669
0.449906324	0.426481459	0.876402287	0.626566374	0.592979557	0.170428423
0.068793498	0.071385751	0.855123569	0.649829679	0.62976981	0.14890717
0.404381606	0.878040871	0.473769791	0.586171618	0.170890593	0.625905758
0.073773039	0.855432024	0.082238811	0.62789892	0.149353856	0.648280079
0.459012872	0.425757505	0.877348242	0.575453151	0.539343818	0.170581695
0.425679787	0.877345221	0.459088471	0.539487281	0.170480701	0.575600238
0.079937277	0.869166436	0.092132244	0.659137701	0.162733701	0.670588243
0.860550607	0.84438106	0.137280214	0.153868841	0.148613245	0.566207772
0.059975334	0.060038328	0.059986945	0.640170318	0.640114894	0.63987219
0.856749614	0.091391115	0.074200388	0.149453507	0.645674361	0.626004738
0.435957367	0.877439518	0.448148397	0.542712456	0.170600958	0.575624164
0.075990786	0.871676695	0.874774987	0.650529257	0.164581578	0.168685487
0.045476665	0.048120277	0.05350931	0.655815771	0.656077846	0.656224249
0.07703736	0.868486783	0.866111274	0.623260917	0.16031068	0.161272779
0.867052328	0.865463096	0.08194453	0.159385078	0.161592091	0.621399461
0.841830542	0.113804043	0.100414929	0.135173854	0.626202294	0.600850568
0.027746184	0.027394892	0.027877458	0.694892463	0.69449617	0.695280174
0.077047634	0.868576217	0.866107797	0.623298992	0.160261744	0.161400659
0.856797831	0.130496541	0.862259359	0.15658991	0.586495094	0.154357177
0.877476031	0.480838206	0.410168801	0.17044329	0.559328511	0.517587091
0.878045474	0.485072958	0.393222699	0.170800549	0.625119032	0.582544043
0.869125884	0.097727812	0.080197928	0.162745265	0.669925242	0.657297534
0.147419664	0.860060466	0.845629897	0.5626963	0.152709034	0.150484131
0.877379397	0.451015711	0.431962205	0.170529061	0.608892595	0.575528533
0.861778761	0.843210844	0.133718113	0.154876586	0.147754839	0.56776988
0.877380447	0.459545767	0.429476255	0.170840292	0.55977547	0.52456051
0.091008586	0.076021067	0.869070119	0.668997359	0.659518468	0.1625934
0.239637113	0.238801605	0.825351508	0.610003944	0.582265962	0.118330596
0.15948521	0.146580714	0.095682267	0.617776989	0.616537089	0.615321461
0.882445303	0.013706567	0.876486412	0.175028671	0.697335135	0.170555366
0.104237182	0.866620036	0.867030896	0.615377944	0.1592312	0.162813293
0.871327838	0.875944203	0.075946048	0.16477371	0.169400176	0.650441421
0.882558289	0.0000055	0.876471191	0.174954085	0.699379454	0.170414306
0.054275607	0.876262334	0.883231134	0.690522376	0.17106448	0.175345208
0.877610794	0.438794844	0.438790107	0.170855515	0.626587374	0.596439098
0.130373337	0.863560498	0.858040603	0.586430956	0.154730652	0.157198076
0.480881264	0.401418354	0.877612361	0.590328165	0.548194811	0.170855015
0.087820784	0.867025307	0.865731879	0.61988616	0.159642634	0.161976257
0.876705825	0.884557673	0.054273853	0.170965633	0.17561476	0.690508536
0.139945777	0.131719789	0.825540683	0.60423461	0.575944567	0.119050073
0.411612363	0.877537084	0.469994094	0.551575804	0.170518644	0.590518424
0.877468002	0.884144791	0.054285885	0.171355569	0.175847718	0.690667929
0.411509483	0.877264923	0.469834643	0.551737394	0.170325109	0.590528544
0.130456083	0.863554839	0.857145565	0.586554238	0.155175046	0.15732937
0.147432537	0.860564709	0.845804343	0.56268634	0.153118769	0.150837705
0.100287863	0.842000936	0.114064811	0.601055657	0.135121561	0.625959203
0.480721415	0.406003448	0.877504443	0.574777052	0.532334619	0.170569327
0.027501058	0.881946612	0.027831461	0.694942476	0.175096195	0.695167787
0.877334568	0.45902645	0.425562359	0.170588041	0.575672809	0.539640119
0.884330533	0.040848398	0.875531355	0.175573641	0.692884965	0.170480551
0.841931644	0.092697787	0.09968507	0.134786766	0.629646198	0.604392957
0.147449687	0.859902097	0.844566082	0.562796877	0.152509326	0.150433914
0.099746558	0.841566456	0.092745869	0.604352146	0.134843279	0.629670309
0.438754217	0.438749515	0.877530036	0.626662352	0.596323444	0.170659833
0.41526205	0.877054747	0.46182016	0.589766396	0.170532883	0.626060142
0.439560709	0.877397797	0.448753958	0.527540831	0.170838115	0.56001343
0.054277288	0.875875277	0.883516564	0.69054755	0.170905796	0.175406889
0.081604022	0.869225023	0.099295658	0.656379666	0.162643343	0.669014951
0.87665472	0.877095024	0.87678618	0.170055232	0.170809812	0.170636627
0.437090714	0.446344452	0.877366991	0.575775969	0.54606956	0.170587012
0.465743116	0.424534383	0.877377623	0.608774348	0.572180553	0.170604368
0.123130873	0.863250324	0.856275246	0.588618009	0.155220287	0.156316346
0.876135396	0.884091987	0.0000055	0.17084002	0.175801431	0.699390442
0.48489826	0.393037759	0.877685097	0.62520485	0.582597993	0.170758199
0.413389077	0.877421078	0.475888126	0.566263002	0.170607242	0.606155491
0.877427335	0.469874583	0.415520001	0.170589776	0.57562346	0.536328965
0.438400742	0.438395994	0.876822818	0.626549012	0.596312304	0.170427223
0.845637976	0.141774812	0.861002404	0.150175357	0.564586897	0.153973303
0.878620642	0.877384378	0.879024783	0.170803615	0.170609188	0.171166047
0.877756104	0.877516874	0.878958491	0.170988895	0.170685418	0.171065857
0.882519302	0.027525685	0.02726173	0.175394472	0.695028186	0.694962159
0.872914788	0.874240342	0.872780609	0.188299459	0.18930106	0.189267538
0.040805641	0.046749501	0.075042343	0.677437176	0.677913556	0.680617729
0.411587166	0.877500081	0.469986305	0.551590042	0.170411609	0.590536983
0.040858006	0.876342048	0.883362167	0.693098712	0.170550991	0.1756393
0.113741785	0.100316378	0.841430219	0.626098569	0.600683935	0.135013558
0.877999625	0.448979708	0.439924528	0.170667376	0.5599916	0.527614086
0.421937426	0.877148456	0.458830334	0.555109328	0.170151773	0.590744247
0.137180966	0.861356191	0.843615881	0.566297819	0.153971995	0.148680782
0.87772888	0.471347459	0.480343727	0.170554382	0.559798671	0.530763878
0.874663444	0.076027192	0.870534328	0.168710771	0.650562631	0.164580486
0.402615953	0.877405451	0.485902296	0.564987345	0.170493419	0.607614748
0.013748518	0.01395577	0.013920301	0.697178161	0.697208973	0.697500913
0.866636219	0.865605991	0.08177446	0.159270899	0.161349766	0.621450299
0.103053485	0.099159732	0.841711575	0.627788559	0.60266291	0.134955985
0.027578536	0.881858658	0.027718605	0.695281482	0.175357194	0.695165999
0.541010241	0.877412327	0.56438046	0.535221755	0.170572951	0.564223806
0.860902682	0.844173665	0.141773849	0.153632429	0.149686369	0.564486198
0.041155874	0.881506998	0.041773668	0.693039028	0.17545513	0.692572995
0.877348598	0.459017925	0.425582818	0.170584011	0.575639951	0.539612859
0.104182224	0.866724842	0.867439409	0.615478016	0.159183923	0.162826996
0.869094696	0.082654488	0.074753664	0.162565375	0.673019162	0.65957183
0.875898221	0.047214819	0.871236705	0.168574134	0.656697963	0.164249277
0.088052451	0.867361575	0.865859786	0.619196899	0.159756827	0.161947261
0.392934106	0.877466135	0.48478314	0.582442833	0.170525315	0.625278382
0.458996792	0.421943591	0.877382961	0.59077232	0.555087852	0.170402141
0.145698606	0.134462417	0.096734183	0.618529924	0.61740245	0.616007149
0.872123984	0.874907978	0.046239906	0.165118021	0.168600316	0.658068978
0.111383353	0.864874439	0.855244633	0.592032495	0.156336395	0.155299647
0.86908982	0.077038663	0.080467605	0.16256631	0.676764896	0.664393173
0.866816556	0.103994414	0.867346878	0.162565622	0.615604687	0.159168996
0.873046772	0.876439685	0.075952365	0.165031527	0.168981986	0.650455829
0.040827203	0.046620455	0.074927799	0.677213237	0.67825096	0.680676219
0.856710713	0.091343023	0.074183083	0.149438851	0.645792624	0.626030372
0.07252803	0.855377859	0.071373935	0.629760537	0.14911937	0.649601473
0.128267049	0.10873144	0.146751474	0.6163483	0.614716087	0.615730168
0.877407445	0.450745147	0.432445639	0.17056094	0.609761902	0.576353921
0.855276324	0.064281128	0.077953473	0.148867964	0.653415207	0.632410774
0.086258493	0.869257992	0.083268559	0.665396307	0.162460464	0.677420232
0.855696611	0.079540452	0.071821356	0.148886976	0.647901887	0.627587568
0.877671341	0.484894508	0.393026386	0.170736529	0.625184702	0.582604512
0.465731632	0.424165156	0.87739048	0.608773669	0.572080199	0.170562355
0.549488759	0.877364757	0.543567267	0.531418773	0.170586519	0.561036849
0.877226574	0.470307677	0.411806986	0.170386272	0.590659488	0.551626882
0.882119474	0.040851153	0.874253187	0.17513015	0.692956828	0.170339746
0.066753576	0.079552907	0.853902788	0.652904891	0.633293121	0.148804975
0.854789442	0.107515009	0.864689263	0.154898898	0.593921141	0.156996211
0.04197906	0.041051546	0.04252276	0.692797064	0.691725914	0.692368116
0.826142321	0.216695874	0.231848979	0.118749223	0.609651292	0.581650372
0.877417694	0.483559302	0.400300154	0.17054932	0.608628843	0.566025302
0.877385176	0.469842643	0.415538012	0.170594155	0.57560479	0.53633273
0.881561549	0.028079256	0.027602009	0.175350176	0.694963648	0.695398021
0.141103747	0.132582975	0.825616542	0.606021825	0.577357515	0.119350091
0.077681594	0.080980607	0.86896632	0.678254919	0.666147257	0.162531923
0.077080471	0.867351077	0.86448215	0.62298798	0.160287229	0.16122925
0.171844058	0.160553757	0.095843447	0.618586701	0.616848022	0.615882373
0.415526087	0.877578199	0.462079525	0.589646874	0.170807674	0.62617246
0.877516004	0.448722322	0.439716044	0.170884494	0.559862693	0.527570229
0.856782394	0.111464787	0.865825828	0.155598586	0.592162342	0.156742358
0.067555861	0.067708766	0.067749214	0.636421523	0.63662997	0.636777311
0.072893929	0.855941522	0.071286682	0.629605162	0.14956136	0.650198462
0.877319016	0.44809601	0.435840168	0.170582163	0.575621041	0.542741339
0.856042116	0.091302552	0.074095658	0.149418355	0.645751582	0.625509104
0.825520355	0.136831566	0.128112009	0.118597127	0.606637181	0.577287114
0.083376626	0.102169246	0.841530818	0.631109841	0.606271692	0.134855754
0.438711656	0.438706966	0.877444688	0.626631373	0.596455645	0.170669798
0.876608261	0.884052767	0.027324438	0.170661228	0.175801354	0.695196467
0.081425055	0.869292302	0.099266109	0.656481031	0.16263703	0.669231947
0.432580947	0.877383139	0.448022917	0.558249027	0.170434243	0.59093115
0.092752071	0.099688821	0.841388277	0.629549697	0.604417685	0.134829407
0.486830583	0.40167912	0.877423466	0.607396106	0.564329271	0.170524804
0.82603087	0.13698428	0.126392651	0.119171493	0.60414542	0.57716869
0.865131396	0.076980621	0.867131209	0.160911609	0.622690858	0.159934573
0.868957918	0.080381926	0.077405935	0.162524955	0.674721347	0.663045046
0.041131678	0.040953956	0.880745813	0.692520718	0.693133545	0.175004405
0.856617735	0.102824147	0.078849221	0.149490914	0.643437563	0.623690461
0.877584624	0.480855308	0.410263007	0.170416649	0.559314653	0.517597424
0.447763111	0.432434732	0.877054338	0.590833014	0.558349362	0.170149243
0.079816033	0.071523521	0.855488526	0.647761304	0.627641146	0.148906077
0.281166609	0.293796397	0.825665352	0.613102333	0.58399129	0.11870547
0.013964914	0.881307717	0.014100724	0.697093579	0.175350457	0.696863492
0.067559532	0.067726712	0.0678331	0.636327672	0.636533126	0.636768739
0.04523502	0.871937524	0.873769627	0.659029249	0.165301684	0.168173625
0.866530161	0.86668445	0.095492032	0.159483985	0.162733766	0.617443382
0.470085869	0.419554844	0.877111799	0.559578693	0.521017877	0.170477628
0.57298075	0.877189204	0.544065325	0.537890168	0.170400551	0.564651621
0.437114127	0.446377592	0.877424591	0.57580054	0.546053409	0.17057524
0.432581862	0.877382579	0.448022276	0.55824906	0.1704344	0.590931139
0.882978381	0.013706753	0.876290455	0.175046477	0.697339382	0.17044623
0.448820703	0.439555949	0.877447503	0.559669198	0.527869424	0.170373575
0.411477637	0.877183867	0.469786684	0.551618534	0.170278076	0.590533904
0.877285075	0.437151511	0.444202008	0.17054697	0.591505331	0.561906409
0.074685273	0.074980206	0.075107826	0.634150656	0.634366492	0.634564795
0.10218042	0.841585008	0.083437827	0.606093627	0.134706265	0.631438255
0.874568327	0.065235931	0.871379637	0.168674883	0.65275685	0.16464553
0.877493211	0.480545161	0.405745933	0.170583785	0.575405552	0.532948742
0.411485336	0.877229579	0.469831627	0.551642083	0.170215157	0.590536774
0.448142216	0.435911898	0.877412646	0.575826369	0.542883905	0.170552155
0.027325725	0.876455831	0.883842893	0.695227358	0.171009106	0.175735498
0.876823995	0.884253654	0.013707146	0.170866281	0.176141592	0.697382699
0.086265693	0.077464142	0.868891468	0.67280113	0.661603134	0.162585722
0.841629516	0.12466858	0.103611591	0.135315439	0.622962219	0.598032496
0.054618361	0.054278157	0.881028386	0.690083054	0.690568974	0.175277123
0.484870443	0.393007579	0.877626311	0.625437967	0.582471433	0.170642173
0.131695165	0.825968514	0.149648351	0.576072883	0.118948996	0.604166308
0.045138486	0.872440113	0.874437227	0.65903847	0.165277179	0.168173752
0.881363804	0.041220515	0.040827832	0.175384244	0.69252969	0.693099968
0.458775727	0.421775456	0.876990068	0.590570798	0.554901487	0.170348891
0.446383594	0.877441906	0.437124027	0.546081145	0.170606787	0.575759269
0.877904319	0.438076683	0.443967314	0.170666141	0.59122027	0.561578362
0.862903335	0.856309653	0.13036978	0.155109881	0.156866499	0.586481411
0.00000491	0.881776366	0.00000489	0.699306053	0.175354815	0.699193086
0.86901536	0.097772326	0.080893014	0.162764271	0.666806429	0.653972546
0.824407161	0.823133079	0.82480251	0.298881629	0.298625802	0.298824827
0.05856831	0.038038125	0.076709724	0.67946055	0.678841667	0.680165695
0.871277654	0.875993319	0.065178304	0.164780297	0.169074267	0.652691172
0.860660924	0.846034283	0.147407983	0.153287488	0.150851067	0.562757173
0.484984159	0.393141017	0.877872848	0.625170971	0.582583119	0.170785997
0.070528076	0.071249456	0.074135095	0.650239939	0.649822583	0.650288832
0.877844584	0.481042343	0.410322741	0.170418994	0.559356151	0.517641921
0.045570485	0.0479372	0.053522925	0.655731954	0.6568285	0.656792162
0.079758514	0.071519903	0.855557741	0.647603349	0.627639701	0.149010158
0.102139396	0.841524586	0.083405679	0.605504186	0.134676192	0.630710866
0.877456208	0.450686292	0.43236064	0.170547065	0.609465232	0.576123966
0.856166593	0.091328352	0.074068395	0.149241348	0.646015487	0.62574625
0.405794439	0.877357742	0.480654232	0.532758548	0.170549897	0.575079195
0.059011975	0.038716044	0.077939444	0.679820345	0.67902689	0.68021661
0.877430786	0.440356264	0.444283779	0.17064	0.60976133	0.579344423
0.027322077	0.876476925	0.88294047	0.695106765	0.170731341	0.175278615
0.846335382	0.153976081	0.85859709	0.150902579	0.560862465	0.15160486
0.865798161	0.081516451	0.867506236	0.161464068	0.621174427	0.159599023
0.855986335	0.102857359	0.078850255	0.149560741	0.643312603	0.623702519
0.09061455	0.079045567	0.869223321	0.668406008	0.657118377	0.162652806
0.877655475	0.459675738	0.429615052	0.170630363	0.559633179	0.524557785
0.484632049	0.392774404	0.877154372	0.625357494	0.582475604	0.170581665
0.841649465	0.124956093	0.103829674	0.135300569	0.623293749	0.597963875
0.877616251	0.438797566	0.438792832	0.170799612	0.626580121	0.596425098
0.881573177	0.027617331	0.0277381	0.175353161	0.694987181	0.695183979
0.12309161	0.865136669	0.857661496	0.588483441	0.155743825	0.156922394
0.091927586	0.074267791	0.855757759	0.645514072	0.625853611	0.149376324
0.099744659	0.841578549	0.092764501	0.604347737	0.134839574	0.629679379
0.841344039	0.083373721	0.102209678	0.134780953	0.631367324	0.606199589
0.872548447	0.875867197	0.065199803	0.165476591	0.169040877	0.652820836
0.01383369	0.013983496	0.013797606	0.697325829	0.696983968	0.69719879
0.43922758	0.878485915	0.439232268	0.596340962	0.170842952	0.626569203
0.875437834	0.065222612	0.871380898	0.168751715	0.652824437	0.164429353
0.127156982	0.293416607	0.198911207	0.621695468	0.624509427	0.623573102
0.856526759	0.116705743	0.864455298	0.155894298	0.590243854	0.156201532
0.41563118	0.877441392	0.469951784	0.536227621	0.170547579	0.575498666
0.877348739	0.440467051	0.444174581	0.170618512	0.60987066	0.579581158
0.876011738	0.877606292	0.877877521	0.170713824	0.170742517	0.171104725
0.447867999	0.432541495	0.877269799	0.590890164	0.558276493	0.170241829
0.877753842	0.459683326	0.429711609	0.170421252	0.55979884	0.524389325
0.429653896	0.877591188	0.45958344	0.524319032	0.17086958	0.559883275
0.876396474	0.882562751	0.0000055	0.17073914	0.175367843	0.699226075
0.054676926	0.055194719	0.054852498	0.690206463	0.690238222	0.690386619
0.882936138	0.013707201	0.874973444	0.175018928	0.697389088	0.170425205
0.877190831	0.447825508	0.432893216	0.170289672	0.590960589	0.558562636
0.040855302	0.87594902	0.883143813	0.693052386	0.170551687	0.175637602
0.066252849	0.078379961	0.854307467	0.653741829	0.634182557	0.148906957
0.245571327	0.243320379	0.826220761	0.607113147	0.580705388	0.119014335
0.446336354	0.877340261	0.437070407	0.546068104	0.170592853	0.575723561
0.445760605	0.877457136	0.437781129	0.56294198	0.170637419	0.592616516
0.45027169	0.426846326	0.877132425	0.626341061	0.593195836	0.170289762
0.826282791	0.221152299	0.234953846	0.118807045	0.609640318	0.582336368
0.062505275	0.062483636	0.062457178	0.638411028	0.63844272	0.638539375
0.103046227	0.099101681	0.841768466	0.627731496	0.602622983	0.134994696
0.470386313	0.419824285	0.877702402	0.559695096	0.521033755	0.170798215
0.099272766	0.841802532	0.103205914	0.602549916	0.134912483	0.627677857
0.0731451	0.855143399	0.071784451	0.629155599	0.148728405	0.649073454
0.480720324	0.410036457	0.877225804	0.559322983	0.517535263	0.170559168
0.844452268	0.141789014	0.861144022	0.149479563	0.564664828	0.153433184
0.871807483	0.874774689	0.065179702	0.164810923	0.168593283	0.652833641
0.867515768	0.866784697	0.095434558	0.159250423	0.1625608	0.617924181
0.88127303	0.0000049	0.00000477	0.175372322	0.699072893	0.699056823
0.233421045	0.242176698	0.825566841	0.610615838	0.579031701	0.118620972
0.103030488	0.841859701	0.125018293	0.59859787	0.135128752	0.623573805
0.06764539	0.067625333	0.06786255	0.636204893	0.636347043	0.636633652
0.873698341	0.065234445	0.870741572	0.168696391	0.652749874	0.164590992
0.454898356	0.436031624	0.877472108	0.61096041	0.577161164	0.170565062
0.874443744	0.0492581	0.872857509	0.168360052	0.659147716	0.165342409
0.041015946	0.88210376	0.041662892	0.692791355	0.175733175	0.692044567
0.860303501	0.846015787	0.147401542	0.153278531	0.15093838	0.562696767
0.424396788	0.877402722	0.465112292	0.573180126	0.170546385	0.609861785
0.415580811	0.877350318	0.470056172	0.536013454	0.17051047	0.575265466
0.841609121	0.124713921	0.103638824	0.13531679	0.622957787	0.598032871
0.445180224	0.877353104	0.438015653	0.56283728	0.170462776	0.592550631
0.044362644	0.872381875	0.873284611	0.659284236	0.165678531	0.168323698
0.882306647	0.013703873	0.876144016	0.17551855	0.697211447	0.171044552
0.825484888	0.200409528	0.199813449	0.118419174	0.612563393	0.580985747
0.076993852	0.867565491	0.865671396	0.623063938	0.160159939	0.161679332
0.344314054	0.826319861	0.330450452	0.58391791	0.118788153	0.615179215
0.091740979	0.074186571	0.855272791	0.645322854	0.625799555	0.14869692
0.432805433	0.877709057	0.44811	0.558283902	0.170827978	0.591380499
0.087984966	0.867647308	0.865913799	0.619259229	0.159717966	0.161946458
0.013842484	0.014223235	0.013895674	0.696714577	0.697550393	0.696322011
0.013729352	0.01395494	0.013909179	0.696862763	0.697004644	0.696011468
0.868820389	0.076229199	0.079244132	0.162528277	0.67643328	0.66433455
0.485842666	0.402340816	0.877420174	0.610070961	0.566790613	0.170487742
0.877797895	0.876907952	0.876769456	0.170878393	0.170624597	0.170414485
0.05461687	0.054274878	0.881757602	0.689925667	0.690183736	0.175655872
0.080499575	0.855048682	0.104594343	0.623420372	0.149256269	0.643237113
0.877428296	0.462930647	0.420633592	0.170611933	0.60950586	0.572900135
0.869141272	0.082748287	0.074784609	0.162564648	0.67269603	0.659564184
0.132214165	0.826216756	0.149565158	0.576258103	0.118901286	0.60407404
0.869021218	0.090389105	0.07645755	0.162696976	0.67153066	0.659367169
0.242816117	0.242850188	0.825890512	0.608905736	0.583126073	0.119087684
0.056436259	0.044889555	0.075254063	0.67468656	0.674768267	0.675522628
0.079749129	0.071498108	0.855791579	0.64814945	0.62721926	0.149294511
0.876612527	0.877189809	0.876666997	0.170407361	0.170680985	0.170435819
0.07485951	0.074889302	0.074987242	0.63417509	0.63434309	0.634673383
0.075983669	0.871830875	0.87504536	0.650599157	0.16458804	0.168543173
0.111498894	0.864189716	0.855558996	0.591951624	0.155855152	0.155118896
0.865968106	0.081501735	0.867014404	0.161615348	0.621336663	0.159630692
0.877388496	0.462713141	0.420669631	0.170663893	0.609512143	0.572976254
0.137217359	0.859976937	0.844440699	0.566351502	0.154184721	0.148992516
0.462138594	0.415577581	0.877688871	0.626245967	0.589631126	0.170760581
0.861356462	0.843444994	0.137137742	0.154124977	0.148541029	0.566254941
0.421950077	0.8774972	0.459197822	0.555184173	0.170333149	0.590380545
0.874866648	0.047189838	0.871948972	0.168508036	0.656910653	0.164873688
0.841525356	0.102919917	0.099029286	0.134978068	0.627865767	0.602822167
0.877553999	0.459592213	0.429602752	0.170408552	0.559767093	0.524469163
0.869070968	0.098629681	0.081892251	0.162764355	0.66818018	0.654482362
0.821621521	0.823484182	0.821331795	0.297799678	0.298728772	0.297886079
0.876815993	0.884253335	0.013707146	0.170866218	0.176141918	0.697382634
0.459086971	0.425656963	0.877319431	0.575497275	0.539367114	0.170578946
0.247405542	0.261329812	0.825064505	0.609426124	0.581177499	0.118509757
0.404079272	0.877427402	0.47345961	0.586201991	0.170803557	0.625851779
0.099089194	0.841819536	0.103069146	0.602509749	0.134921661	0.627713416
0.014432661	0.880858532	0.014803669	0.697341532	0.175216866	0.697298699
0.8771187	0.436682757	0.44450743	0.170434085	0.591559812	0.562214091
0.040856018	0.874222757	0.881529788	0.693070953	0.169927639	0.175109644
0.877587331	0.473533156	0.404166218	0.170636302	0.625748649	0.586067314
0.877901855	0.437498491	0.444467647	0.170922807	0.59241603	0.562805548
0.402964148	0.877372476	0.485881011	0.564895682	0.170490152	0.60761293
0.099651077	0.841879465	0.092662974	0.604323092	0.134890672	0.629791953
0.039822085	0.046472911	0.073564896	0.677410289	0.676643853	0.677873775
0.845771254	0.141778441	0.861585457	0.150008648	0.564597583	0.153961745
0.082239244	0.869101312	0.099598979	0.656329336	0.162632724	0.668843616
0.863727844	0.857303792	0.130360998	0.15463149	0.156735013	0.586518642
0.87138506	0.873998417	0.055334714	0.164536343	0.167635348	0.654736681
0.060013074	0.060047442	0.059889207	0.639770447	0.640123351	0.640063612
0.86896222	0.08327762	0.075688857	0.162680113	0.674409335	0.660966934
0.855212595	0.068661761	0.072039585	0.149309204	0.649892765	0.628987326
0.856344648	0.091254472	0.074239379	0.149429037	0.645785559	0.625478992
0.826582338	0.20063844	0.197369701	0.118830455	0.611163344	0.578475317
0.393179776	0.877949681	0.485022516	0.58263888	0.170819714	0.625176139
0.844136423	0.846457994	0.845474272	0.256767043	0.257054151	0.2572213
0.862264733	0.863370208	0.863299086	0.219153204	0.219125646	0.219498785
0.873527365	0.876008184	0.055325427	0.165281924	0.169073078	0.654996828
0.067007749	0.079849234	0.855162808	0.652522103	0.632018461	0.148666929
0.113817294	0.100161952	0.841865368	0.625859144	0.600572066	0.135032859
0.239533108	0.239101567	0.825197602	0.611118888	0.581745399	0.118359812
0.045508512	0.048694143	0.051606651	0.657404453	0.658298387	0.658987125
0.125239604	0.113329689	0.152076922	0.616409045	0.614318599	0.615198047
0.111442544	0.864272795	0.856275882	0.592080908	0.155998425	0.155200063
0.873611732	0.065238472	0.870316118	0.168060201	0.652747565	0.164489182
0.107621938	0.864610349	0.855309235	0.593755945	0.15683929	0.154606898
0.083390491	0.102169335	0.841160434	0.630674802	0.605726219	0.134824102
0.013703427	0.876181197	0.882861985	0.697145378	0.170690104	0.175546772
0.446366461	0.877394663	0.437094689	0.546062417	0.170609634	0.575754898
0.448824739	0.43958422	0.8774739	0.55969471	0.52784867	0.170727324
0.102004953	0.134008074	0.180947248	0.618169342	0.619789063	0.621206128
0.040760926	0.046624753	0.074851883	0.677093344	0.678455801	0.680662593
0.066219649	0.078888547	0.854464382	0.653822131	0.634235712	0.148930818
0.865109088	0.077016414	0.866572839	0.160994292	0.623265674	0.159543194
0.881496743	0.0000048	0.00000492	0.175287445	0.699672691	0.699544422
0.062509287	0.062483108	0.062454554	0.638360402	0.638343502	0.638509084
0.873833995	0.047316596	0.870432547	0.168160652	0.657111557	0.164528394
0.826181233	0.148864075	0.130913702	0.11934645	0.601918637	0.574434122
0.480587319	0.405779707	0.877336165	0.574780523	0.532335084	0.170547999
0.485005298	0.393163429	0.877916239	0.625149205	0.58259739	0.170754468
0.055356209	0.8721702	0.874369158	0.654908193	0.165010501	0.168551998
0.877668314	0.448831963	0.439734686	0.170801545	0.559947029	0.527632028
0.070344066	0.065150339	0.085204572	0.67031512	0.671094	0.67286529
0.877254069	0.459424151	0.429477017	0.17044151	0.559796218	0.524379372
0.076976865	0.868165782	0.865422812	0.623133727	0.160434833	0.161437662
0.872490158	0.874397842	0.04718751	0.164845646	0.168070799	0.657086471
0.402543905	0.877404902	0.485718324	0.564837319	0.170548489	0.607547789
0.402834641	0.877365363	0.485771423	0.564888347	0.170493923	0.607599492
0.392913298	0.877446629	0.484783956	0.582672168	0.170788628	0.62524525
0.099237857	0.841896684	0.103063272	0.602345377	0.134894107	0.627684233
0.864836136	0.863413778	0.864184673	0.219558452	0.219238565	0.219521158
0.856454121	0.079543355	0.071866722	0.149403151	0.64802064	0.627469261
0.846453412	0.153958373	0.859847481	0.15094078	0.560881165	0.151747969
0.044587425	0.87279126	0.874600555	0.65918151	0.165726579	0.168414335
0.437076453	0.446321206	0.877330166	0.575806146	0.546033273	0.170575169
0.092748537	0.099646199	0.841401339	0.629569936	0.604400434	0.134838612
0.469861752	0.415705206	0.877385672	0.575410271	0.536260912	0.170599477
0.00000492	0.00000491	0.881955776	0.699230843	0.699345976	0.175077699
0.877381285	0.451121933	0.431872385	0.170515505	0.608800329	0.575394712
0.040497986	0.046473237	0.074377801	0.677749502	0.677105359	0.679525829
0.459062804	0.425715437	0.877353458	0.575493157	0.539364687	0.17058001
0.841431124	0.102950809	0.099020684	0.134973637	0.627825759	0.602822003
0.432491139	0.877416224	0.448174809	0.558064056	0.170594446	0.590770189
0.437956111	0.444883827	0.87740838	0.592712237	0.563218911	0.170332075
0.868184459	0.866552177	0.0774673	0.160242774	0.161760395	0.623050498
0.46973454	0.411402704	0.877075491	0.590501661	0.552109239	0.169975351
0.87621689	0.883663689	0.027322271	0.170473861	0.175744556	0.695103332
0.885312944	0.027326786	0.877706886	0.175942031	0.695255074	0.170923326
0.872852228	0.874262989	0.87194784	0.188593868	0.188898873	0.188451548
0.083892635	0.86890112	0.084770867	0.660010146	0.162665852	0.673692328
0.84177047	0.102982288	0.099163742	0.13505591	0.627712494	0.602561339
0.0770138	0.868050187	0.865584897	0.623001512	0.160444247	0.161452112
0.439870012	0.877971807	0.449012014	0.527501009	0.170703861	0.559899282
0.00000279	0.0000029	0.0000028	0.69936625	0.69882236	0.699029408
0.877471386	0.45125661	0.431791474	0.170540482	0.609331992	0.576004957
0.864468538	0.855538144	0.11145464	0.156211723	0.155398555	0.592239122
0.144483062	0.131485322	0.097399744	0.618893211	0.617828742	0.61528688
0.401778803	0.87806626	0.481013028	0.54809084	0.170717704	0.589777452
0.846137038	0.147495155	0.860363198	0.150738287	0.562865111	0.153003325
0.078847735	0.86895171	0.088215059	0.662596134	0.162636122	0.671617458
0.419627314	0.877413255	0.470289374	0.521039599	0.170634744	0.559661402
0.877473424	0.480837806	0.410166463	0.170443574	0.559328531	0.517587116
0.158445905	0.150254167	0.094291474	0.617163569	0.616226424	0.615422508
0.102996588	0.099107024	0.841569391	0.627724845	0.60250739	0.135019788
0.459215083	0.422200924	0.877854995	0.591003686	0.554992878	0.170263243
0.054614703	0.054279206	0.881754913	0.689923883	0.690210764	0.175675714
0.841804909	0.113862975	0.100540683	0.135164544	0.626210287	0.600827327
0.425665736	0.877457786	0.459207197	0.53936771	0.170614954	0.575459675
0.101577425	0.124341149	0.167010613	0.616636288	0.619477154	0.617332613
0.868855681	0.097505584	0.079985357	0.162769945	0.665990665	0.654156568
0.841685298	0.124890335	0.103513372	0.135280691	0.623408802	0.598024982
0.047161111	0.871419607	0.874568293	0.65685761	0.164595974	0.168193174
0.40116824	0.877131758	0.480673209	0.548674653	0.170495793	0.590450133
0.00000549	0.875592668	0.884696076	0.699297367	0.170066741	0.175671068
0.845564917	0.141769687	0.860318896	0.149963584	0.564498768	0.153714688
0.877997719	0.450704424	0.427278851	0.170594939	0.626372	0.593254951
0.87740767	0.450745377	0.432445749	0.170560878	0.609761743	0.576354048
0.87512145	0.076025987	0.870927535	0.168550566	0.650496786	0.164567711
0.027797041	0.027487693	0.0282325	0.695091494	0.695121714	0.695107333
0.432803029	0.877705598	0.448108671	0.558281942	0.170828711	0.591380696
0.124754765	0.103142734	0.841842185	0.624004631	0.598661544	0.135250122
0.054307907	0.881364287	0.054661561	0.69106229	0.175429719	0.690053966
0.87161791	0.87469465	0.065185483	0.164808463	0.168533963	0.652865808
0.874384838	0.047319284	0.871473605	0.168312649	0.657051959	0.164554032
0.864734848	0.863558855	0.863943274	0.219086657	0.219491466	0.219029269
0.081326563	0.855567031	0.066854503	0.631056635	0.148914941	0.652141272
0.076989807	0.080397349	0.868969042	0.678287447	0.666041618	0.162521752
0.141615263	0.130221823	0.824576791	0.604700524	0.577458496	0.118843321
0.41161224	0.877533253	0.469992985	0.551575343	0.170514102	0.590517675
0.480767241	0.401466969	0.877550607	0.590036065	0.548258605	0.1704262
0.8224992	0.822947952	0.82048736	0.298192334	0.298625929	0.297898158
0.133718788	0.861473534	0.843692992	0.567821669	0.155206969	0.148198866
0.877298323	0.484709253	0.392839301	0.170701768	0.625224181	0.582636747
0.881426236	0.00000495	0.00000479	0.175340586	0.699492261	0.699683422
0.04107216	0.881682878	0.04139615	0.693099118	0.175578586	0.692591606
0.871729398	0.875619927	0.065170033	0.164879063	0.169144755	0.652723143
0.047145471	0.87215883	0.874438422	0.656880045	0.165272834	0.168283199
0.855496197	0.116691507	0.864716332	0.155734019	0.590199645	0.155982191
0.872747747	0.874315388	0.075941412	0.164422753	0.168253165	0.650449249
0.87691243	0.438445477	0.438440682	0.170303981	0.626598675	0.596478894
0.422267855	0.877617147	0.458966479	0.554972424	0.170560872	0.591041142
0.062497549	0.062481109	0.062479489	0.638262049	0.638419828	0.63852243
0.476220971	0.412949094	0.877342248	0.610630013	0.57086136	0.170535795
0.87473297	0.065239982	0.87146867	0.168424649	0.6526585	0.164588673
0.473570096	0.404189999	0.877648939	0.625833881	0.5860859	0.170770128
0.070738066	0.051792781	0.083309736	0.673489976	0.672520529	0.674671679
0.103269125	0.841953331	0.124820162	0.598638495	0.1352356	0.623692676
0.123113875	0.863305889	0.857124306	0.588354242	0.15554553	0.156704825
0.141790112	0.860402899	0.844418336	0.564483849	0.15325355	0.149276008
0.091827975	0.07437344	0.85462015	0.64528678	0.62570567	0.149370177
0.85655398	0.12303574	0.862715605	0.15640631	0.588425484	0.155396476
0.027323052	0.875801361	0.883530301	0.695149891	0.170808856	0.175505698
0.455044231	0.43587842	0.877394081	0.611013838	0.577443124	0.170591149
0.877365184	0.451050897	0.431963198	0.170505697	0.608773591	0.575347227
0.054505351	0.055110727	0.055193133	0.690366404	0.690049383	0.690158421
0.844490684	0.141808459	0.859926474	0.149675536	0.564591898	0.153658403
0.131289127	0.826198004	0.148857501	0.575400998	0.118965028	0.603977571
0.878395929	0.877215221	0.878499544	0.171173735	0.170490046	0.170784313
0.270770012	0.268183667	0.82668019	0.610067497	0.581079339	0.118666145
0.448500132	0.439354016	0.876925263	0.559708132	0.527751016	0.170450719
0.047155595	0.871544528	0.87433168	0.656828104	0.164567195	0.1681786
0.125979059	0.303337124	0.209686943	0.623033203	0.623809387	0.621183201
0.099641974	0.841846632	0.092659975	0.604326033	0.134896248	0.629760071
0.15393311	0.8600421	0.847061051	0.560909011	0.152845837	0.15202932
0.875519013	0.04728987	0.871982918	0.168493362	0.656787313	0.164785112
0.470680788	0.420108796	0.878287946	0.559651384	0.521012341	0.170836091
0.841847058	0.103023189	0.098988253	0.134990197	0.627739726	0.602590384
0.877336135	0.438657644	0.438652845	0.17032902	0.626410997	0.596511287
0.882299042	0.02783026	0.027685622	0.175406469	0.695068082	0.695041769
0.85708047	0.130427212	0.862639994	0.156627824	0.586604647	0.154392767
0.079628971	0.071587863	0.855789144	0.647939767	0.627478893	0.149182802
0.142648058	0.825518521	0.149423066	0.573870988	0.118502932	0.601615244
0.881867546	0.00000482	0.00000484	0.175405451	0.69917944	0.699313561
0.47041551	0.419940925	0.877843333	0.559682743	0.521067782	0.170789761
0.392971132	0.877529226	0.484810174	0.582406669	0.170593211	0.625297836
0.825958877	0.8230685	0.824655234	0.298369864	0.298502458	0.297431482
0.87438666	0.050892459	0.872047326	0.168279869	0.658932279	0.165031639
0.041184845	0.040981339	0.880955051	0.692578882	0.693142498	0.175001747
0.869053289	0.090429902	0.076166466	0.162669929	0.672129959	0.659822815
0.141824676	0.861050908	0.844043083	0.564497744	0.153352912	0.149341347
0.129715083	0.108417695	0.151257184	0.61544484	0.61325901	0.614685737
0.845452246	0.846208264	0.846348663	0.256814217	0.256684286	0.257675849
0.0000028	0.00000296	0.00000283	0.699322737	0.698929267	0.698469664
0.881518374	0.0000055	0.873488332	0.174850429	0.699347867	0.170049705
0.082374573	0.868936735	0.083679317	0.663514992	0.162492483	0.677190028
0.856202544	0.079449921	0.071856577	0.149113025	0.647933881	0.627307025
0.86817146	0.866523738	0.077514385	0.160349234	0.161647507	0.623171395
0.147449585	0.858948397	0.845821775	0.562865501	0.15253844	0.150368579
0.881561549	0.028079256	0.027602009	0.175350176	0.694963648	0.695398021
0.082048185	0.856070096	0.068757666	0.631748255	0.149057467	0.652777941
0.087696304	0.867041614	0.865716757	0.619904444	0.159576119	0.162048654
0.107693616	0.865683227	0.854953812	0.593970672	0.156973185	0.154768123
0.845489841	0.133719382	0.864783222	0.148674178	0.567801631	0.155603809
0.459008475	0.421980386	0.877432347	0.590783177	0.555093031	0.170453097
0.866191905	0.095152555	0.867217801	0.162303546	0.617641738	0.159439965
0.841786304	0.092713003	0.099693926	0.134805318	0.629656311	0.60426154
0.841489334	0.124897255	0.104111273	0.13532483	0.622962756	0.597739901
0.877303754	0.470328063	0.411814973	0.170407814	0.59069914	0.551653199
0.075968559	0.87174281	0.874962118	0.650521187	0.164498147	0.168493883
0.827109444	0.185288391	0.199634314	0.118947247	0.611137036	0.580853405
0.091116481	0.077498073	0.868870989	0.667941874	0.6574765	0.162565371
0.070318214	0.065078214	0.085257749	0.670317207	0.67108682	0.672866692
0.085799154	0.869149091	0.082322747	0.664800092	0.162346114	0.677169705
0.054275874	0.876282534	0.883206527	0.690530548	0.170802452	0.17520142
0.473640639	0.404257667	0.877786414	0.625960402	0.586155998	0.17057342
0.877520305	0.448100984	0.432907029	0.170545247	0.590757094	0.557803235
0.872573642	0.874831359	0.065181847	0.164801529	0.168552467	0.652842262
0.846964264	0.147488277	0.859849885	0.150507307	0.562766703	0.152777545
0.11368264	0.100337607	0.841475256	0.626064639	0.600645352	0.13502788
0.077036732	0.867572431	0.865666722	0.623018277	0.160095061	0.161648847
0.153709623	0.140333919	0.097030525	0.618775226	0.617243183	0.615282517
0.864073571	0.856046003	0.123142174	0.155827416	0.156629426	0.588402362
0.881427784	0.00000482	0.00000492	0.175446187	0.698873991	0.69925129
0.465931423	0.424495188	0.877288368	0.608318106	0.571729848	0.170556974
0.84792728	0.846230784	0.847572169	0.257691286	0.257408625	0.2570681
0.845348179	0.141826101	0.860527294	0.149688191	0.564542226	0.153603207
0.877089333	0.470324159	0.411670815	0.170208953	0.589683801	0.551199773
0.055350227	0.871986369	0.874228088	0.654919825	0.164653116	0.168429018
0.079758483	0.869174584	0.092975857	0.65911813	0.162730476	0.670525116
0.08333411	0.10218399	0.841326234	0.63082279	0.605978368	0.134848485
0.860592747	0.845987596	0.147411549	0.153287134	0.150849671	0.562754041
0.84410361	0.141818995	0.860956464	0.149950093	0.564575884	0.154120854
0.466031296	0.424035051	0.877300126	0.608766449	0.572061249	0.170565941
0.414595723	0.877384118	0.474531329	0.56966116	0.170552336	0.608840345
0.013707708	0.876545798	0.883818391	0.697323333	0.170910997	0.175770883
0.103236225	0.078837943	0.856479317	0.64384483	0.623361736	0.149608112
0.054257969	0.876227975	0.882227425	0.690312916	0.171288309	0.175476077
0.404185381	0.877649443	0.473575242	0.586263966	0.170665923	0.625767813
0.869097635	0.090438844	0.076016317	0.16268405	0.671562583	0.659552324
0.074338978	0.855378207	0.091313818	0.625751063	0.149110721	0.645526983
0.10420108	0.866844692	0.867017619	0.615376712	0.159285006	0.162939989
0.866036114	0.07705935	0.868013619	0.161587442	0.623169273	0.160373324
0.85563849	0.107518193	0.865692119	0.155237292	0.593671018	0.1570942
0.868779936	0.084494784	0.076211258	0.162667244	0.672886094	0.661615337
0.48665935	0.52750772	0.87734354	0.559158345	0.530785013	0.170950827
0.868945745	0.090770269	0.076948507	0.162666151	0.671391886	0.65930761
0.459018279	0.425718573	0.877374847	0.575452771	0.539366225	0.17057388
0.054635774	0.054871447	0.054789177	0.690299791	0.69016824	0.690379419
0.517459129	0.493250172	0.877089292	0.559960987	0.531628358	0.17098257
0.404065409	0.87740909	0.473454205	0.586230504	0.170639811	0.625721266
0.05460705	0.054915935	0.05464746	0.690429594	0.689974143	0.690382337
0.045678212	0.049184688	0.05229642	0.657786864	0.658152294	0.659410516
0.279706549	0.300222686	0.8258897	0.61304127	0.583832117	0.118714431
0.05186116	0.053675861	0.058167339	0.654408662	0.654203601	0.65439946
