Vam	Vbm	Vcm	Iam	Ibm	Icm
0.027418432	0.076942383	0.076682217	0.678623492	0.680191741	0.67857689
0.877334323	0.450371858	0.426947638	0.170472888	0.626589717	0.592967331
0.825757266	0.136752331	0.126331601	0.119043031	0.605954924	0.577180628
0.842101577	0.125139372	0.103524751	0.135207271	0.623740683	0.598214917
0.877201635	0.438590085	0.43858535	0.170377276	0.626389353	0.596457776
0.866750589	0.10418589	0.866867535	0.162776557	0.614890069	0.159222333
0.393069604	0.877742608	0.484925359	0.582550777	0.170825635	0.625401165
0.080462481	0.209791654	0.207231049	0.620176036	0.620948441	0.624069045
0.44830094	0.43291845	0.878073163	0.591121341	0.558244135	0.170693736
0.841537237	0.092766208	0.099841604	0.13487223	0.629476045	0.604504325
0.877355288	0.43934567	0.443939308	0.170577673	0.608407166	0.578252513
0.054273203	0.875686291	0.8843701	0.690468909	0.17051185	0.175324722
0.103446691	0.842016811	0.125164099	0.598164913	0.135209815	0.623462632
0.876833608	0.884501711	0.013707709	0.170638276	0.176095347	0.697375896
0.883474116	5.49528E-06	0.876012093	0.175705488	0.69933949	0.171069657
0.877378884	0.461401992	0.422313256	0.170546786	0.608393554	0.572108025
0.43973963	0.877728476	0.448924094	0.527817602	0.170819497	0.55980573
0.855398108	0.068892834	0.071426785	0.149235324	0.649532502	0.629564357
0.87680188	0.48053911	0.409803686	0.170611401	0.559454359	0.517493398
0.867032282	0.866770708	0.087826322	0.159324335	0.162115106	0.619378885
0.145964455	0.128493656	0.826205257	0.603186364	0.574643954	0.119254085
0.100296977	0.841557115	0.113930125	0.600762719	0.13504113	0.625751949
0.065792068	0.052912833	0.080656407	0.673139303	0.672455531	0.673835867
0.215701444	0.825225674	0.208912929	0.582508181	0.118839658	0.610590784
0.877401441	0.469897788	0.415505385	0.170533389	0.57555197	0.536243533
0.103527241	0.842154326	0.125237015	0.598277942	0.135240295	0.623541431
0.825593718	0.146247019	0.129487096	0.118943184	0.603175757	0.574368201
0.877278515	0.46132439	0.422353187	0.17055612	0.609076574	0.57285223
0.825786362	0.296869908	0.306304439	0.118609235	0.61298624	0.583772352
4.91738E-06	4.89787E-06	0.881296515	0.6993173	0.699448362	0.175270085
0.480655805	0.405889775	0.877403348	0.575180316	0.532646725	0.170564573
0.855794799	0.116652671	0.863889882	0.155494848	0.59033323	0.15535355
0.103182444	0.099153359	0.841540728	0.627768316	0.602765205	0.135006493
0.459732971	0.429648491	0.877745125	0.559708187	0.524401262	0.170605065
0.87364808	0.047123292	0.872432655	0.168485229	0.657029071	0.165829569
0.872578355	0.875628796	0.075931752	0.165062993	0.169270066	0.650386878
0.855533734	0.079725899	0.071549473	0.14919311	0.648014407	0.627709843
0.86697399	0.866594724	0.095382615	0.159477757	0.162346061	0.617363482
2.74814E-06	3.08052E-06	3.0356E-06	0.699176156	0.699398103	0.699050158
0.103172398	0.099181775	0.841492362	0.627729983	0.602767619	0.13501072
0.455029218	0.436435159	0.877281121	0.609840978	0.576067707	0.170551188
0.864933952	0.854370097	0.111451947	0.156133247	0.154692924	0.591902813
0.410291133	0.877653494	0.480899407	0.517598155	0.170544189	0.559341941
0.871991921	0.874037289	0.065195067	0.164474045	0.167872962	0.652734321
0.877407097	0.484746883	0.392912969	0.17041037	0.625246719	0.582442645
0.865841045	0.081793742	0.867776488	0.162101731	0.620764696	0.159946588
0.013706947	0.875807635	0.883612825	0.697394028	0.170520523	0.175433051
0.868911196	0.098817638	0.082571935	0.162808904	0.667454886	0.655591666
0.061564102	0.042149076	0.077528445	0.675321909	0.675303305	0.677471935
0.054621163	0.051237096	0.057598035	0.653842048	0.654249637	0.654025594
0.880853664	0.027750559	0.027612227	0.175589989	0.694829173	0.695187937
0.013707606	0.876007913	0.884460186	0.697415624	0.170604133	0.175463073
0.013752884	0.014668025	0.014668895	0.697017955	0.69730295	0.696989243
0.0833964	0.102235808	0.841749614	0.631331211	0.605951202	0.134696556
0.88174187	0.054604023	0.054135934	0.17535435	0.68991212	0.69047207
0.869248919	0.092452103	0.079539291	0.162662775	0.672361431	0.658675034
0.462014563	0.41546228	0.877449428	0.62623073	0.589573261	0.170720738
0.82263588	0.823350536	0.823645189	0.298024939	0.298713192	0.298838146
0.841625833	0.103005068	0.09932095	0.134941446	0.627913799	0.602908201
0.861260431	0.846563655	0.147462658	0.152736635	0.15066984	0.562796696
0.133774544	0.862444291	0.843276553	0.567899655	0.154953148	0.147766619
0.872293534	0.875806318	0.075933459	0.165104456	0.169283713	0.650389456
0.027955378	0.882025961	0.028187622	0.695226449	0.175439665	0.695712916
0.877366669	0.470005704	0.411468926	0.170171154	0.590464936	0.551628077
0.445400558	0.449220321	0.877342766	0.608469617	0.578271621	0.170602316
0.027449453	0.028335127	0.028140026	0.694906652	0.69486255	0.695061268
0.841627545	0.08337069	0.102263603	0.134755196	0.631322506	0.605986073
0.462864923	0.877652616	0.448520753	0.531479364	0.170766417	0.560243521
0.825680437	0.287315744	0.29711735	0.118635374	0.614074889	0.587606141
0.092014847	0.079760552	0.869033802	0.670187879	0.657606331	0.162623963
0.075109094	0.077485852	0.855377385	0.650215018	0.629713095	0.149353629
0.041131732	0.040826827	0.881928251	0.691702099	0.692800987	0.175555102
0.867926291	0.104410313	0.867006278	0.162929142	0.615200369	0.159178189
0.481039153	0.401626761	0.877995699	0.590025846	0.54830143	0.170247033
0.435889141	0.877305864	0.44808666	0.542732117	0.170522384	0.575631762
0.125170778	0.10338761	0.841609992	0.623995621	0.59888783	0.135347541
0.077510121	0.869053939	0.086051698	0.661264795	0.162499891	0.673491026
0.437049332	0.446366198	0.877346702	0.575677435	0.54605382	0.170642995
0.080475104	0.210779893	0.212874433	0.620080302	0.62205798	0.622721822
0.103467359	0.841780821	0.12506714	0.597847704	0.135328709	0.623287554
0.855607181	0.066584127	0.079134772	0.148833019	0.65262625	0.632304059
0.075382984	0.07707149	0.854644453	0.649756759	0.629737251	0.148560745
0.863789323	0.86461921	0.862943766	0.219032349	0.219080722	0.21909465
0.154036196	0.859971978	0.846566287	0.560877876	0.152129371	0.151346872
0.0993001	0.841269303	0.102945169	0.60256745	0.135050936	0.627718866
0.087162312	0.079460431	0.868910988	0.671868617	0.66062863	0.162569791
0.083389402	0.10224011	0.841692244	0.631285523	0.606113509	0.134690025
0.883100763	0.040849815	0.876496497	0.175147272	0.69286057	0.17097002
0.092048503	0.079931574	0.869063499	0.669773393	0.656960227	0.162690206
0.103933025	0.866609435	0.86684254	0.615327227	0.15894966	0.16282735
0.871080797	0.874098367	0.06519204	0.164450279	0.167815266	0.65272527
0.863944415	0.865408782	0.863403598	0.219186455	0.219335075	0.219259269
0.84160208	0.083364973	0.102236846	0.134726991	0.631060638	0.605782213
0.086252587	0.077760689	0.869352659	0.672426452	0.66044581	0.162572074
0.3929877	0.877603036	0.484865575	0.582561178	0.170851207	0.625430795
0.877314281	0.459442128	0.429523542	0.170614973	0.559803776	0.52429713
0.875982902	0.882434663	0.013706489	0.170346519	0.174440354	0.697300443
0.882841977	0.054268184	0.876060335	0.17512287	0.690434993	0.170545457
0.099214616	0.841746558	0.103179604	0.602483715	0.135160979	0.627902233
0.842158783	0.125241101	0.103503756	0.135192089	0.623701184	0.598181709
0.436040407	0.877294817	0.454274555	0.576374032	0.170551548	0.61000609
0.040837368	0.875372621	0.884162296	0.692653896	0.17068881	0.175683518
0.087826116	0.866360631	0.865630798	0.619666971	0.15875378	0.161850012
0.041112993	0.040934509	0.882043632	0.691842491	0.692863073	0.175680864
0.481078287	0.410295932	0.877854556	0.559332466	0.517630272	0.170491599
0.44865651	0.439413425	0.877139578	0.559750054	0.527736133	0.170329611
0.868922479	0.080115975	0.076958109	0.162523656	0.674558742	0.663584151
0.854891054	0.111481882	0.86513535	0.154934204	0.59204207	0.156239595
0.027326844	0.875826573	0.883957416	0.695244221	0.170089618	0.175264299
0.041049992	0.041053775	0.041193543	0.692337708	0.692380681	0.692390282
0.420172394	0.878332314	0.470662938	0.520914389	0.171009412	0.559745767
0.040799279	0.88099164	0.041225616	0.692918149	0.175034163	0.692396355
0.134134902	0.125549358	0.826719946	0.604142658	0.575698285	0.119426335
0.87725164	0.473366802	0.403996847	0.170393991	0.625878882	0.585940186
0.448411563	0.877337687	0.444894994	0.578597349	0.170604462	0.608839425
0.480932306	0.41024021	0.877652081	0.559415487	0.517467091	0.170777877
0.469858292	0.415668365	0.877340749	0.575354771	0.536104092	0.170536931
0.425609663	0.877420093	0.45913397	0.539789508	0.170629877	0.57585669
0.853614505	0.108096942	0.864589638	0.154718716	0.593747904	0.156952893
0.439762531	0.877670358	0.448833659	0.52758491	0.170601164	0.559874881
0.448804051	0.439596365	0.877493609	0.559676702	0.527799404	0.170546857
0.438958709	0.438954119	0.877939724	0.626836279	0.596337133	0.17064859
0.867458437	0.104238522	0.866509574	0.163101679	0.61541585	0.159069498
0.445454444	0.449260997	0.877349121	0.608474778	0.57826926	0.170600606
0.425617679	0.877414956	0.464171832	0.573555679	0.170586585	0.609891116
0.87557405	0.065212572	0.87266654	0.168825014	0.652760963	0.164866872
0.877484542	0.437472125	0.443991227	0.170440351	0.590793935	0.561190959
0.877452495	0.480842153	0.410141273	0.170534463	0.559514085	0.517468078
0.518904835	0.51756613	0.877424251	0.562113182	0.532289217	0.170629856
0.415639597	0.877425207	0.470036495	0.536153707	0.170588306	0.57546634
0.071363784	0.065843024	0.085237721	0.669693086	0.670108577	0.670519347
0.877387067	0.448091319	0.435873685	0.170576748	0.575744333	0.542810342
0.876794781	0.450102259	0.42667769	0.170475224	0.626587389	0.59297847
0.41308182	0.877446423	0.475852008	0.568261201	0.170573767	0.608115223
0.826885834	0.190416609	0.194704036	0.119092931	0.609034254	0.579915367
0.877332686	0.448066382	0.435869778	0.170659255	0.575699725	0.542746611
0.881359661	0.027468771	0.027481971	0.175699455	0.694821764	0.695088868
0.040859584	0.876743374	0.882796075	0.693122156	0.171184017	0.17562633
0.251528615	0.825496703	0.246274207	0.585056381	0.11847691	0.611931786
0.874362215	0.874328882	0.873849112	0.188830568	0.189298552	0.188896518
0.855566513	0.103210243	0.078857533	0.149669593	0.643482182	0.623858908
0.877680136	0.8784471	0.877390045	0.170797362	0.170816334	0.170571832
0.062494367	0.062515508	0.062388509	0.638708684	0.638693903	0.638566392
0.856935209	0.130427592	0.863445537	0.156933802	0.58642846	0.1549337
0.46319779	0.878017598	0.452152172	0.53074494	0.171040465	0.560111474
0.469975	0.415597848	0.877377326	0.575352497	0.536108271	0.170541466
0.083385231	0.102227639	0.841629296	0.631312228	0.605976979	0.134694232
0.844338987	0.141847792	0.860145111	0.149738595	0.564529309	0.153418192
0.438611816	0.87725469	0.438616501	0.596378728	0.170514081	0.626648989
0.877322277	0.451072511	0.432414788	0.170504134	0.608594078	0.575173667
0.111413337	0.864556169	0.856076344	0.59204958	0.155990792	0.155419026
0.459060477	0.425478501	0.877157679	0.575714554	0.539682585	0.170534466
0.877506244	0.459627957	0.429515126	0.170734209	0.559846625	0.524306127
0.874315406	0.076025708	0.872084964	0.168895205	0.650561818	0.16498905
0.435889537	0.87737349	0.448123683	0.542828979	0.170589865	0.575787249
0.104015423	0.866338526	0.866899146	0.615342891	0.158855058	0.162878318
0.871911415	0.875089135	0.046618584	0.165143214	0.169046967	0.659007452
0.427064272	0.877571881	0.450493118	0.59310731	0.170362699	0.62649856
0.07788657	0.080767973	0.868744751	0.675684598	0.665187072	0.16243636
0.857394582	0.116627818	0.866221734	0.156012586	0.590361929	0.156059706
0.040882701	0.881470711	0.041137158	0.692953274	0.175526919	0.692352266
0.864560362	0.85481277	0.107801558	0.156748309	0.154700325	0.593896612
0.435718206	0.877345093	0.454134506	0.576790437	0.170515569	0.61026685
0.871401943	0.87425979	0.055330271	0.164405054	0.168079291	0.654884673
0.877385989	0.461859429	0.421818866	0.170559172	0.608202772	0.571862764
0.877392335	0.480588793	0.405690052	0.170588064	0.575065384	0.532683986
0.079096825	0.855980726	0.102954326	0.623572552	0.149959129	0.643280056
0.215929809	0.20645352	0.826473845	0.608395164	0.580269869	0.119162967
0.856450318	0.123100435	0.863543228	0.156274573	0.588440349	0.155321683
0.08164813	0.867028083	0.864796011	0.621078225	0.159644346	0.161634334
0.484413434	0.392582908	0.876741889	0.62542707	0.582357105	0.170490684
0.864137671	0.862583011	0.863495667	0.219431773	0.218533169	0.219216261
0.275060542	0.279924272	0.825703847	0.613634299	0.585684287	0.11855943
0.427043849	0.8775285	0.450470092	0.593079952	0.170668721	0.626533879
0.014047395	0.014155894	0.881588786	0.697068194	0.697107112	0.175306887
0.862048578	0.846868188	0.147413378	0.153255366	0.15088692	0.562720987
0.09566134	0.866714407	0.866966175	0.617314135	0.159187327	0.162643203
0.480971002	0.410284095	0.877736958	0.559452637	0.517492216	0.170705806
0.485002571	0.393159488	0.877908609	0.625474441	0.582403435	0.170853729
0.866926835	0.866664821	0.095400466	0.159563826	0.162436292	0.617566016
0.074913839	0.077659343	0.854971608	0.650376411	0.629389556	0.148638176
0.877771879	0.459108838	0.422284569	0.170374076	0.590831114	0.555206643
0.054935657	0.054540173	0.05515869	0.690057714	0.690236114	0.69021577
0.465547976	0.877479936	0.449588052	0.531203172	0.170688642	0.560345505
0.054612255	0.054260417	0.881975286	0.69013054	0.690008834	0.175462405
0.401659798	0.878007068	0.481382496	0.548320051	0.170440076	0.590394104
0.866610331	0.087763118	0.867220594	0.162222244	0.619646835	0.159751919
0.874650947	0.047096853	0.871901992	0.168203258	0.656989256	0.164918034
0.877348622	0.458990897	0.425621432	0.170566763	0.575596897	0.539533477
0.074940825	0.074920206	0.075167712	0.634141051	0.634325987	0.634766225
2.78077E-06	3.10252E-06	2.95592E-06	0.699208091	0.699459277	0.699232938
0.86589147	0.09565702	0.866619486	0.162184443	0.617384232	0.15937097
0.824142804	0.182810185	0.185596905	0.118648961	0.611711064	0.582334789
0.864278328	0.857392323	0.123106454	0.155317559	0.15637757	0.588438067
0.866166221	0.081364601	0.867610999	0.161399544	0.621794211	0.159732061
0.873782743	0.874543014	0.874460478	0.18882023	0.189035699	0.188580444
0.014126903	0.014098426	0.881327339	0.697046164	0.697205373	0.175174826
0.392763373	0.877088093	0.484577911	0.582346806	0.170443277	0.625096082
0.427025837	0.877491674	0.450451216	0.59291715	0.170395831	0.626625007
0.865960389	0.095657327	0.86613316	0.162226778	0.617456271	0.159290019
0.841555966	0.113717632	0.100395447	0.135054493	0.625705713	0.600562422
0.05532106	0.871584375	0.875287718	0.654532452	0.164417557	0.168743781
0.113844756	0.099865418	0.841727136	0.626186428	0.600999123	0.13505033
0.868976002	0.080815456	0.078105422	0.162589753	0.67501414	0.662946042
0.462097219	0.415544021	0.877613829	0.626240295	0.589593769	0.170659678
0.447997002	0.435913317	0.877214771	0.575483628	0.542730818	0.170594584
0.875882377	0.076054964	0.870737349	0.169630554	0.650503101	0.164886939
0.048174803	0.871981193	0.873938397	0.6587179	0.165067005	0.168248608
0.041175298	0.040849207	0.881605654	0.692175546	0.692820373	0.17540567
0.865410072	0.077052804	0.867436475	0.161339297	0.623243028	0.159980242
0.45909337	0.422073347	0.877606499	0.590725187	0.555074029	0.170564832
0.825611661	0.13789046	0.130988374	0.118900423	0.604440064	0.575382047
0.147426424	0.86073138	0.845469402	0.562647209	0.153153126	0.15075269
0.103194176	0.099175909	0.841475662	0.627615747	0.602556842	0.13501269
0.444672439	0.449435994	0.877235637	0.608827895	0.57848448	0.170541408
0.825784757	0.297901284	0.307334202	0.118611517	0.612582451	0.585128126
0.877245739	0.437027163	0.446288175	0.170569728	0.575713061	0.546066001
0.053758983	0.051398935	0.057055887	0.654055777	0.654267423	0.654266267
0.855045835	0.111495306	0.864489541	0.155077917	0.592116578	0.156247014
0.877083743	0.469762873	0.411436636	0.170081924	0.590421822	0.551624504
0.825574942	0.196676057	0.199778047	0.118811994	0.609199784	0.577441163
0.04104989	0.041298069	0.041570231	0.692512266	0.692195242	0.692560376
0.065229991	0.870220799	0.873694227	0.65269844	0.16422871	0.168281858
0.028378378	0.881266096	0.028244539	0.695480835	0.175254897	0.695485741
0.86350376	0.856649937	0.123108029	0.155274466	0.156499114	0.588645899
0.883236712	0.041058141	0.040767216	0.175493885	0.692446736	0.692628309
0.843065087	0.137227857	0.860938579	0.148589515	0.566118239	0.153981062
0.0788096	0.855454243	0.10296084	0.623776795	0.149372595	0.643313876
0.104077713	0.866423065	0.866985773	0.61523671	0.158783203	0.162841148
0.041050793	0.041049805	0.041195483	0.692350422	0.692349768	0.692389157
0.42970815	0.877783122	0.459714317	0.524337529	0.170806415	0.559932392
0.437078654	0.446346254	0.877358287	0.575743179	0.546079064	0.170601688
0.013707553	0.875617742	0.883831798	0.697396116	0.170216196	0.175400394
0.877453375	0.43707664	0.444468171	0.170468925	0.591777228	0.562261001
0.054274856	0.881243209	0.054602446	0.690932265	0.175299191	0.690171193
0.083474877	0.083760461	0.084114062	0.632163598	0.632204601	0.632455216
0.864765516	0.855694039	0.107788087	0.156787619	0.154846787	0.593527382
0.125259792	0.103161202	0.841932493	0.623624812	0.598728961	0.135261171
0.099402205	0.841270264	0.102989877	0.602613372	0.135132997	0.627695271
0.014298296	0.881207951	0.014314287	0.697149322	0.175180979	0.696590169
0.086377576	0.868497074	0.082989075	0.663622329	0.16246447	0.675274416
0.415698906	0.877378695	0.46981032	0.536240077	0.170565261	0.575576057
0.059996172	0.060020075	0.059986946	0.640080048	0.640116953	0.640234796
0.245424172	0.825171355	0.248146531	0.582104125	0.118594216	0.611774857
0.865173299	0.863599033	0.863205449	0.219692978	0.219698097	0.21914477
0.861681305	0.843732875	0.137149384	0.153752831	0.148183438	0.566274683
0.060030926	0.060002759	0.060002642	0.640087413	0.640498143	0.640163163
0.405890836	0.877584251	0.480750708	0.532927494	0.170608794	0.575334737
0.097339921	0.337066361	0.282478795	0.622202698	0.623663213	0.621596595
0.846317321	0.846051108	0.84553029	0.256717524	0.256938106	0.256739303
0.868025025	0.866438241	0.087778795	0.159988598	0.162411434	0.619400132
0.081047365	0.079209618	0.869024991	0.674334727	0.662227523	0.162515777
0.866336914	0.095593938	0.867320799	0.162531005	0.617340382	0.159215505
0.856660414	0.130459991	0.863649731	0.156695025	0.586479758	0.154800525
0.876639767	0.883443678	5.49679E-06	0.171362556	0.175657578	0.699294837
0.877442183	0.473044407	0.410328167	0.170631039	0.608984239	0.5694121
0.047205412	0.871098691	0.875562304	0.656665326	0.164038262	0.168423989
0.846182189	0.147372094	0.860790297	0.150704373	0.562840483	0.153064876
0.884115734	5.49477E-06	0.875262071	0.175675277	0.699259595	0.170472487
0.425729254	0.877422545	0.46404929	0.573537079	0.170586986	0.60989772
0.868903269	0.099635342	0.083223741	0.162839433	0.667192709	0.654892078
0.082635631	0.86891426	0.092616041	0.656875485	0.162617782	0.670102531
0.867081557	0.866670165	0.087826459	0.159481717	0.162215042	0.619255587
0.085735453	0.077386917	0.868883646	0.672988478	0.660877386	0.162521129
0.448010366	0.432644668	0.877507585	0.591023398	0.558275076	0.170523365
0.438423009	0.876876729	0.43842773	0.596537115	0.169990102	0.626468841
0.013768541	0.014559452	0.014369956	0.696814976	0.697315546	0.697287115
0.877412955	0.473136019	0.410173494	0.17063364	0.60899331	0.569399688
0.435718178	0.877345651	0.45413608	0.57679061	0.170515437	0.610266903
0.856174092	0.116659949	0.863288117	0.155581238	0.590355597	0.155463384
0.486133844	0.40224299	0.877387644	0.607538249	0.564616855	0.17047206
0.863095428	0.857169107	0.130368687	0.155381734	0.157188015	0.586471461
0.077132829	0.86792378	0.865028034	0.62326022	0.160012552	0.161490976
0.154054816	0.858728088	0.846994287	0.560954855	0.151752441	0.151088958
0.882775953	0.013707468	0.875494868	0.175368107	0.697406629	0.170673508
0.877746566	0.450578132	0.427153645	0.170767061	0.626491908	0.593064164
0.841896199	0.103148776	0.099042876	0.13486933	0.627844083	0.602545065
0.091688471	0.077632197	0.86909863	0.671550436	0.657491062	0.162555526
0.085676651	0.077382678	0.869347062	0.672553873	0.660485727	0.162552262
0.855701834	0.111519858	0.865144141	0.155580171	0.59229121	0.156669932
0.877675522	0.450542796	0.427117897	0.170770948	0.626489829	0.593050173
0.125150549	0.103083772	0.841803455	0.623625228	0.598629992	0.135170123
0.099843611	0.841675107	0.092865123	0.604463469	0.134864656	0.629361557
0.054632202	0.054212439	0.881835309	0.689946892	0.69070707	0.175519378
0.054892936	0.05453794	0.055199502	0.68991586	0.690185602	0.690047396
0.415577843	0.877687957	0.462137072	0.589536403	0.170694665	0.626269916
0.841902616	0.103075869	0.099117176	0.134874492	0.627853174	0.602522819
0.874343741	0.881960495	0.027326886	0.170222036	0.175157308	0.69519992
0.855498243	0.06892698	0.071422573	0.149056023	0.649815016	0.629300417
0.154034659	0.859216635	0.847717328	0.560851381	0.152081302	0.151397553
0.040894573	0.88085649	0.041158041	0.692967228	0.1750642	0.692310345
0.85540391	0.065997794	0.078584689	0.148941369	0.652367315	0.632226298
0.075208623	0.076499229	0.855735257	0.649157837	0.629822729	0.149184939
0.059514958	0.042846572	0.076534271	0.674904501	0.675014407	0.676453189
0.071734383	0.855542827	0.07972516	0.627606544	0.149354328	0.647813656
0.877139847	0.46981975	0.411418609	0.17024164	0.590521344	0.551528912
0.862353383	0.843448675	0.1337261	0.155184691	0.148044641	0.567749598
0.878288535	0.470619666	0.420177883	0.170913423	0.559731957	0.521109185
0.866967136	0.866986769	0.10402578	0.159162752	0.16311169	0.615394314
0.861226073	0.844358646	0.141807007	0.153132907	0.14918713	0.564459636
0.872171481	0.87295612	0.046705121	0.165272631	0.168213247	0.658827739
0.438147298	0.445537172	0.877697748	0.590878878	0.561440828	0.170743495
0.027929095	0.882212172	0.028388763	0.694851912	0.175558303	0.695903383
0.079428052	0.869209656	0.086660569	0.660962969	0.162532348	0.673737925
0.87757407	0.878197348	0.877561983	0.170551168	0.170775281	0.170640384
0.085642257	0.077181851	0.868917448	0.673112957	0.661073688	0.162453287
0.473520781	0.404135583	0.877544847	0.625740748	0.586213191	0.170524445
0.047214406	0.871672199	0.874723782	0.656983036	0.165073066	0.168558881
0.84527485	0.147391577	0.860622421	0.150591519	0.562784613	0.153107067
0.013937038	0.013986105	0.881160477	0.696905706	0.697170487	0.175180335
0.872544773	0.873946157	0.065196116	0.1645328	0.167986462	0.652736388
0.866685432	0.866533913	0.087876322	0.159316565	0.162090442	0.619323472
0.873386867	0.047130689	0.872519113	0.168236718	0.65681262	0.165347001
0.412085204	0.877586009	0.470122252	0.55182745	0.17059364	0.590657631
0.106196056	0.082225627	0.855020859	0.642224858	0.623653204	0.149063319
0.147431419	0.86062863	0.845441818	0.56267562	0.152768229	0.150351673
2.78027E-06	3.16277E-06	3.00065E-06	0.698950245	0.699266411	0.699339431
0.028041437	0.027973145	0.883010257	0.694891313	0.6954677	0.17544832
0.091418467	0.074431344	0.855486886	0.645646827	0.625957227	0.149120462
0.44589563	0.449217274	0.877322733	0.608494924	0.578295874	0.170598355
0.855094176	0.107927431	0.864307576	0.154711744	0.593920298	0.1565787
0.054232786	0.881276708	0.054624552	0.690325882	0.175394393	0.690085389
0.845579952	0.141812889	0.860286746	0.149983288	0.564531732	0.153711457
0.422054659	0.877368504	0.459231833	0.555146829	0.170508784	0.590915316
0.881403878	0.027542565	0.027393712	0.175401758	0.694789029	0.695404553
0.877010866	0.884106171	0.054281171	0.17088085	0.17557922	0.69058586
0.825095161	0.145765465	0.128625545	0.118759113	0.603452959	0.574512098
0.872066769	0.875238814	0.065197589	0.165271023	0.168925	0.652762507
0.079018179	0.855928868	0.102945225	0.623570689	0.149725071	0.643474782
0.877620041	0.470326119	0.419811578	0.170902293	0.559713303	0.521017957
0.868984298	0.080654444	0.07861584	0.162535204	0.675193901	0.66254167
0.401387089	0.877360006	0.487318954	0.564717978	0.17053535	0.607785383
0.875182209	0.882852605	0.054274257	0.170523684	0.175129247	0.690524623
0.883775167	0.01371175	0.877081115	0.17555211	0.697654625	0.17068928
0.099578862	0.081788753	0.869003355	0.668183971	0.656289882	0.162766883
0.876734835	0.884640787	5.4978E-06	0.170834363	0.17608211	0.699482405
0.877273183	0.484027157	0.399608808	0.170611464	0.60801538	0.565387298
0.438510705	0.438506022	0.877042438	0.626400404	0.596328669	0.170155593
0.393075297	0.877748274	0.484925205	0.582449994	0.170710911	0.625451816
0.867498825	0.104191949	0.867066442	0.162832081	0.615312551	0.159141111
0.425546352	0.877368544	0.459136762	0.539720594	0.1705955	0.57573441
0.866988838	0.86662991	0.095423374	0.159565646	0.162480567	0.617543739
0.877428307	0.459058081	0.42564153	0.170598187	0.575793603	0.539656753
0.054214849	0.881048638	0.054597126	0.690414741	0.175411215	0.690152336
0.055345409	0.871541016	0.873885133	0.654629898	0.1643613	0.168658486
0.87765721	0.473575852	0.404192875	0.170672911	0.625846155	0.586155576
0.871778156	0.874453363	0.046800012	0.164752046	0.168628103	0.659008516
0.446329665	0.877311944	0.437050582	0.546087186	0.170592702	0.575725408
0.846156992	0.153957976	0.859285088	0.151022664	0.560869371	0.151829103
0.877075845	0.450245578	0.426815565	0.170609446	0.626424937	0.593293131
0.882650735	0.027325503	0.876420403	0.175417235	0.695204157	0.171164878
0.469994149	0.419488367	0.876960716	0.559578746	0.521067983	0.170576162
0.877403809	0.4511721	0.432423893	0.170535914	0.608913771	0.575638018
0.42950895	0.877431638	0.459566049	0.524222718	0.170578965	0.559913584
0.438410828	0.876852342	0.438415569	0.596603971	0.170298828	0.626533701
0.203873846	0.825292945	0.206340066	0.584425166	0.118772304	0.610852534
0.405837671	0.877390087	0.480611786	0.533004255	0.170602178	0.575372081
0.825665509	0.136682165	0.128374736	0.119072245	0.605831153	0.576910821
0.877380717	0.469953052	0.415443189	0.170565054	0.575480509	0.536175933
0.086142014	0.076323298	0.869235768	0.672058554	0.660452454	0.16262539
0.876689582	0.882376537	0.054275868	0.170803372	0.175126947	0.690514085
0.826628538	0.196613797	0.197636775	0.119522999	0.61083964	0.580777145
0.211461309	0.826362865	0.211068013	0.583532958	0.119111906	0.610076422
0.419807319	0.877396546	0.470106566	0.520897629	0.171000402	0.559710113
0.110960701	0.110827246	0.166289799	0.617071945	0.619315356	0.61859951
0.028500259	0.028148776	0.882810205	0.694821264	0.695392795	0.175428497
0.877340104	0.451216866	0.431903253	0.170565048	0.610104078	0.576606978
0.054287467	0.876673252	0.88281038	0.690742197	0.170896693	0.175096526
0.855984737	0.068946951	0.071449663	0.149183778	0.649719812	0.629630583
0.86018251	0.846989273	0.153986369	0.152556263	0.151654412	0.560921099
0.874257346	0.055317016	0.871801162	0.168158063	0.654750887	0.1645839
0.065249193	0.870982201	0.874942426	0.652423264	0.164584299	0.168603041
0.842084974	0.124921674	0.103841749	0.135153839	0.623482691	0.598057254
0.048772956	0.041077518	0.073448951	0.677530753	0.67763719	0.679583634
0.087820694	0.866365686	0.865670442	0.619692891	0.158753023	0.161843095
0.08192667	0.079639649	0.869237011	0.673580458	0.661780101	0.162568488
0.862816174	0.854123911	0.111433532	0.155748906	0.154332785	0.59202702
0.867100797	0.866960819	0.087819737	0.159392495	0.162146359	0.619385585
0.864178295	0.86337909	0.863167739	0.21976094	0.219161967	0.219192561
0.063997977	0.060017155	0.0660436	0.651946123	0.651988388	0.65191555
0.87789579	0.459184922	0.42236385	0.170875577	0.591036126	0.554875818
0.826634937	0.197451076	0.198971681	0.119510609	0.610863105	0.580693837
0.013745614	0.014553164	0.014687735	0.697144226	0.696543768	0.697136076
0.481054068	0.401749105	0.878129836	0.590234787	0.548342335	0.170564513
0.86908287	0.077441472	0.080814184	0.162594551	0.677351398	0.665047048
0.874723391	0.874235338	0.873349038	0.188838853	0.189238622	0.18875031
0.87670938	0.882338353	0.013706408	0.170397691	0.174525114	0.697295771
0.402550282	0.877332847	0.486376692	0.564515841	0.170539003	0.607611058
0.054853185	0.051236411	0.057772474	0.653844247	0.654559373	0.654914512
4.80606E-06	0.881392202	4.87373E-06	0.699355081	0.175166403	0.698806635
0.439866168	0.877790646	0.448860847	0.527559546	0.170727556	0.559856805
0.872541747	0.875738961	0.075918912	0.164997035	0.169158812	0.650518685
0.867470677	0.866169915	0.081514748	0.159530794	0.161965418	0.621480995
0.87735535	0.439458035	0.44448386	0.170562343	0.609375761	0.579289864
0.863581305	0.855364247	0.111425301	0.156017715	0.154994114	0.592196927
0.092616857	0.099697654	0.841599868	0.629579033	0.604410315	0.134910325
0.8774193	0.480774764	0.401404376	0.170338197	0.590248284	0.548051173
0.877203668	0.492955537	0.499242698	0.170415204	0.560565108	0.531574438
0.077146448	0.867761639	0.8651172	0.623249907	0.159990963	0.161397285
0.048171719	0.045492466	0.053264286	0.656263029	0.656130301	0.6560229
0.133774132	0.862247807	0.844317087	0.567862971	0.154908823	0.147863142
0.87421267	0.047099467	0.872184353	0.167902111	0.6570014	0.164891731
0.87280734	0.874247817	0.04718113	0.165806411	0.168868783	0.656950573
0.877260695	0.484113305	0.399319768	0.170601928	0.608478977	0.565857216
0.863470388	0.856652623	0.123104631	0.155270136	0.156498008	0.588658057
0.84160841	0.083368834	0.10223398	0.134721986	0.631075137	0.605763946
0.046670215	0.047881675	0.051917559	0.656852537	0.658429653	0.658348932
0.432760959	0.877488674	0.448172213	0.55801782	0.170491657	0.590340443
0.415518768	0.877584548	0.462092464	0.589774497	0.170591106	0.626206503
0.059778848	0.042621021	0.076382155	0.675497538	0.674880943	0.676777163
0.872755555	0.875720407	0.075921685	0.165008459	0.168846532	0.650524086
0.874208151	0.076025186	0.870751207	0.168989108	0.650583788	0.164284805
0.075389142	0.076040619	0.854308926	0.649519746	0.62981068	0.148693002
0.404152496	0.877565097	0.473524548	0.586022064	0.170620516	0.625880997
0.071475641	0.856119149	0.068835004	0.629531672	0.149368675	0.650010598
0.466098824	0.877414272	0.446629361	0.530291896	0.170780796	0.559098928
0.877581413	0.470337494	0.419753418	0.170807304	0.559762672	0.520892838
0.877330883	0.448059936	0.435900375	0.170591407	0.575688486	0.542846536
0.841430445	0.11359487	0.100523589	0.135094122	0.625745778	0.600564216
0.438549313	0.438544541	0.877119636	0.626597331	0.596436206	0.170515938
0.473519229	0.404134501	0.877542176	0.625749733	0.586208024	0.170528746
0.1030223	0.099297986	0.841553882	0.627722498	0.602433097	0.135018714
0.414236655	0.877332197	0.474690991	0.569117621	0.170508126	0.608797184
0.141740822	0.8607166	0.846139156	0.56452504	0.153861857	0.150144725
0.872625246	0.875213374	0.07595353	0.165324479	0.168630493	0.650552418
0.863819888	0.862773341	0.863533728	0.219418349	0.218490939	0.219232201
0.877539311	0.459623364	0.429554519	0.170683346	0.559838516	0.524303287
0.845194063	0.153967579	0.859277097	0.151145397	0.560817539	0.151963146
0.855553324	0.079778201	0.071540641	0.149249784	0.648003179	0.627731828
0.863044627	0.844238938	0.133769119	0.155233476	0.148022861	0.56781954
0.88112481	0.0143446	0.014095116	0.175451408	0.696624205	0.697304119
0.040754182	0.881466782	0.041052316	0.692689742	0.17519748	0.692454399
0.865657873	0.076965772	0.867955549	0.16124165	0.623315617	0.160004911
0.860004649	0.843965169	0.141787487	0.153118848	0.149204701	0.564521481
0.446309513	0.877281418	0.43703996	0.546078252	0.170576308	0.575732641
0.825686289	0.138590732	0.12846274	0.119073057	0.605542917	0.57660693
0.027326317	0.875673492	0.883424034	0.695211321	0.170113971	0.175242617
0.459010876	0.422033192	0.877478256	0.590709697	0.555022565	0.17047254
0.130496614	0.862745335	0.857240905	0.586560924	0.154944548	0.157148772
0.876963226	0.500389616	0.480006512	0.16986751	0.559865057	0.531361768
0.438393704	0.876818229	0.438398452	0.596549753	0.170125197	0.626516712
0.855350317	0.11146263	0.86465544	0.155555473	0.592109759	0.156511735
0.09990079	0.841655398	0.092829336	0.604431342	0.134874886	0.629370712
0.844470725	0.141841586	0.860865256	0.1498585	0.564500834	0.153799359
0.081692692	0.866826976	0.865679918	0.621578228	0.159258529	0.161618299
0.878072739	0.448157099	0.433139799	0.17085359	0.591032103	0.558652612
0.210602671	0.20848369	0.825592067	0.609833998	0.582769867	0.11871558
0.100267556	0.081659306	0.868807216	0.665767793	0.655469835	0.162748481
0.844746278	0.141849692	0.860490747	0.149740228	0.564521361	0.153404823
0.059401278	0.042795478	0.076365074	0.674967277	0.674986718	0.676446631
5.49679E-06	0.875709028	0.884771139	0.699552362	0.170765588	0.176393011
0.881519731	0.013951549	0.01413681	0.175489257	0.697018427	0.697324582
0.047213669	0.871603825	0.875640927	0.656772575	0.164839288	0.169100189
0.448168143	0.436035195	0.877504156	0.575567337	0.542771121	0.17061792
0.84132974	0.113694449	0.100475586	0.135178424	0.62545812	0.600413838
0.42704391	0.877528615	0.450470146	0.593079899	0.170668714	0.626533846
0.081128582	0.078716351	0.868878806	0.674300815	0.662228034	0.162508054
0.871843527	0.875104455	0.04726822	0.164909935	0.16876238	0.656984765
0.066196143	0.053029316	0.081556527	0.672960409	0.672635036	0.673777573
0.8774443	0.462018615	0.4154528	0.17050275	0.626158879	0.589752243
0.475721983	0.413742416	0.877327378	0.607847795	0.568299502	0.17056992
0.439684384	0.877665555	0.448880725	0.527592798	0.17062172	0.559870751
0.860612986	0.844854204	0.137070725	0.154450037	0.149293618	0.566212921
0.869079829	0.091801016	0.078669762	0.162657535	0.672954852	0.659480126
0.873961617	0.047101647	0.872121728	0.167804141	0.656887716	0.164879086
0.865241768	0.077063439	0.867421399	0.161149478	0.623383206	0.159905122
0.857877229	0.116682491	0.865722972	0.156037335	0.590366199	0.155992103
0.841565403	0.09276778	0.099821508	0.134852225	0.629518169	0.604473222
0.85576276	0.068908799	0.071418359	0.149192194	0.649719584	0.629586316
0.071756801	0.855843061	0.079695069	0.627559872	0.149317672	0.647733243
0.874044383	0.872260346	0.872788721	0.188766982	0.188799972	0.188489169
0.05426332	0.881226148	0.054621481	0.690807737	0.175253506	0.690258773
0.87739908	0.46158665	0.422248798	0.170576906	0.609523176	0.573132611
0.875479161	0.882948893	0.027327624	0.170519848	0.174883282	0.695211469
0.875295324	0.065216092	0.872211147	0.169236211	0.652920684	0.164832052
0.445127374	0.87748686	0.43835457	0.561936857	0.170526645	0.591656058
0.825419874	0.146653227	0.129372501	0.118980223	0.602578221	0.573994011
0.869095927	0.084098647	0.074979418	0.162524321	0.670905432	0.659023115
0.068587238	0.080329636	0.855569723	0.652262944	0.632438497	0.148941967
0.877274725	0.473084744	0.410254465	0.170594636	0.60885668	0.569283806
0.126757349	0.825674819	0.144572755	0.575073612	0.118528109	0.603853935
0.054285241	0.875724193	0.882872296	0.69071051	0.170845091	0.174957975
0.103558988	0.841954155	0.125185758	0.598090567	0.135280889	0.623491758
0.074276462	0.85565486	0.091197529	0.625901362	0.149259564	0.645638106
0.872186108	0.873269679	0.046510655	0.165163278	0.168136229	0.658930015
5.49629E-06	0.876375975	0.883941279	0.699368884	0.170982609	0.175346453
0.054247669	0.881363189	0.054573541	0.691057635	0.175491905	0.690140466
0.429738947	0.877845161	0.459744669	0.524309796	0.170865987	0.559894338
0.877437077	0.461986656	0.421708322	0.170554802	0.608183079	0.571814876
0.41981127	0.877505557	0.470198096	0.521020685	0.170574225	0.559695943
0.446324827	0.877311708	0.437054929	0.546088266	0.170589467	0.575742125
0.439761721	0.877928363	0.449077888	0.527828306	0.170654674	0.559732073
0.083080023	0.86920439	0.07942166	0.664531473	0.162601329	0.67760454
0.123211525	0.862959124	0.857086396	0.588457335	0.154945754	0.156200706
0.873802525	0.873456282	0.873624312	0.188602411	0.188446061	0.188496915
0.06255905	0.062410482	0.062461158	0.638534547	0.638329646	0.638522051
0.146597462	0.128582306	0.826105478	0.603375544	0.575202609	0.11939557
0.877179893	0.459395435	0.429436165	0.170581377	0.559831793	0.524313348
0.876828442	0.438403529	0.438398766	0.170171269	0.626648853	0.596327858
0.027427005	0.077010345	0.076867847	0.678665436	0.680116099	0.678522195
0.480391595	0.401129847	0.876841058	0.590184866	0.547972942	0.17048287
0.43700337	0.446323988	0.877256923	0.575622945	0.546008949	0.170651613
0.847822026	0.846909892	0.848420956	0.257386774	0.256970976	0.257154701
0.410068655	0.877201074	0.48066791	0.517563341	0.170575431	0.559268284
0.866199411	0.095721681	0.866955431	0.162139125	0.617266172	0.159347667
0.401676242	0.87772933	0.481101696	0.548320815	0.170612874	0.590297983
0.87501419	0.88291901	0.054273652	0.17053853	0.174793135	0.690494258
0.825440786	0.196930452	0.194538691	0.118733592	0.607669157	0.577307098
0.865039067	0.077068663	0.86773637	0.161198128	0.623089814	0.160068501
0.86708376	0.866394731	0.095454733	0.159363171	0.162438876	0.617538428
0.062489013	0.062501604	0.062384109	0.638773903	0.638594468	0.638688964
0.414133518	0.877333033	0.474799371	0.56914552	0.170503732	0.608802174
0.876485157	0.882588539	0.027326358	0.171277824	0.175576529	0.695164896
0.063225364	0.060016519	0.065292594	0.651729941	0.651986822	0.651739212
0.415639612	0.877425366	0.47003657	0.536153773	0.170588279	0.575466268
0.059654825	0.043167956	0.077216106	0.674743166	0.675154409	0.676723897
0.877853775	0.459702219	0.429787934	0.170739849	0.559753515	0.524467592
0.874926367	0.047110771	0.87270323	0.168513569	0.657010337	0.16587989
0.825924978	0.145701327	0.128780953	0.119408614	0.603440534	0.574623038
0.84685948	0.846637938	0.846787206	0.256942487	0.256656694	0.256800794
0.854887344	0.091542927	0.074173045	0.149127433	0.645602754	0.62568471
0.846163509	0.147391531	0.861176294	0.150983113	0.562772131	0.153471573
0.054705863	0.051181096	0.057474751	0.653918953	0.654242858	0.654035798
0.84759202	0.845797532	0.846705505	0.256959349	0.256924913	0.256852453
0.118220962	0.119402097	0.187169235	0.617047359	0.619107274	0.617280631
0.172677327	0.091824908	0.180100212	0.612606036	0.616028359	0.616794786
0.862315853	0.844095183	0.137123692	0.154773799	0.149202735	0.566233346
0.464582211	0.425296932	0.877438502	0.607947813	0.571291334	0.170511837
0.041127528	0.040794147	0.881974768	0.691725749	0.692874388	0.175602051
0.455234837	0.43568565	0.877403383	0.609436452	0.576085599	0.170607267
0.013709716	0.876951754	0.882868716	0.697535784	0.170484216	0.175310404
0.425122747	0.877383816	0.464217749	0.57349549	0.170618322	0.609711294
0.865737605	0.077071996	0.867620794	0.161335217	0.623086156	0.16002856
0.448121074	0.436006843	0.877410389	0.575569297	0.542814536	0.170587722
0.028569523	0.027901142	0.881962923	0.694837041	0.695378386	0.17550852
0.438581331	0.438576622	0.877183775	0.626571615	0.596364843	0.170281603
0.480900977	0.401566181	0.877790609	0.590143282	0.548245393	0.170677536
0.867055296	0.865443332	0.081533717	0.159553488	0.161678722	0.621164668
0.066750228	0.052376989	0.081063242	0.673117891	0.672350801	0.67392363
0.459021577	0.422015886	0.877473308	0.590706421	0.555013256	0.170483771
0.076015245	0.870980408	0.875319023	0.650405174	0.164073051	0.168915459
0.401676114	0.87769968	0.481085997	0.54820254	0.170408803	0.590401023
0.046802697	0.872326621	0.874169822	0.658867676	0.164695239	0.16807202
0.463187116	0.878017963	0.452154617	0.530745057	0.171040076	0.560111538
0.435931981	0.877447459	0.448175256	0.542786184	0.170579795	0.575689376
0.863487181	0.855368742	0.111428994	0.156024547	0.155004439	0.592201861
0.868987348	0.099234943	0.082023561	0.162828071	0.666384352	0.654017218
0.425555449	0.877340197	0.45911644	0.539597513	0.170539088	0.575641063
2.76877E-06	3.02782E-06	2.92097E-06	0.698917906	0.699212838	0.699351995
0.393228561	0.878050653	0.485075724	0.582566319	0.170843347	0.625437579
0.054211598	0.881192893	0.054580906	0.690321809	0.175406418	0.690083254
0.054563274	0.054222193	0.881807206	0.689703883	0.690733598	0.175481503
0.827048596	0.19087807	0.187520853	0.11899235	0.60912834	0.579973786
0.869171924	0.09190551	0.079136311	0.162588263	0.672923606	0.65979492
0.877368944	0.46161293	0.422160321	0.170576481	0.609516866	0.57313466
0.444705069	0.87747503	0.43862089	0.561937013	0.170679353	0.591671308
0.486865615	0.401993694	0.877404555	0.608229797	0.565157145	0.170508564
0.867094746	0.866748489	0.103982924	0.159492613	0.163093446	0.615358401
0.080488731	0.217771988	0.218018412	0.620098889	0.625938619	0.627823048
0.877216099	0.437005147	0.446278977	0.170582785	0.57574421	0.546053597
0.432742679	0.87782102	0.448500756	0.558167705	0.170379656	0.590694094
0.869177956	0.091891114	0.078444003	0.162580747	0.672917462	0.659817637
0.087999498	0.866745607	0.865666472	0.619245953	0.159341216	0.161932278
0.083391021	0.102224048	0.841687555	0.63132606	0.606036492	0.134678242
0.419563155	0.87713794	0.470084825	0.521054768	0.170536535	0.559734468
0.877442779	0.480811125	0.40137533	0.1703598	0.590073807	0.547623781
0.448206854	0.435901473	0.877423023	0.575495057	0.542581668	0.170634034
0.8744462	0.882220676	0.013707018	0.170307274	0.174760772	0.697322453
0.86654741	0.104444943	0.865867573	0.162673642	0.615208925	0.159070248
0.099805089	0.841738697	0.092877977	0.604192084	0.134863802	0.629607195
0.055333703	0.871345494	0.87546833	0.654555958	0.164815992	0.169033393
0.071416628	0.854776787	0.068800153	0.629372767	0.148599571	0.649836242
0.454693892	0.436685137	0.8772788	0.608539751	0.574728333	0.170581095
0.877405266	0.437093891	0.446376866	0.170597336	0.575733277	0.546087769
0.843778352	0.133714555	0.862299022	0.148238908	0.567825757	0.155386615
0.475694264	0.413789057	0.877436066	0.607915574	0.568341356	0.170591332
0.448739654	0.439577124	0.877396716	0.559751794	0.527687225	0.170422498
0.867492939	0.104239768	0.866710221	0.163094206	0.615480757	0.159049111
0.824425553	0.179914831	0.18526041	0.118394327	0.610794963	0.580578471
0.877354432	0.439344394	0.443940492	0.170577854	0.608407357	0.578252089
0.438530993	0.438526265	0.877083064	0.626568112	0.596382341	0.170356257
0.013744721	0.014538997	0.014752265	0.697163799	0.696531478	0.697091513
0.07147613	0.856045095	0.06880932	0.629516019	0.149121329	0.649998923
0.41026681	0.877610657	0.480874166	0.517692979	0.170669563	0.559333249
0.12006797	0.120635529	0.190702541	0.617410881	0.619340463	0.618503821
4.85433E-06	0.881460697	4.88084E-06	0.699010109	0.175153933	0.699307961
0.450441966	0.427014564	0.877471286	0.626469892	0.593172526	0.170624271
0.877511295	0.488810338	0.502276538	0.17064212	0.561484104	0.533295234
0.825476081	0.14661089	0.129691763	0.11906489	0.602641094	0.573979941
0.824356646	0.185592114	0.185197679	0.118670183	0.611935965	0.58239807
0.825652128	0.136815377	0.127213608	0.119137109	0.606132164	0.577408618
0.883383589	0.013706621	0.876066581	0.175384057	0.697346462	0.170659157
0.405739876	0.877331418	0.480553878	0.532987808	0.170486037	0.575345015
0.147779675	0.131248549	0.825777758	0.604235472	0.575285245	0.119217007
0.081866221	0.854963831	0.066724075	0.631308761	0.149025664	0.653095986
0.071449817	0.856733221	0.068874145	0.629728515	0.149096458	0.649802744
0.468564052	0.877222542	0.443537107	0.530606476	0.170789801	0.5594687
0.874111546	0.047103161	0.871718709	0.167904497	0.657012444	0.164891982
0.141741713	0.861165247	0.845911545	0.564575697	0.154066472	0.150311739
0.47029028	0.4197771	0.877550219	0.559585542	0.520986707	0.170615599
0.826628614	0.195872619	0.19628979	0.119531305	0.610854608	0.580758427
0.856192397	0.116667038	0.863228062	0.156033563	0.590362884	0.155781593
0.145913335	0.128457387	0.82618149	0.603179889	0.574636296	0.119262085
0.446306415	0.877272473	0.43703383	0.546076052	0.170579461	0.575740441
0.860802877	0.844345915	0.141736386	0.153111774	0.149226584	0.564542945
0.877248066	0.461565933	0.422137763	0.170561668	0.608783704	0.572560096
0.103186715	0.099336786	0.841464064	0.627780029	0.602628915	0.135042858
0.147502834	0.860702334	0.84497483	0.562732129	0.152596532	0.150303309
0.855285233	0.091353369	0.074128242	0.149288747	0.645701709	0.62583939
0.47026591	0.419778233	0.87753485	0.559629262	0.521032842	0.170710364
0.877363871	0.451308272	0.431873935	0.170558619	0.610106116	0.576616491
0.877472484	0.877730471	0.877468356	0.170680379	0.170694117	0.170643436
0.877439785	0.46170011	0.422123271	0.170545638	0.608270277	0.57195491
0.048805669	0.045536018	0.053475831	0.656251217	0.656171671	0.656060637
0.401700706	0.877728637	0.48109259	0.548320768	0.170609744	0.590297876
0.055355135	0.871757548	0.875270638	0.654612851	0.164263022	0.168629234
0.84396883	0.133749299	0.863076597	0.148409659	0.567886896	0.155519129
0.867736411	0.865647781	0.087797921	0.159773973	0.162063279	0.619608925
0.842029947	0.12520371	0.10369785	0.135215199	0.623874802	0.59831386
0.841756967	0.113677966	0.100539067	0.135241284	0.625982908	0.600395534
0.874299639	0.055323244	0.871740215	0.16814659	0.654756085	0.164583939
0.412140927	0.877565828	0.470023815	0.551849585	0.170639092	0.590724302
0.869050533	0.080550592	0.078107543	0.162589472	0.674921897	0.66253531
0.872189444	0.873310099	0.046525726	0.165156354	0.16813059	0.658939152
0.276904066	0.267868189	0.826465215	0.614314252	0.589221196	0.118777339
0.413104482	0.877509191	0.475899453	0.568412476	0.170592355	0.608281121
0.875736041	0.076056483	0.871041777	0.169458018	0.6504975	0.164787949
0.872783841	0.874293399	0.046825694	0.165382764	0.16829785	0.65884934
0.866817707	0.86701845	0.095436057	0.159595436	0.162583433	0.61752774
0.855528426	0.068919678	0.071415827	0.149042878	0.64982119	0.62932604
0.862719971	0.844133295	0.133787526	0.155469029	0.148633009	0.567804568
0.141819608	0.859333228	0.843530315	0.564531988	0.153007538	0.149285447
0.866461786	0.866401504	0.103967914	0.159154961	0.162384832	0.61531357
0.108021017	0.864668412	0.854087716	0.593586839	0.156692704	0.154493665
0.203287482	0.206668751	0.825523285	0.608939364	0.582098277	0.118802492
0.081289116	0.855516203	0.067895111	0.632103415	0.148977427	0.652906041
0.862365039	0.845816445	0.141674698	0.153973654	0.150111769	0.564543189
0.099783761	0.841673351	0.092866886	0.604194858	0.134875651	0.629575354
0.846950072	0.846140566	0.846575451	0.256705617	0.256958469	0.256450534
0.855403909	0.10791738	0.865080596	0.154923062	0.593936404	0.156574348
0.076051115	0.871300108	0.874909477	0.650539874	0.164502784	0.168735398
0.111419493	0.86435266	0.856001183	0.592078224	0.155668685	0.155140413
0.104092043	0.866404965	0.867238029	0.615203139	0.15870185	0.163174681
0.877388036	0.473125504	0.410299769	0.17062091	0.608970379	0.569383912
0.32816319	0.344668265	0.825994857	0.611160098	0.581596507	0.118689763
0.065237267	0.871170683	0.874959885	0.652382871	0.164557872	0.168619304
0.099832144	0.841614987	0.092893475	0.604333224	0.134877365	0.629423545
0.116643484	0.863804501	0.855400032	0.590399578	0.155616788	0.155799462
0.866755814	0.86618899	0.095462729	0.159187167	0.162221641	0.617390924
0.486617754	0.401963267	0.877351917	0.607540166	0.564630861	0.170442412
0.877378368	0.458999416	0.425643993	0.170573969	0.575621513	0.539573572
0.014496964	0.881080707	0.014641435	0.697067692	0.175153648	0.69704467
0.841574131	0.09276932	0.099828074	0.134857397	0.629515311	0.604483433
0.4591373	0.425668936	0.877427459	0.575413237	0.539296383	0.170620861
0.041090853	0.041288969	0.041648074	0.692594771	0.693078947	0.692662918
0.40148294	0.877353031	0.487263231	0.564714277	0.170537165	0.607789989
0.825607016	0.146164462	0.129561473	0.119091795	0.603183498	0.574274554
0.825688822	0.136280847	0.128037512	0.11907061	0.605835168	0.576925617
0.040863447	0.876917844	0.882318198	0.693194528	0.170919268	0.175387147
0.855895072	0.07973353	0.071556102	0.149186909	0.647980762	0.627513593
0.877344532	0.484089244	0.399392052	0.170582086	0.608764605	0.566081897
0.413218004	0.877440406	0.475756511	0.568259619	0.170578742	0.608114689
0.081306895	0.856316532	0.06730341	0.631539714	0.149310035	0.651997995
0.884047361	0.013705405	0.875559906	0.17567821	0.697277773	0.170733019
0.877707078	0.436949244	0.444804993	0.170488479	0.591283727	0.561789017
0.071407468	0.854790434	0.068788998	0.629423799	0.148346714	0.649700876
0.877423206	0.459053584	0.425628551	0.170596067	0.575675496	0.539619046
0.054548674	0.054253957	0.881673473	0.689671939	0.690670496	0.175479144
0.86681901	0.866935255	0.095485536	0.159468616	0.162592878	0.617365349
0.825547163	0.13615566	0.1296642	0.119087285	0.605884338	0.577187898
0.106208408	0.083170231	0.85471096	0.643301051	0.623499262	0.149025868
0.154031709	0.858739181	0.847123094	0.560970843	0.152302573	0.151657093
