Va	Vb	Vc	Ia	Ib	Ic
0.874530403	0.047243371	0.870702197	0.168537893	0.656845788	0.164429357
0.303585506	0.826047726	0.294675538	0.590420883	0.118964585	0.618527071
0.446241118	0.877291771	0.445750176	0.577378009	0.17056781	0.607627348
0.877673768	0.450543075	0.427115833	0.170697061	0.626556284	0.593098268
0.448154277	0.435901426	0.877417263	0.575761555	0.542802525	0.170564938
0.054270272	0.876633738	0.883798048	0.690451606	0.171340472	0.175522527
0.409735459	0.876699744	0.480502081	0.517598659	0.170483206	0.559345591
0.432584529	0.877381094	0.448020538	0.558249169	0.170434831	0.590931078
0.868843053	0.081421358	0.078425743	0.16261053	0.673523661	0.661809313
0.873517635	0.055399195	0.871421694	0.168569408	0.654938069	0.164708185
0.860434714	0.845665564	0.14745592	0.153058981	0.150691031	0.562530616
0.869007609	0.097973432	0.080631842	0.162765122	0.66676365	0.653966352
0.278355625	0.282357156	0.826322206	0.610868631	0.581156981	0.119070619
0.443006575	0.448139446	0.877349455	0.606595932	0.57658996	0.170605845
0.137197407	0.861259665	0.843893959	0.566399287	0.153719158	0.148527227
0.060026378	0.060039265	0.059903305	0.639853421	0.640172398	0.639929273
0.841453671	0.102866943	0.099160243	0.13497668	0.627833667	0.602816873
0.10288147	0.133266596	0.180006982	0.617685751	0.62100315	0.621605156
0.438911594	0.438906851	0.877844612	0.626697709	0.596323878	0.17056129
0.079409864	0.082239493	0.868810177	0.677708373	0.665433541	0.162587332
0.014199616	0.014468864	0.88176046	0.697617982	0.697572965	0.1752741
0.857757889	0.130476808	0.86272586	0.156700558	0.586520277	0.154543476
0.054318052	0.881319839	0.054651014	0.690787224	0.175471159	0.689930116
0.87738966	0.484109762	0.399794852	0.17055521	0.608640836	0.566029012
0.01391758	0.014337546	0.013888896	0.697007314	0.697429533	0.697448364
0.080490919	0.856066753	0.104342642	0.623587013	0.149588289	0.642950744
0.874225925	0.05542058	0.872334265	0.168720276	0.655075802	0.164840088
0.469543712	0.411263321	0.876716121	0.59036277	0.551915275	0.170133277
0.040864022	0.875110014	0.883176863	0.693187839	0.169754753	0.175134549
0.141554518	0.826097764	0.147903296	0.576252582	0.119188887	0.60569912
0.871621043	0.874347452	0.047238481	0.164849888	0.168031251	0.657022459
0.065201671	0.871677585	0.875214152	0.652882385	0.164473294	0.168666022
0.082449769	0.855790025	0.068351922	0.633512304	0.148957188	0.653980561
0.205871953	0.826042998	0.21004591	0.579001528	0.119124169	0.606162917
0.44636475	0.877389468	0.437091436	0.546052951	0.170612549	0.575749341
0.484949588	0.393082061	0.87778163	0.625223182	0.582578702	0.170756318
0.823786347	0.823908218	0.8259506	0.298967135	0.298608589	0.298607908
0.860998894	0.843778188	0.137184398	0.153793882	0.148164327	0.566278041
0.855696611	0.079540452	0.071821356	0.148886976	0.647901887	0.627587568
0.877131444	0.473316953	0.403925684	0.170691483	0.625822012	0.58618275
0.140466206	0.13104957	0.826464813	0.60581086	0.577333164	0.119266054
0.060081671	0.06000841	0.059894248	0.640046582	0.640614751	0.639927444
0.00000279	0.000003	0.00000286	0.699145636	0.699058074	0.698478591
0.465717848	0.424577975	0.877376751	0.608786594	0.572172542	0.170598362
0.871832426	0.874966014	0.055322619	0.164975712	0.168659943	0.654813511
0.059628975	0.063943474	0.062271202	0.652111879	0.651787825	0.652080458
0.877194682	0.438586522	0.438581882	0.170254384	0.626592416	0.596399637
0.856049525	0.0649142	0.078645014	0.149095743	0.652670856	0.631401135
0.857790169	0.123028434	0.864781448	0.156457578	0.588504761	0.155752878
0.465717101	0.42457726	0.877376092	0.608786586	0.572172283	0.170598517
0.877241741	0.877594811	0.87674102	0.17054832	0.170780613	0.170392785
0.079430613	0.082671551	0.868822842	0.677553263	0.665296926	0.162582747
0.279031435	0.282477311	0.825753038	0.612663381	0.584986597	0.118728047
0.219043603	0.239009428	0.826816539	0.609075058	0.577443218	0.118942878
0.013780829	0.014310265	0.014085938	0.69737309	0.69688626	0.696837889
0.00000549	0.874547567	0.88263611	0.699311821	0.170320943	0.174833572
0.079654998	0.071536378	0.855887423	0.647919542	0.627649479	0.149119915
0.123111326	0.86330732	0.856434003	0.588686586	0.155171584	0.156309398
0.865058351	0.077015908	0.866566712	0.161031961	0.623206601	0.159538541
0.866432465	0.865352948	0.088258649	0.159193491	0.161970763	0.61947466
0.083134335	0.07990552	0.868969749	0.675378827	0.662637014	0.16251462
0.450328606	0.42689819	0.877241425	0.626401993	0.593236836	0.170375131
0.877319403	0.44809634	0.435839993	0.170582032	0.575621189	0.542741595
0.872797463	0.876136576	0.065174452	0.165092818	0.169332685	0.652764371
0.825930881	0.240894562	0.247893569	0.118981592	0.611866207	0.581443815
0.421765655	0.877305244	0.459166888	0.555093182	0.170234571	0.590317366
0.14025104	0.13379193	0.825434508	0.605604063	0.5776186	0.118716394
0.141839827	0.861120434	0.844650537	0.564585559	0.154185026	0.150063125
0.871626484	0.875752189	0.075946625	0.164600656	0.169220808	0.650424801
0.429518773	0.877451732	0.459572961	0.524397626	0.170698324	0.559895809
0.403791962	0.877387826	0.484779197	0.564824343	0.170527062	0.60747728
0.081618447	0.301644628	0.287679763	0.619713012	0.617619636	0.617276436
0.855810272	0.068836232	0.072053215	0.148906559	0.649958637	0.629247094
0.077037732	0.868612835	0.866193503	0.623282979	0.160280925	0.161332347
0.102907443	0.133325206	0.180187623	0.617712309	0.620959305	0.621595037
0.824940265	0.823041885	0.825046695	0.29855549	0.298585913	0.298174235
0.09998722	0.081324112	0.869210293	0.669234363	0.657583375	0.162747621
0.10025951	0.841780737	0.113882839	0.600498734	0.135105229	0.625584301
0.86457958	0.854694814	0.107698974	0.156214202	0.15427422	0.593731816
0.058674436	0.038668642	0.077633855	0.679260839	0.67916488	0.679858219
0.459827157	0.429846104	0.878040746	0.559816446	0.524321165	0.170776582
0.00000278	0.00000292	0.00000283	0.699257245	0.699342765	0.699525499
0.877324785	0.43712667	0.444128379	0.170415922	0.591507401	0.56194756
0.864526096	0.855110747	0.107706183	0.156456504	0.154018812	0.593712401
0.876423379	0.882407597	0.0000055	0.170677367	0.175308676	0.699298584
0.439022489	0.878075844	0.439027213	0.596295961	0.171210037	0.62671017
0.066914596	0.078715448	0.854950161	0.654002505	0.634106645	0.148735021
0.85579878	0.068869553	0.071725067	0.148891996	0.649815462	0.62916182
0.107642567	0.864689321	0.854443083	0.593698411	0.156737507	0.154425703
0.459710819	0.429804949	0.877881456	0.55984314	0.524457209	0.170762072
0.101039918	0.130083589	0.171264814	0.617158185	0.622099064	0.620675002
0.107693898	0.864697094	0.854270547	0.593796392	0.156832096	0.154472721
0.423654562	0.877404748	0.465610589	0.57295087	0.170564785	0.609711923
0.046336143	0.048223008	0.053456887	0.658043735	0.658901117	0.659782379
0.841803251	0.092695077	0.099671008	0.134793137	0.629621418	0.604356032
0.44497913	0.877571407	0.43866047	0.562581332	0.170784686	0.592332187
0.876307099	0.883701963	0.027319063	0.170569073	0.175816728	0.695045413
0.877357378	0.484738778	0.39286936	0.170585228	0.625305702	0.582581411
0.841643437	0.113700715	0.100386126	0.135149936	0.625800252	0.600881593
0.884126874	0.0000055	0.876322871	0.175490779	0.699359646	0.170889448
0.078888568	0.868764065	0.087543112	0.662240768	0.162696045	0.674412511
0.84792728	0.846230784	0.847572169	0.257691286	0.257408625	0.2570681
0.059407454	0.064114571	0.063232379	0.652231005	0.651335795	0.651663812
0.040865849	0.875386181	0.884290912	0.693238371	0.169905452	0.175191437
0.874267859	0.049991121	0.872314663	0.168278321	0.65881862	0.164991212
0.111498894	0.864189716	0.855558996	0.591951624	0.155855152	0.155118896
0.872124703	0.874916677	0.04621077	0.165128914	0.168606745	0.65804428
0.877332586	0.459000906	0.425570891	0.17058365	0.575594821	0.539603049
0.860839021	0.844248797	0.141727344	0.1528975	0.148992212	0.564558286
0.435006948	0.877392565	0.454899972	0.574031346	0.170545957	0.607691744
0.126630773	0.107902117	0.147075587	0.616362301	0.614533272	0.615013602
0.867009476	0.866443415	0.081719433	0.159513521	0.161943984	0.621196894
0.855124889	0.111452664	0.863842107	0.154683388	0.592176629	0.155735148
0.103159873	0.841810024	0.124874283	0.59862862	0.135253415	0.623596028
0.411721275	0.877633417	0.469985872	0.551650243	0.170354276	0.590500709
0.871296627	0.874940467	0.075953102	0.164331729	0.168470436	0.650489913
0.130481145	0.863001251	0.857294657	0.586612211	0.155132514	0.157266161
0.041286804	0.881900696	0.041434451	0.692949846	0.175143636	0.692891584
0.027418052	0.88166355	0.027621406	0.695208445	0.175155737	0.694507135
0.07303627	0.855257699	0.071114094	0.629585546	0.149003241	0.649779635
0.86154919	0.863484091	0.862156823	0.218508778	0.219178337	0.219116202
0.058773707	0.038791891	0.077684796	0.679835813	0.679023757	0.680235355
0.877577163	0.472043261	0.479074447	0.170692729	0.561263575	0.532266153
0.05461687	0.054274878	0.881757602	0.689925667	0.690183736	0.175655872
0.85765558	0.130477064	0.862937904	0.157120885	0.586558072	0.154993566
0.072926428	0.855946348	0.071338807	0.629644822	0.149579336	0.650189946
0.074393963	0.855344541	0.091379755	0.625777833	0.149084001	0.645523962
0.877391306	0.483899732	0.399998454	0.170532615	0.608525206	0.565952527
0.275389634	0.277682687	0.82606551	0.611072747	0.582788725	0.119007992
0.865941811	0.081493059	0.867600756	0.16191342	0.621490966	0.159700355
0.854799441	0.111487226	0.864398935	0.154667712	0.592181935	0.155789547
0.884113494	0.027325114	0.875029632	0.175566136	0.695216809	0.170293123
0.419706565	0.877397273	0.470205803	0.521040116	0.17055312	0.559629123
0.877348739	0.440467051	0.444174581	0.170618512	0.60987066	0.579581158
0.277982805	0.284933389	0.82586236	0.616567008	0.587436221	0.118601778
0.882166088	0.027325621	0.87650262	0.175699987	0.695199377	0.171309721
0.882402846	0.054423048	0.054268702	0.175373105	0.689995348	0.690244653
0.878064589	0.485084884	0.393230674	0.170789635	0.625203013	0.582620703
0.054297126	0.881262812	0.054617014	0.69106652	0.175440879	0.690039285
0.881442388	0.05463317	0.054210111	0.175375808	0.690294601	0.690346654
0.172162318	0.156518693	0.096686145	0.617861364	0.617417063	0.615863443
0.058900681	0.038211827	0.077088759	0.679716165	0.679112691	0.680253319
0.054676926	0.055194719	0.054852498	0.690206463	0.690238222	0.690386619
0.11372003	0.100205072	0.841841991	0.626256253	0.600840453	0.135010303
0.054308959	0.881766455	0.054615391	0.691017235	0.17538933	0.690363185
0.091789216	0.074547784	0.855827186	0.645696798	0.625412253	0.149650852
0.861092453	0.84441109	0.141749396	0.152865933	0.148933837	0.564507632
0.426777875	0.876994965	0.450202847	0.593151981	0.170530271	0.626420715
0.877292685	0.43704621	0.446315119	0.170596078	0.575721428	0.546056769
0.862092624	0.855362158	0.123154648	0.155091392	0.156161151	0.58843459
0.415561701	0.877660104	0.462125436	0.589695288	0.170692273	0.626230875
0.877114867	0.47000922	0.411967006	0.170175227	0.591442465	0.5527443
0.863913904	0.85675807	0.123109443	0.155664935	0.156500894	0.588560628
0.124574146	0.296621346	0.204622856	0.621709081	0.62707418	0.624871762
0.415635637	0.877412223	0.469942639	0.536202658	0.170574056	0.575466427
0.414007071	0.877224745	0.474927542	0.568200453	0.170621776	0.607205377
0.877387479	0.469817199	0.415549536	0.170556666	0.57540448	0.536119983
0.045240898	0.871929749	0.873781246	0.659024725	0.165280134	0.168165359
0.877614723	0.448790104	0.439740578	0.170716335	0.559966084	0.527629463
0.877496661	0.462042326	0.415481643	0.170506376	0.626088313	0.589818166
0.432605893	0.877378466	0.447972431	0.558250312	0.170481358	0.590936959
0.866691186	0.865626372	0.104293934	0.15913569	0.162452084	0.6149655
0.014245626	0.881113616	0.014523041	0.697195813	0.175284616	0.697681565
0.558496342	0.877202827	0.537361506	0.527127346	0.170587602	0.555997461
0.067225794	0.078684183	0.854677067	0.653950403	0.63375929	0.149109161
0.040202414	0.0464485	0.07399796	0.677728982	0.676838818	0.678877626
0.87819444	0.485151747	0.393293708	0.170736281	0.625223306	0.58264691
0.877357719	0.459021153	0.42557017	0.170577511	0.575609618	0.53961607
0.443813581	0.447755458	0.877401258	0.606877009	0.577319209	0.170579949
0.823809291	0.823847532	0.82557967	0.299046897	0.298575432	0.298567602
0.435993915	0.87742226	0.448138104	0.542679051	0.170630565	0.575482809
0.014677667	0.014479534	0.881197186	0.697223754	0.697515176	0.175284114
0.402686784	0.877385104	0.486004323	0.564731345	0.170536125	0.607384795
0.871867945	0.874057177	0.047386796	0.165205069	0.168232691	0.658642779
0.130412566	0.863509361	0.857485803	0.58628436	0.155109809	0.157422758
0.480865596	0.410179305	0.877520528	0.559261912	0.517667544	0.170470711
0.841760739	0.102956455	0.098904288	0.134982074	0.628087086	0.602768622
0.868920552	0.090305073	0.07745758	0.162673367	0.671372745	0.659304767
0.041432043	0.041050452	0.041814621	0.693278973	0.691771779	0.692779661
0.153975157	0.85916145	0.846449394	0.560861789	0.151933473	0.151248087
0.883612594	0.027325783	0.875097401	0.175310566	0.69520872	0.169993039
0.874827733	0.076026268	0.871343832	0.168488878	0.650490856	0.164517984
0.139903483	0.131044004	0.825583879	0.606060472	0.577500522	0.119205739
0.877303283	0.44804049	0.435863549	0.170603168	0.575694436	0.542831699
0.113674894	0.100336984	0.841409658	0.626108539	0.600683106	0.135001314
0.027478906	0.881384353	0.027641739	0.695132629	0.175026817	0.694701072
0.873180798	0.876573727	0.06518652	0.165322522	0.169072262	0.652774448
0.104132778	0.866682369	0.86710669	0.615215914	0.159327737	0.16290524
0.881940902	0.027643792	0.027353192	0.175394064	0.694387545	0.694811517
0.01370913	0.877140725	0.884362862	0.697402208	0.170979589	0.175450333
0.82611322	0.220419035	0.23215271	0.118853138	0.61194161	0.582576369
0.076999755	0.86801787	0.86571402	0.623125711	0.160335629	0.161788609
0.070209463	0.07159013	0.073808434	0.649226028	0.649775162	0.649745918
0.865511174	0.087693841	0.866898288	0.161840263	0.619207943	0.159207942
0.466031296	0.424035051	0.877300126	0.608766449	0.572061249	0.170565941
0.425631655	0.877237748	0.459026741	0.539395524	0.170601796	0.575475215
0.866782189	0.865803903	0.088343268	0.159278846	0.161955332	0.619059817
0.87719741	0.438588024	0.438583304	0.170384641	0.626586245	0.59640907
0.862076638	0.862740221	0.863488284	0.21919738	0.219166713	0.219261863
0.079748316	0.869152661	0.093236731	0.659032515	0.162733205	0.670388919
0.877345674	0.459021676	0.425586265	0.170598406	0.575689428	0.539652404
0.841403494	0.083372608	0.102173287	0.134854791	0.631337902	0.606260897
0.041250883	0.882943155	0.0417886	0.692775933	0.175761381	0.692474225
0.404184167	0.877637345	0.473564734	0.58619033	0.170809715	0.625836863
0.077096175	0.867576952	0.864637545	0.623233212	0.160073351	0.161119821
0.448055126	0.43272576	0.877645277	0.590941	0.558422131	0.170215702
0.470210662	0.419817768	0.877509345	0.559648052	0.520988547	0.170612624
0.855809214	0.068876936	0.071605489	0.1488814	0.649752448	0.629153258
0.013793722	0.014081044	0.013927329	0.6971024	0.697317226	0.69753031
0.459089919	0.425657503	0.877306636	0.575437462	0.539330841	0.170585027
0.856334174	0.107533414	0.866471967	0.15511197	0.593825789	0.157047427
0.484981636	0.393137888	0.877867262	0.62517122	0.58258327	0.170788805
0.873222545	0.87474762	0.874927199	0.188275942	0.189057847	0.189287872
0.130465797	0.863422106	0.857273038	0.58656203	0.155150807	0.157299182
0.864804989	0.854818102	0.107672877	0.156363955	0.154086818	0.593906477
0.079309507	0.868728659	0.088291419	0.663145215	0.162685635	0.674650114
0.877271404	0.470158002	0.411873176	0.170215118	0.591517398	0.552814056
0.099218617	0.841767291	0.103046632	0.6024291	0.134912134	0.62763514
0.066553575	0.07780558	0.854631379	0.653768926	0.63428061	0.149078744
0.028015227	0.027616588	0.028512747	0.69532811	0.695549319	0.69525578
0.861050923	0.844171759	0.141721071	0.153115307	0.149208943	0.564539068
0.100047878	0.131795157	0.173619584	0.616766384	0.621425628	0.618302992
0.047156388	0.872155986	0.87391123	0.656888924	0.165262266	0.168285327
0.866056353	0.081525542	0.866982904	0.161713459	0.6213134	0.159596391
0.056469791	0.044756816	0.075306809	0.674667382	0.674751873	0.675523393
0.863764307	0.86366639	0.863126811	0.218470974	0.21942631	0.218914244
0.402146739	0.877306146	0.486661319	0.565366266	0.170558515	0.608299081
0.880368256	0.054651516	0.054384231	0.175078094	0.69005027	0.690337578
0.877874372	0.462233456	0.41566802	0.170713041	0.626336126	0.589659745
0.448160737	0.435910689	0.877429086	0.575830231	0.542889947	0.170549096
0.080017782	0.868964033	0.094166668	0.659299914	0.162663669	0.670414456
0.868942961	0.089854813	0.075406197	0.162676041	0.671455608	0.659261418
0.875803104	0.883861358	0.05427342	0.170884725	0.175734175	0.690477335
0.102923863	0.078843058	0.855348766	0.643635478	0.623691834	0.149262865
0.845001333	0.133716292	0.864103596	0.14853102	0.567793628	0.155608635
0.480886573	0.405821511	0.877515686	0.574771456	0.532253349	0.170540083
0.404099251	0.877461699	0.473473986	0.586157352	0.170819776	0.625815128
0.87061093	0.874211307	0.075955756	0.164387627	0.168106877	0.650435816
0.133725691	0.86272633	0.844041952	0.567834975	0.15519773	0.148178035
0.068814436	0.071259415	0.855289904	0.649483057	0.629439215	0.149017079
0.871642475	0.874217934	0.048019038	0.165085358	0.168115733	0.658648878
0.882196495	0.027766971	0.027406233	0.17557344	0.694524095	0.694864436
0.480869144	0.410202833	0.87754596	0.559261619	0.517666888	0.170464129
0.013805553	0.014525519	0.014155375	0.696614889	0.697425647	0.69703595
0.868683326	0.081502274	0.078730776	0.162598453	0.67448907	0.662550171
0.027322062	0.87647071	0.882943163	0.695106392	0.17073209	0.17527932
0.869120416	0.082876734	0.074775878	0.162560566	0.672829719	0.659552803
0.856867504	0.130471068	0.863433072	0.156496158	0.586437754	0.154460723
0.856815672	0.079532687	0.071768537	0.149250623	0.647829893	0.627554013
0.10302078	0.078890028	0.855948254	0.643344429	0.623323526	0.149518299
0.872550875	0.875837387	0.075963648	0.164963849	0.169003068	0.650489998
0.07042312	0.065386409	0.085650878	0.670342209	0.671111888	0.672715337
0.095542269	0.866656986	0.865901131	0.617496135	0.158908011	0.161994736
0.404339685	0.877941794	0.473714496	0.586235058	0.170758805	0.625861268
0.410064248	0.87733061	0.480790765	0.517488814	0.170446311	0.559465237
0.113772245	0.100289987	0.841940234	0.625863458	0.600618121	0.135209833
0.877266386	0.459484845	0.429417287	0.170407978	0.559799579	0.524422159
0.881792517	0.00000482	0.00000488	0.175528747	0.699193271	0.699153685
0.856948662	0.079541399	0.071783872	0.149234307	0.647901398	0.627477483
0.855303481	0.068843684	0.072037808	0.149218	0.649898929	0.629393362
0.435878158	0.877304023	0.448041692	0.542879154	0.1705454	0.575825961
0.875873426	0.065228075	0.871353999	0.168698587	0.652824519	0.16433269
0.438714351	0.444130658	0.877342413	0.591511725	0.56215808	0.170401768
0.877637881	0.481034602	0.401692736	0.171001006	0.59028531	0.547924097
0.087936601	0.079523012	0.868676349	0.672592158	0.660613874	0.162670492
0.027825564	0.027563419	0.028113086	0.694874361	0.694409924	0.695024434
0.841828669	0.102973934	0.099160827	0.135038419	0.627734878	0.602569779
0.872548129	0.87585393	0.065204196	0.165505405	0.169054252	0.652793824
0.865728797	0.087709333	0.866802894	0.161862753	0.619340571	0.159304309
0.881474428	0.054659327	0.054155465	0.17546591	0.690326762	0.690293077
0.867900487	0.865240228	0.077594468	0.159943878	0.161514933	0.623468053
0.877310633	0.440273273	0.443886687	0.170501463	0.608067473	0.577785457
0.847544541	0.847045151	0.845816553	0.257398377	0.257556321	0.25674129
0.4593716	0.429509915	0.87723805	0.559806681	0.52432725	0.170769181
0.414802526	0.877394462	0.474279812	0.569668982	0.170561916	0.608827997
0.872230434	0.873927723	0.055336378	0.164559804	0.167685113	0.654729572
0.881975872	0.027597987	0.027313235	0.175462783	0.694385433	0.694717818
0.013880662	0.01415777	0.013812431	0.697069592	0.696991157	0.69678274
0.877793614	0.462191843	0.415629012	0.170726448	0.626283119	0.589661557
0.847010085	0.153925345	0.859397079	0.151553648	0.560958173	0.152134609
0.846522215	0.846133547	0.847607452	0.257368409	0.25678571	0.257671078
0.125239604	0.113329689	0.152076922	0.616409045	0.614318599	0.615198047
0.1247524	0.102965503	0.841849392	0.623822839	0.598125386	0.135141537
0.429614332	0.877608773	0.459640342	0.524423904	0.170598143	0.559726115
0.877155395	0.462128935	0.421015645	0.170584684	0.608851326	0.572306094
0.864901129	0.855627725	0.116577898	0.156205487	0.1561097	0.590399322
0.484781533	0.392942374	0.877469797	0.62536415	0.582500993	0.170563517
0.881936254	0.041038167	0.0408045	0.175484582	0.692673118	0.693010227
0.092539085	0.080517083	0.869017508	0.667807443	0.657096238	0.16264854
0.856689002	0.13044506	0.863341164	0.156752271	0.586487503	0.154582974
0.083385823	0.102206888	0.841805996	0.631221566	0.605878545	0.134726442
0.054249817	0.881446667	0.054624266	0.690581614	0.175382455	0.690025066
0.079187714	0.868964965	0.088069009	0.663449958	0.162639231	0.672403258
0.883854764	0.027330403	0.876480439	0.175696413	0.695317607	0.170956538
0.88354764	0.027330552	0.875896221	0.175365449	0.695346683	0.170892195
0.411567673	0.87726063	0.469779832	0.551441197	0.170501697	0.590624975
0.153936314	0.859766699	0.846776125	0.56080594	0.15231599	0.151455929
0.00000549	0.876402643	0.883604311	0.699060859	0.17107157	0.175571355
0.459378624	0.429368333	0.877106789	0.559893322	0.524381786	0.170630003
0.085729539	0.077808207	0.868891015	0.672757536	0.661594144	0.162584459
0.857601143	0.068751401	0.071773625	0.149380953	0.649874737	0.629717575
0.054275618	0.881719078	0.054638801	0.690423109	0.17532396	0.69010723
0.877287758	0.437124867	0.444239408	0.170371151	0.591453936	0.561925109
0.10303159	0.07893836	0.85601366	0.643487545	0.623633409	0.14976022
0.877340431	0.459021182	0.425557138	0.170587842	0.575697929	0.539647603
0.868682811	0.077041873	0.080086975	0.162582942	0.676166741	0.664302726
0.459083899	0.425736301	0.877404978	0.575499013	0.539375433	0.170573374
0.102172453	0.841555787	0.083437124	0.605834217	0.134783288	0.630687904
0.15393311	0.8600421	0.847061051	0.560909011	0.152845837	0.15202932
0.059981266	0.060040119	0.059964406	0.640245138	0.640106157	0.639934966
0.857526459	0.130470488	0.862687235	0.156710358	0.586541079	0.154560268
0.0000028	0.00000296	0.00000282	0.699299059	0.69922593	0.699525768
0.113852978	0.100223928	0.841572676	0.626051428	0.600636142	0.135024513
0.013706146	0.875955129	0.882738665	0.697279871	0.170903196	0.175609754
0.470057502	0.411746581	0.87769258	0.590686122	0.551453525	0.170714032
0.869129892	0.097680282	0.078900921	0.162749414	0.66992398	0.657314182
0.027539621	0.027627955	0.02801466	0.695268472	0.695151013	0.695065407
0.092756099	0.099631642	0.841582367	0.629507997	0.604462143	0.134929503
0.054590136	0.054216329	0.88201223	0.689987939	0.69058109	0.175760309
0.860980148	0.843752827	0.141719044	0.153362477	0.149444632	0.564533353
0.401566328	0.877621659	0.480792284	0.548155171	0.170190039	0.590246598
0.209345314	0.826081529	0.213226941	0.580866575	0.119365403	0.609215628
0.841665539	0.124809136	0.103677628	0.135303815	0.62305967	0.598039179
0.059386022	0.064527516	0.06338187	0.652006776	0.651758316	0.652117754
0.480905902	0.410190215	0.877563388	0.559419373	0.517504224	0.170744709
0.882678559	0.054271616	0.876641557	0.175049847	0.690463746	0.17092979
0.059623743	0.064891104	0.063062017	0.652036514	0.651764116	0.652040325
0.111384906	0.865350457	0.855941015	0.592259615	0.156329926	0.155578638
0.045797673	0.048230915	0.05459432	0.655415308	0.65653663	0.65539253
0.857330538	0.12303739	0.864560571	0.156558868	0.588467075	0.155480778
0.10372725	0.841770678	0.125102805	0.598512818	0.135431995	0.623615565
0.123108641	0.86368268	0.856934032	0.58834947	0.155597777	0.156768598
0.014467076	0.014749655	0.882300087	0.696753168	0.697391357	0.175706896
0.865340368	0.077054781	0.866977411	0.161125561	0.622912731	0.15945231
0.841240878	0.083332027	0.102215402	0.134842005	0.631168659	0.605931266
0.425521402	0.877200599	0.459073471	0.539482499	0.170512249	0.575597191
0.874691365	0.065248019	0.871813344	0.168536505	0.652757214	0.164753489
0.436227966	0.877369702	0.45431617	0.576406874	0.17052352	0.609813343
0.877470557	0.480600042	0.405713937	0.170590327	0.575279176	0.532897448
0.877404832	0.47359036	0.410222642	0.170556284	0.609107026	0.569231324
0.866867138	0.866605846	0.095425435	0.159338016	0.16262093	0.617867876
0.85572453	0.066463905	0.079136047	0.148621334	0.652382511	0.631752836
0.865963302	0.081507616	0.867260501	0.16159124	0.621302627	0.159620956
0.881405176	0.00000481	0.00000493	0.175426431	0.698948125	0.699106219
0.124715702	0.103228878	0.841730068	0.624172841	0.598551326	0.13511033
0.882060369	0.00000487	0.00000487	0.175455802	0.699273365	0.699228707
0.88127537	0.0000049	0.00000477	0.175372008	0.699079245	0.69903712
0.877076804	0.884268911	0.0000055	0.171078168	0.176514863	0.699625165
0.877491632	0.480512165	0.405726281	0.170596028	0.575409082	0.532977186
0.864466148	0.856050856	0.11665108	0.155496841	0.155516367	0.590339773
0.877604671	0.473983208	0.484308458	0.170737492	0.561814705	0.532202208
0.051790796	0.053696551	0.058086343	0.654398667	0.654188148	0.654398942
0.87764334	0.480995287	0.401721244	0.171030406	0.590260741	0.547889613
0.864876022	0.854471387	0.107754947	0.156328613	0.154422805	0.593886735
0.413552356	0.877410619	0.47571822	0.566211735	0.170624384	0.606087646
0.872686626	0.875965543	0.06518138	0.165239927	0.169099986	0.652783377
0.876893385	0.884154285	0.027328447	0.170632874	0.175896994	0.695248976
0.447289375	0.877351719	0.444277218	0.576906495	0.170550686	0.607217334
0.845254012	0.147479876	0.858831573	0.150202284	0.562776498	0.152501779
0.469857818	0.415754785	0.877400371	0.575416823	0.536268027	0.170590681
0.455028531	0.435834309	0.877423088	0.611041927	0.577397398	0.170578798
0.405780703	0.877348858	0.480695524	0.532734772	0.17063064	0.575050688
0.880653415	0.054653414	0.054348797	0.174974887	0.690194468	0.69037824
0.438937403	0.438932671	0.877896247	0.62669058	0.596327572	0.170608007
0.844638636	0.147507797	0.858777706	0.150237871	0.56274252	0.15267558
0.077013063	0.868014265	0.864973237	0.623027381	0.160184313	0.161138457
0.855212373	0.116686739	0.863098465	0.155179739	0.590316994	0.155600441
0.435957367	0.877439518	0.448148397	0.542712456	0.170600958	0.575624164
0.862143737	0.843743204	0.133732784	0.155268957	0.14815842	0.567778731
0.876424755	0.883147652	0.013706664	0.171139328	0.175730951	0.697312152
0.083180614	0.08065051	0.869015477	0.675833538	0.663331117	0.162528033
0.062426362	0.062482004	0.06237717	0.63825201	0.638391489	0.638538497
0.877555783	0.448761339	0.439711584	0.170575288	0.559761878	0.527765207
0.485005298	0.393163429	0.877916239	0.625149205	0.58259739	0.170754468
0.473342212	0.403975614	0.877205957	0.625771132	0.585989632	0.170456983
0.013738383	0.014115543	0.014007051	0.697058753	0.696738634	0.696332725
0.841572236	0.125127823	0.103712655	0.135309998	0.623087359	0.597739344
0.877444788	0.448068754	0.432867437	0.170401882	0.590774705	0.557866189
0.856617735	0.102824147	0.078849221	0.149490914	0.643437563	0.623690461
0.85563058	0.111414529	0.864443812	0.154988202	0.592042113	0.155903665
0.470108836	0.419596259	0.877183312	0.559637024	0.521059569	0.170796339
0.415452511	0.877212801	0.469950067	0.536022102	0.170519814	0.57530749
0.877635544	0.448032772	0.433113153	0.170646335	0.591230094	0.558677356
0.55941477	0.876985106	0.565838748	0.538558747	0.170429695	0.566118445
0.411619	0.877545529	0.470011291	0.551591895	0.170476643	0.590526556
0.439021169	0.443960318	0.87751943	0.590983152	0.561625434	0.170377569
0.480767241	0.401466969	0.877550607	0.590036065	0.548258605	0.1704262
0.448607348	0.439462207	0.877143793	0.559699192	0.527760745	0.170445154
0.841700769	0.124899057	0.103405851	0.135270791	0.623478054	0.598027149
0.429880581	0.878082608	0.459841181	0.524321028	0.170869581	0.559889848
0.459774188	0.429834474	0.877976785	0.559861739	0.524480095	0.170794517
0.422333907	0.877776225	0.459069626	0.555381409	0.170552667	0.591180934
0.845866317	0.846933253	0.846582871	0.256509484	0.256842241	0.257115905
0.841576297	0.113798897	0.100329752	0.135150256	0.625754974	0.600839084
0.446305343	0.877295913	0.437056033	0.546061323	0.170537975	0.575734104
0.877267023	0.448692517	0.439475291	0.170507423	0.55975886	0.527727803
0.470041573	0.411746078	0.877695543	0.590649417	0.551447145	0.170612842
0.088290323	0.080130867	0.868765442	0.672413441	0.660277643	0.162684275
0.013704794	0.876141046	0.882270667	0.697216392	0.170759245	0.175577093
0.877262585	0.483831634	0.399909217	0.170533156	0.608483132	0.565877618
0.480795814	0.40589847	0.877509254	0.57477352	0.532347875	0.170570306
0.462010114	0.415443975	0.877427092	0.626341941	0.589650702	0.170592067
0.877686259	0.47031756	0.419885287	0.170739454	0.559639361	0.520957203
0.844773179	0.141805044	0.861109432	0.149857886	0.56456962	0.153970038
0.149535467	0.134893898	0.825529527	0.60395417	0.574548038	0.119321353
0.874867473	0.065249475	0.871291559	0.16865669	0.652692663	0.164850859
0.841732531	0.092703608	0.099691025	0.134791521	0.629630066	0.604229376
0.067575203	0.06772472	0.067818869	0.636511679	0.63669795	0.636740223
0.080769923	0.85575201	0.067840888	0.631408918	0.149033334	0.652272164
0.070716054	0.051670033	0.0833113	0.673464904	0.672516624	0.674112412
0.469937323	0.415586877	0.877284366	0.575163604	0.535942948	0.170534043
0.045707552	0.047763392	0.053590863	0.655706666	0.656268772	0.65657061
0.824587157	0.82311433	0.823020248	0.298081268	0.29871842	0.298041221
0.088084457	0.078203642	0.868891574	0.672589643	0.661565452	0.162595575
0.86639806	0.081527928	0.867290177	0.161705493	0.621429187	0.159569165
0.862946875	0.863882711	0.862759333	0.218931577	0.219332766	0.219033305
0.092916381	0.080996754	0.868975354	0.667808236	0.656848398	0.162715279
0.855598384	0.102797717	0.078683327	0.149597545	0.643353772	0.623853134
0.102937936	0.841874572	0.124960283	0.598585747	0.135153096	0.623591291
0.87285251	0.87414729	0.87207783	0.188565103	0.189077552	0.188791132
0.079933588	0.868927606	0.094207659	0.65926268	0.162670675	0.670365888
0.826561384	0.201812407	0.194926382	0.118905945	0.609283002	0.578045747
0.00000487	0.000005	0.88191374	0.6991007	0.699205007	0.175374039
0.845897868	0.846824927	0.846090444	0.256257139	0.257315371	0.256537402
0.863879275	0.85643076	0.123150404	0.155174457	0.155983092	0.588574841
0.147411887	0.860052324	0.846076638	0.562688759	0.152747353	0.150508385
0.877313465	0.469703331	0.41555645	0.170591675	0.575333728	0.536071496
0.861197208	0.842660148	0.133718795	0.154869807	0.147781341	0.567792871
0.067652817	0.067617609	0.067875897	0.636346945	0.636304986	0.636672944
0.014050849	0.88143951	0.014347013	0.697285556	0.175419168	0.697058526
0.825733799	0.280040254	0.299263311	0.11846466	0.612123027	0.583321895
0.82560543	0.27180873	0.282418952	0.11835367	0.611013961	0.582026587
0.438271176	0.444482704	0.877453937	0.592705632	0.563192647	0.170480484
0.877366327	0.469683393	0.415704436	0.170564402	0.575401489	0.536126579
0.087664355	0.867138103	0.866623462	0.619528381	0.159541589	0.162430197
0.88127537	0.0000049	0.00000477	0.175372008	0.699079245	0.69903712
0.86570486	0.087712087	0.866799175	0.161869624	0.619321285	0.1593088
0.874203013	0.06524607	0.870901424	0.168497832	0.652771224	0.164753668
0.130423642	0.863566139	0.857472118	0.586291833	0.155126659	0.15741943
0.873275472	0.874414871	0.875230532	0.188688498	0.188845125	0.189593995
0.876289203	0.884328654	0.054282888	0.171353317	0.175820698	0.690632475
0.446243244	0.877346969	0.444390637	0.576456541	0.170558778	0.606937119
0.00000484	0.00000485	0.881742909	0.699379882	0.699830465	0.175324898
0.877324663	0.440310125	0.444063203	0.170631706	0.608764145	0.578151685
0.013913494	0.014322246	0.013863449	0.696642576	0.697510172	0.697448864
0.841931644	0.092697787	0.09968507	0.134786766	0.629646198	0.604392957
0.00000277	0.00000296	0.00000287	0.699156788	0.69959292	0.698844567
0.470099675	0.41956177	0.877144481	0.559660605	0.521080331	0.170781484
0.475959734	0.413478074	0.877428879	0.608482704	0.569178589	0.170613709
0.082325805	0.868934569	0.08363599	0.663491997	0.16249027	0.677196031
0.051434395	0.05370984	0.057182306	0.653726631	0.654172664	0.654020414
0.877375584	0.459017603	0.425604536	0.170572967	0.575635903	0.539632804
0.88185234	0.00000481	0.00000488	0.175515272	0.699239024	0.699146771
0.045167085	0.871758963	0.873507665	0.659038701	0.165294786	0.168175939
0.84691761	0.153952148	0.858749376	0.151464247	0.560901028	0.152082429
0.875898221	0.047214819	0.871236705	0.168574134	0.656697963	0.164249277
0.860702621	0.845103656	0.14753439	0.152698491	0.150268296	0.562821754
0.87779929	0.470425609	0.419883778	0.170660031	0.55957215	0.520927786
0.40142721	0.877543294	0.480867006	0.547751311	0.170632287	0.589356735
0.013705616	0.875998243	0.883794414	0.697211885	0.170948842	0.175772315
0.866718543	0.104063626	0.86657915	0.162609821	0.615109312	0.159154353
0.079628971	0.071587863	0.855789144	0.647939767	0.627478893	0.149182802
0.480667294	0.405879308	0.87732517	0.574344766	0.531941627	0.170476037
0.130406352	0.86429838	0.858039296	0.586428894	0.155143851	0.157402241
0.124763575	0.103131938	0.841933077	0.623670264	0.598599677	0.135234691
0.083995089	0.868966172	0.085731919	0.660109922	0.162626887	0.674243738
0.060000268	0.060025829	0.059969013	0.639387313	0.640040285	0.639991188
0.413887843	0.877388343	0.475659094	0.566027091	0.170677955	0.605483795
0.868984803	0.083268896	0.075599408	0.162659359	0.674226263	0.661489435
0.458724185	0.42169599	0.876856704	0.590733621	0.554999683	0.170323267
0.130416217	0.863684964	0.857573352	0.586559197	0.155210484	0.157326535
0.455048822	0.435898422	0.877388984	0.610970529	0.577443556	0.17059073
0.145647317	0.827055659	0.147304942	0.576701098	0.118976174	0.604216587
0.099754772	0.841624438	0.092685147	0.604564674	0.134788403	0.62981283
0.868662162	0.077553511	0.080216809	0.162577744	0.676247463	0.664269439
0.051808225	0.053351745	0.057697891	0.654057163	0.653949416	0.653788567
0.059364839	0.063792224	0.063039695	0.652101257	0.652488262	0.652294653
0.854814594	0.079440673	0.07185105	0.149101779	0.647763037	0.627415524
0.866253642	0.077168886	0.868503347	0.161431156	0.623190222	0.159852955
0.822629114	0.823300623	0.823702503	0.298094369	0.298764787	0.298310267
0.42565928	0.877450776	0.459132024	0.539354224	0.170650865	0.575359234
0.841482613	0.124889249	0.104017972	0.135324421	0.62295745	0.597744932
0.872221114	0.874785635	0.065183356	0.164816403	0.168589482	0.652816448
0.8261874	0.224975375	0.238985721	0.118804794	0.609640658	0.580707201
0.459639949	0.429617779	0.877625015	0.559852181	0.524466447	0.170791396
0.027452033	0.881665682	0.027606638	0.695151102	0.175167378	0.694546999
0.432866875	0.877998244	0.448305569	0.558357975	0.170764323	0.591425239
0.872277794	0.874525144	0.065199171	0.165447004	0.169029531	0.652847772
0.874816426	0.873474151	0.874461495	0.188803777	0.188424414	0.188368767
0.075986986	0.871071802	0.874388444	0.650559501	0.164636927	0.168504478
0.872573642	0.874831359	0.065181847	0.164801529	0.168552467	0.652842262
0.095472164	0.866007425	0.866221983	0.617638253	0.159001337	0.162224663
0.103219533	0.125068529	0.170750457	0.617115109	0.618890424	0.617524034
0.014242829	0.013871235	0.881930712	0.697672306	0.69753137	0.175443975
0.85551421	0.107504315	0.86590327	0.154948427	0.594002942	0.157013141
0.103568339	0.841778229	0.125054357	0.598535758	0.135429736	0.623613425
0.877297594	0.458899587	0.422271112	0.170464008	0.590505621	0.554667479
0.844270648	0.133788877	0.86238585	0.147814594	0.567820607	0.15498719
0.876945142	0.480629207	0.409842984	0.170379972	0.559347475	0.517616612
0.877351361	0.448081219	0.435863224	0.170627747	0.575744934	0.542873138
0.87726162	0.480783206	0.41000127	0.170414187	0.559364399	0.51767497
0.480868917	0.410201478	0.877544474	0.559261655	0.517666926	0.170464604
0.00000277	0.00000289	0.00000283	0.699144915	0.69934282	0.69859882
0.878134814	0.449030983	0.440014251	0.170698186	0.559758884	0.527814501
0.085917642	0.868974366	0.082662905	0.665264319	0.162502915	0.677396985
0.485765512	0.402371016	0.877262097	0.607788403	0.564874258	0.170497228
0.883939841	0.02733067	0.876847393	0.175412744	0.695351466	0.170890889
0.10218042	0.841585008	0.083437827	0.606093627	0.134706265	0.631438255
0.480786832	0.405844333	0.877458329	0.57475973	0.532336041	0.170574958
0.105875033	0.1238996	0.173570934	0.615987075	0.619240394	0.616573013
0.884428766	0.013709208	0.876999987	0.175910489	0.697532186	0.170872488
0.866579846	0.103948836	0.867238672	0.162668492	0.615513437	0.159196368
0.470136466	0.419601677	0.877222178	0.559661673	0.521055165	0.170766342
0.143090008	0.82609926	0.148968803	0.576203592	0.119266616	0.60565886
0.082823694	0.868885391	0.084079635	0.663200086	0.162488784	0.677222382
0.448082583	0.432838471	0.877771849	0.59089842	0.558245982	0.170298473
0.866916647	0.86662016	0.095438353	0.159330022	0.162611648	0.617850451
0.86340914	0.857035718	0.130373088	0.155076557	0.156914121	0.586478437
0.100321768	0.082195704	0.869291667	0.669188285	0.657632012	0.162685585
0.499638809	0.517068642	0.877588332	0.559542163	0.530345841	0.170686217
0.866612081	0.866427203	0.095398957	0.159160573	0.162683001	0.61769212
0.027324934	0.87638031	0.883590734	0.695202066	0.170893239	0.175665406
0.862244531	0.842386459	0.133718101	0.154976979	0.147719893	0.56766082
0.825941536	0.18987526	0.197796821	0.118677609	0.61292394	0.580583055
0.052149953	0.053382421	0.05855286	0.653878719	0.654317104	0.653460713
0.079598125	0.869047606	0.092553481	0.658871022	0.162746382	0.670227473
0.843048377	0.137204585	0.860217605	0.148511217	0.566253218	0.154219612
0.0000055	0.876606217	0.884588638	0.699240779	0.170642047	0.175523043
0.169480814	0.155516498	0.096590556	0.618022039	0.617529558	0.615851991
0.872935216	0.875615757	0.046807483	0.165145865	0.168398713	0.65836999
0.882504609	0.040851673	0.874926426	0.174854801	0.692923834	0.170533623
0.455044239	0.435878394	0.877394089	0.611013861	0.577443115	0.170591148
0.459548161	0.429562619	0.877469925	0.559865188	0.524447172	0.17076108
0.014250525	0.881357306	0.014362838	0.697222422	0.175495957	0.697012805
0.857133945	0.130386822	0.862434245	0.156543546	0.586567874	0.154271666
0.056322253	0.044750073	0.074990518	0.675533791	0.674668692	0.67590088
0.069810389	0.065021207	0.084776199	0.67050576	0.670370984	0.672757198
0.825216539	0.136173354	0.127653191	0.11860398	0.606554195	0.577115435
0.844521675	0.141792136	0.861037622	0.149446213	0.564646024	0.153375521
0.825709798	0.14708776	0.131222835	0.119213686	0.603039868	0.575681034
0.153945431	0.859767434	0.847157437	0.560819592	0.152119419	0.151326818
0.123102336	0.864478819	0.857053317	0.58854144	0.155895032	0.156803751
0.23411987	0.241418712	0.826000822	0.608560097	0.581145319	0.119105022
0.877502038	0.480513407	0.405829094	0.17058844	0.575392018	0.532980072
0.147439861	0.860292233	0.845729002	0.562688581	0.15296862	0.150669919
0.130418171	0.864290354	0.858208407	0.586507341	0.155185896	0.157332446
0.875274873	0.065245864	0.87130596	0.168513222	0.65265099	0.164694654
0.874621209	0.0760263	0.871311944	0.168505368	0.650496876	0.164614733
0.335366312	0.825852563	0.325398117	0.581647075	0.118869074	0.61246483
0.081751404	0.85605022	0.068754354	0.633404857	0.149141955	0.654451817
0.450323184	0.426896531	0.877234812	0.626533254	0.593059388	0.170500841
0.877590188	0.448059021	0.432972417	0.170650332	0.591207988	0.558667369
0.41023231	0.877629039	0.480923326	0.517422703	0.170788045	0.559466368
0.865010375	0.854630453	0.111474676	0.155823342	0.154749993	0.591893052
0.866457706	0.081531609	0.867826221	0.161737556	0.621567379	0.159909082
0.877285911	0.462422872	0.421035967	0.170578272	0.608617806	0.572154019
0.845643721	0.153958675	0.85796205	0.150895794	0.560887912	0.15162202
0.099242221	0.841752082	0.103090039	0.60242936	0.134915308	0.62766522
0.445695849	0.877482603	0.437823624	0.563007519	0.170531272	0.592670229
0.099887908	0.081370276	0.869243444	0.669222303	0.657396216	0.162728196
0.466070785	0.423911771	0.877281382	0.608494238	0.571867813	0.17055912
0.424373747	0.877404445	0.465146931	0.573179869	0.17054642	0.609863869
0.485103712	0.39323291	0.878086346	0.62521014	0.582636037	0.170681522
0.040858006	0.876342048	0.883362167	0.693098712	0.170550991	0.1756393
0.102996588	0.099107024	0.841569391	0.627724845	0.60250739	0.135019788
0.350789971	0.826256296	0.331722118	0.583497864	0.118736358	0.612934434
0.41542734	0.877396296	0.461996005	0.589858349	0.170497389	0.626046468
0.877599948	0.474000245	0.482768918	0.170712896	0.561869031	0.532167893
0.822647876	0.823408963	0.824171571	0.298629145	0.298708334	0.298542876
0.877917437	0.87750297	0.878919062	0.170871503	0.170731404	0.171000446
0.865730476	0.087709145	0.866803151	0.161862276	0.61934193	0.159304004
0.086917287	0.078742871	0.868681839	0.672425689	0.660207617	0.162656051
0.826197377	0.82304116	0.824887783	0.298436819	0.298518271	0.297571866
0.083997753	0.868610388	0.085332441	0.662161801	0.162585712	0.676818203
0.864417616	0.863561739	0.86353177	0.219100455	0.219366512	0.219172734
0.877463844	0.473491175	0.410281164	0.170583751	0.609303049	0.569484149
0.877577228	0.472035712	0.47905829	0.17069291	0.561264549	0.532266287
0.405787932	0.877353707	0.480687636	0.532774028	0.170560209	0.575064428
0.841743991	0.092677517	0.099738603	0.134803118	0.629647549	0.604241336
0.86143579	0.843371483	0.13716585	0.153853315	0.148269517	0.566266246
0.871422641	0.874092552	0.047183769	0.164836241	0.168063387	0.657066508
0.866073069	0.077185439	0.867627064	0.16153683	0.623072797	0.160352382
0.876724438	0.480758216	0.400993346	0.170702964	0.590260884	0.548199405
0.065239805	0.871682219	0.874588564	0.652783445	0.165075708	0.168626645
0.435908368	0.877382762	0.448147463	0.542766349	0.170563108	0.575654503
0.857338097	0.130442904	0.86283062	0.156800122	0.58645403	0.154567848
0.867058037	0.866324088	0.088218324	0.159593362	0.162456631	0.619678337
0.882521736	0.0000055	0.87621765	0.175449063	0.699365205	0.171125466
0.07965733	0.071527252	0.855697749	0.647697409	0.627663143	0.149136819
0.859877467	0.844341369	0.141734416	0.152902637	0.14902904	0.564558808
0.481090611	0.410347593	0.877921625	0.559276429	0.517682218	0.170485527
0.845926758	0.847137007	0.846198008	0.256747144	0.257079314	0.257099666
0.427133504	0.877706098	0.450557895	0.593066331	0.170814429	0.626461078
0.027322742	0.876376819	0.883391067	0.695139595	0.170976341	0.175576765
0.877404623	0.483314664	0.400630685	0.170562663	0.608637515	0.566016758
0.855011243	0.068628969	0.072091615	0.149302461	0.649898445	0.629068539
0.107651851	0.864765508	0.855114894	0.593756595	0.156811279	0.154560295
0.070598721	0.071317256	0.074323666	0.650057095	0.650050231	0.65067373
0.432581174	0.87738299	0.448022752	0.558249033	0.170434284	0.59093115
0.868943992	0.089836176	0.075454067	0.162675498	0.671450023	0.659272179
0.882781726	0.0000055	0.876355449	0.175354049	0.699319122	0.17091332
0.458965204	0.425790356	0.877332495	0.575500924	0.53937242	0.170577271
0.437102527	0.44635445	0.877390987	0.575776666	0.546043658	0.170620418
0.866592964	0.095478176	0.867293054	0.16229993	0.617183099	0.159379888
0.872340512	0.87371457	0.047226094	0.165602898	0.168550375	0.656987581
0.099091197	0.080837979	0.869166903	0.6688376	0.656772	0.162627779
0.062445418	0.06248724	0.062416748	0.638262255	0.638321508	0.6385667
0.869154168	0.098908524	0.080794471	0.162681849	0.669644041	0.65728927
0.130462518	0.863681325	0.856873329	0.586582505	0.155102768	0.157259755
0.081755384	0.867826197	0.865743177	0.621409134	0.159859188	0.16141657
0.055375783	0.871810652	0.874378682	0.654914537	0.164666667	0.168458479
0.458997878	0.422019721	0.877457231	0.590951047	0.555023846	0.170287117
0.04714886	0.871603048	0.874331093	0.656891599	0.164683945	0.168263091
0.079295025	0.869039625	0.092584037	0.658390801	0.162592142	0.670012629
0.425546824	0.877216288	0.459067256	0.539475119	0.170536207	0.575547867
0.85569774	0.066541951	0.07879084	0.148700419	0.652232282	0.631709725
0.82606264	0.234727935	0.247801212	0.118961973	0.612423627	0.582707008
0.87386456	0.055342373	0.872342637	0.168026488	0.654888375	0.164502277
0.880690398	0.054631218	0.05411589	0.174879067	0.689957686	0.69071524
0.877274901	0.884577379	0.027329714	0.17061166	0.175796336	0.695283862
0.099219629	0.841929004	0.103129439	0.602337539	0.134908224	0.627725489
0.040620074	0.046474672	0.074509232	0.677035447	0.67859233	0.68056317
0.827203015	0.187376143	0.194858836	0.118917571	0.610044468	0.580272729
0.866234597	0.077168713	0.867833862	0.161569184	0.623015808	0.160413659
0.153940004	0.860611097	0.847381503	0.560907379	0.152845142	0.151991577
0.841210683	0.083358126	0.102214139	0.13477084	0.63136277	0.606016798
0.070067172	0.065652736	0.085698169	0.670329191	0.670805856	0.671991138
0.88177654	0.00000478	0.0000049	0.175508104	0.699228132	0.699111479
0.062511886	0.062475314	0.06243973	0.638325771	0.638336342	0.638497728
0.074820903	0.855853396	0.091446075	0.626006044	0.149381529	0.645685018
0.410341952	0.877851344	0.481030328	0.517377317	0.170890608	0.559517805
0.877520911	0.884563803	0.054275082	0.171463345	0.175250123	0.690535332
0.079842962	0.869094566	0.092654742	0.658981294	0.162737982	0.670311489
0.059786111	0.039644616	0.079534449	0.679405162	0.679171589	0.67993631
0.847470013	0.847323843	0.846303709	0.2561876	0.257337024	0.256502031
0.141752719	0.860691194	0.844755707	0.56449698	0.153491671	0.149678798
0.877539192	0.448098136	0.433029786	0.170585255	0.590764393	0.557801664
0.40591379	0.877343878	0.48060438	0.532755051	0.170554039	0.575083744
0.864765292	0.854730158	0.107714898	0.156373454	0.154267014	0.593676732
0.876937027	0.447672307	0.432800977	0.170340203	0.590813698	0.558380011
0.877473531	0.473724423	0.410058023	0.17056275	0.609089667	0.569181964
0.459647955	0.429632896	0.87764327	0.559812409	0.524435452	0.170622411
0.877375212	0.437082077	0.44636062	0.170590661	0.575740119	0.546087581
0.435886499	0.877306663	0.448071434	0.542886312	0.170502567	0.575824819
0.00000549	0.873467363	0.88173468	0.699331978	0.170192201	0.175219573
0.074340875	0.85547147	0.091426829	0.625755762	0.149285446	0.645520023
0.10002945	0.841829704	0.114064223	0.600522183	0.134937358	0.625531282
0.092757021	0.099633286	0.84140935	0.629567083	0.604408905	0.134855253
0.046192054	0.048343797	0.052966858	0.657782643	0.658988794	0.65990319
0.079770003	0.071476342	0.855636077	0.648044093	0.627382719	0.14919401
0.877383641	0.462714402	0.420660178	0.170664889	0.609512506	0.572974215
0.111387351	0.864911216	0.855458564	0.592038221	0.156333546	0.155298416
0.864407432	0.85458786	0.107696959	0.156363405	0.154053027	0.593864389
0.404111438	0.877490894	0.473491437	0.586189221	0.170876299	0.625889533
0.863539016	0.85607233	0.123163721	0.155801211	0.156567165	0.588460432
0.411840917	0.877897446	0.470141285	0.551704162	0.170509864	0.590627475
0.866524577	0.095529801	0.867400683	0.162318608	0.617195633	0.159420236
0.480517844	0.401185385	0.877015331	0.589917789	0.54790696	0.170247678
0.46205116	0.415485538	0.877509437	0.626199751	0.589698076	0.170602712
0.85628175	0.130479639	0.861873445	0.156436029	0.586505642	0.154435725
0.877453211	0.48083489	0.410148085	0.170445273	0.559328487	0.517587377
0.855634245	0.065488967	0.079201058	0.148628085	0.65242629	0.631822549
0.826476541	0.199225076	0.199913188	0.118814011	0.611541149	0.578612947
0.131873234	0.82597216	0.149839598	0.57576494	0.118998195	0.604138342
0.427013488	0.877466269	0.450437933	0.593042471	0.170486629	0.626488718
0.877374199	0.469721443	0.415587868	0.170575079	0.575374165	0.536102655
0.867951898	0.865662477	0.077299532	0.160068634	0.161109753	0.623252494
0.856831976	0.130380334	0.862995581	0.156303646	0.586405856	0.154375916
0.868794932	0.07554636	0.07827109	0.162541782	0.676462239	0.664335037
0.039825095	0.046462726	0.073560441	0.677557965	0.676642537	0.678080565
0.068838392	0.07129806	0.855502567	0.650090909	0.629323395	0.149067624
0.02732767	0.875993179	0.883555559	0.695250036	0.17093873	0.175785349
0.438623196	0.438618558	0.877267905	0.626692468	0.596291085	0.170480608
