Va	Vb	Vc	Ia	Ib	Ic
0.844524598	0.137195157	0.862059708	0.148923122	0.566343563	0.154447447
0.855714988	0.066458588	0.079348462	0.148567895	0.652500749	0.631778496
0.480597129	0.405858046	0.877241572	0.574471676	0.531973655	0.170536832
0.864052464	0.856660581	0.123141593	0.15576897	0.156537418	0.588505984
0.446377477	0.877412037	0.437100903	0.546080272	0.170610296	0.575733325
0.877368846	0.451182759	0.431791213	0.170511001	0.608785159	0.575368183
0.07597568	0.871732235	0.875147587	0.650514374	0.164584703	0.168585489
0.209847716	0.825684677	0.216215641	0.580922102	0.118838936	0.60959917
0.438773204	0.877577431	0.438777913	0.596450578	0.170691533	0.626570594
0.865299245	0.077061978	0.86689929	0.161005109	0.622716464	0.160135393
0.425646459	0.877448935	0.459232244	0.539375084	0.170643773	0.575486119
0.06250793	0.062485676	0.062416478	0.638218191	0.638263476	0.638536453
0.04124987	0.883094178	0.041892311	0.692808933	0.175674584	0.69259635
0.8666217	0.866268489	0.10433372	0.159236188	0.162888533	0.614984136
0.877668418	0.448832088	0.439734447	0.17080153	0.559938177	0.527630461
0.877448129	0.473493681	0.410115201	0.170616833	0.609296041	0.569487663
0.877328678	0.448115528	0.435816445	0.17058747	0.575669447	0.542788446
0.882928121	0.054280792	0.875759077	0.17500078	0.690582387	0.170783058
0.14686995	0.132729057	0.826110369	0.601428727	0.572133548	0.119815855
0.871501093	0.874182189	0.048119564	0.165220307	0.1684086	0.658794957
0.866545439	0.095572798	0.867021302	0.162317534	0.617200105	0.159349604
0.826099287	0.220519942	0.223148263	0.118843044	0.611991877	0.582642788
0.013703661	0.876067248	0.883586381	0.697117402	0.170710268	0.175533331
0.073027835	0.855302248	0.071537195	0.629393713	0.149213832	0.649547276
0.095545424	0.866633899	0.866837803	0.61752057	0.159102623	0.162472456
0.869109527	0.076712544	0.080154859	0.162537208	0.676665774	0.664485578
0.874691926	0.076034831	0.871519001	0.168319627	0.650556523	0.164826843
0.102200548	0.841596083	0.083429347	0.606114616	0.13470804	0.631436744
0.08140979	0.869030874	0.098653932	0.656160706	0.162656065	0.668796795
0.083708537	0.868912681	0.085369427	0.660349517	0.162614626	0.674811945
0.48665935	0.52750772	0.87734354	0.559158345	0.530785013	0.170950827
0.844283342	0.845904048	0.846704261	0.257375675	0.256764486	0.257732383
0.055378631	0.871373146	0.874660246	0.654981042	0.164823035	0.168732753
0.877925306	0.481101711	0.410346664	0.170541141	0.559389877	0.517422942
0.013778199	0.014085552	0.013949214	0.697162126	0.697152491	0.69749559
0.48063781	0.405846752	0.87743281	0.574753923	0.532328238	0.170557387
0.153960677	0.859989271	0.846545438	0.560793135	0.152570338	0.151666253
0.878109636	0.485109356	0.393252065	0.170781854	0.625267664	0.582645863
0.826190452	0.201299786	0.204337337	0.11910769	0.609759394	0.577467078
0.825944238	0.187923737	0.191479228	0.11846632	0.612971069	0.580891377
0.075982473	0.871579884	0.874622559	0.650510822	0.164618792	0.168518269
0.130479599	0.863545869	0.85659369	0.586563591	0.155184923	0.157320263
0.101039918	0.130083589	0.171264814	0.617158185	0.622099064	0.620675002
0.825150802	0.199303373	0.199818792	0.11851715	0.611914016	0.579329605
0.448872987	0.439792128	0.877739004	0.559702428	0.527867863	0.170749318
0.84774608	0.847330921	0.846439474	0.256644229	0.257379007	0.256752884
0.882007057	0.00000492	0.00000485	0.175397111	0.699263597	0.699313266
0.872370606	0.87503181	0.065183315	0.164815096	0.1685222	0.652832823
0.862482205	0.863462078	0.862636674	0.21851878	0.219250798	0.219043952
0.427079905	0.877596565	0.450501959	0.593056497	0.170464348	0.626482211
0.874083323	0.872041726	0.872280364	0.188823883	0.188604953	0.188022264
0.884404757	0.013708852	0.876736641	0.175838912	0.697501102	0.170901159
0.86387845	0.856270436	0.123124153	0.155329205	0.156205571	0.588627452
0.410217007	0.877502789	0.480818184	0.517415483	0.170777168	0.559444153
0.059002591	0.038679526	0.077815606	0.679814588	0.6790561	0.680082672
0.877303283	0.44804049	0.435863549	0.170603168	0.575694436	0.542831699
0.075995827	0.871543865	0.874764433	0.650500436	0.164426533	0.168736605
0.859502817	0.845925378	0.154007811	0.152197861	0.15137134	0.560913948
0.884171156	0.0000055	0.876549095	0.175641582	0.699395925	0.170730447
0.153936865	0.859885733	0.846069752	0.560862227	0.152842327	0.151980257
0.214084923	0.825999419	0.212613132	0.578382211	0.11928904	0.606282422
0.435989404	0.877429879	0.448134653	0.542684208	0.170609527	0.575495666
0.013706649	0.876738201	0.884130009	0.697333921	0.170895686	0.175614591
0.82560543	0.27180873	0.282418952	0.11835367	0.611013961	0.582026587
0.013793722	0.014081044	0.013927329	0.6971024	0.697317226	0.69753031
0.462221272	0.415657462	0.877851896	0.62609128	0.589626539	0.17054078
0.860134456	0.845949915	0.147409575	0.153206936	0.150882716	0.56258966
0.130474964	0.86362543	0.857300827	0.586599562	0.155248737	0.157357756
0.092353888	0.079948772	0.869015045	0.667806853	0.657109277	0.162641018
0.279367236	0.29176643	0.825660894	0.61363116	0.583058984	0.11869148
0.877247376	0.470136941	0.412133551	0.170346573	0.590719335	0.551677322
0.439145462	0.443607591	0.87717821	0.591992047	0.561830949	0.17045776
0.875135335	0.055372553	0.871923116	0.168545588	0.654875223	0.164334009
0.068803391	0.071340286	0.855418464	0.64995483	0.629937428	0.149057503
0.057931619	0.037832896	0.075750017	0.679684629	0.679072248	0.680240767
0.00000549	0.876402643	0.883604311	0.699060859	0.17107157	0.175571355
0.869067863	0.089981954	0.075972432	0.162692183	0.67154931	0.659565868
0.476159197	0.413222203	0.877371903	0.610631973	0.570858689	0.170534251
0.113738719	0.100373932	0.841958111	0.625911543	0.600575238	0.13510959
0.860749383	0.845103644	0.147542237	0.152687951	0.150251514	0.562806567
0.856435084	0.11669311	0.864271157	0.155893103	0.590401711	0.155943404
0.470386313	0.419824285	0.877702402	0.559695096	0.521033755	0.170798215
0.877683206	0.877484484	0.878373299	0.170677662	0.170779515	0.17097718
0.141799512	0.860992512	0.84430945	0.564489977	0.153252335	0.149279078
0.877235643	0.440184973	0.444142574	0.17061882	0.608365113	0.577841398
0.00000279	0.000003	0.00000286	0.699145636	0.699058074	0.698478591
0.448177499	0.435877221	0.877407645	0.575780178	0.542809219	0.170560899
0.414804038	0.877331717	0.474584772	0.569607308	0.170539452	0.608736986
0.065212452	0.871605227	0.874602429	0.65270712	0.164419378	0.168658521
0.062531049	0.062476859	0.062475431	0.638404931	0.638436538	0.638539728
0.422107758	0.877454332	0.458969658	0.555310793	0.170429692	0.591147544
0.877347891	0.437075102	0.446339488	0.170591516	0.57574467	0.546086521
0.220642259	0.217718629	0.826156232	0.606699285	0.581914172	0.119159457
0.340878802	0.82524975	0.340083106	0.58250294	0.118605955	0.611679855
0.882930291	0.013706448	0.876088923	0.175175244	0.697324286	0.1705417
0.855601253	0.065488032	0.079204513	0.148658407	0.652429629	0.631758655
0.107711219	0.864788755	0.854357269	0.593780748	0.156830686	0.154474695
0.43273296	0.877563322	0.448021774	0.558096395	0.170758414	0.590917855
0.05430612	0.88139944	0.054623305	0.691058324	0.175432539	0.690047709
0.147411072	0.860575795	0.845859954	0.562770286	0.153096338	0.150836261
0.073296221	0.855935221	0.081888003	0.627804396	0.149380836	0.647582467
0.848748491	0.847005425	0.847252928	0.257470385	0.257178783	0.257097603
0.088015252	0.866977393	0.866110264	0.619368444	0.15952273	0.162136998
0.876135396	0.884091987	0.0000055	0.17084002	0.175801431	0.699390442
0.85543922	0.10758092	0.865269442	0.154929704	0.593758188	0.156914332
0.868794748	0.08299922	0.075159769	0.162665485	0.673388447	0.66169545
0.429699789	0.877698991	0.459644611	0.524433303	0.170749837	0.559781562
0.862058878	0.842840228	0.133729494	0.15479989	0.147574396	0.567672006
0.480985465	0.405688253	0.877482881	0.574754428	0.53221232	0.170540742
0.051791238	0.053734205	0.058422642	0.653764334	0.654090088	0.653537054
0.149575056	0.133255951	0.826350613	0.603143245	0.575360614	0.119247392
0.121572964	0.296373846	0.208344062	0.621778875	0.623208463	0.62204298
0.854598799	0.079442675	0.071907851	0.149041023	0.64784591	0.62733093
0.877232511	0.470168715	0.411819187	0.170194727	0.591473756	0.552786773
0.877053505	0.470230383	0.41182372	0.170199261	0.58968209	0.551182474
0.40583561	0.877358903	0.480691272	0.532733546	0.170611505	0.575036466
0.545542603	0.877380537	0.558149673	0.536100451	0.17057533	0.565002534
0.401169663	0.876585486	0.480197648	0.548175753	0.170171344	0.589904841
0.881384001	0.00000488	0.00000486	0.175379382	0.699239085	0.699697614
0.075967813	0.872494283	0.874583373	0.650584906	0.164626355	0.168622847
0.070074485	0.051527976	0.082331942	0.673251329	0.672564372	0.674021533
0.413296989	0.87737077	0.476015416	0.566655276	0.170543246	0.606611057
0.459299292	0.422322463	0.878061907	0.59097376	0.555116748	0.170302188
0.129026807	0.29877526	0.20198708	0.621264765	0.622473412	0.622406957
0.444981474	0.877294738	0.438026554	0.56280296	0.17046663	0.59254994
0.877365843	0.448089897	0.435851905	0.170628167	0.57577194	0.54288296
0.103186867	0.098966561	0.841559378	0.627696731	0.6025817	0.134957447
0.45955623	0.429656028	0.877572713	0.559802003	0.524387701	0.170636673
0.88302586	0.054273874	0.876116335	0.175061841	0.690516081	0.170700872
0.404183528	0.877645711	0.473573237	0.586220301	0.17079823	0.625867236
0.435943842	0.877359626	0.448082609	0.542790523	0.170558461	0.575676779
0.44243666	0.448179819	0.877336578	0.607829692	0.577290596	0.170588447
0.862414848	0.84298041	0.133701414	0.154718886	0.147440561	0.567710568
0.85516103	0.102889779	0.078911268	0.149125009	0.643444269	0.623564186
0.86505132	0.07701377	0.866658903	0.161066454	0.62314067	0.15952831
0.221757875	0.826282285	0.212854635	0.580055897	0.11917411	0.60916437
0.42968122	0.877715974	0.459676554	0.52443408	0.170750048	0.559798059
0.443610888	0.447932338	0.877368755	0.606789229	0.577195042	0.170583493
0.877207907	0.473448952	0.410147509	0.170538579	0.609204192	0.569337788
0.846138818	0.147494355	0.860536034	0.150731734	0.562867787	0.152992135
0.540524822	0.87735557	0.557250122	0.530837192	0.170571487	0.560327193
0.484657262	0.392798722	0.87720472	0.625243245	0.582612292	0.170678076
0.070009024	0.065435161	0.085161836	0.67035098	0.671092844	0.672785616
0.87750898	0.480481663	0.405876343	0.170588655	0.575406547	0.532957481
0.868054445	0.866043705	0.077162257	0.160194566	0.161646527	0.623139152
0.07982238	0.86901595	0.088750564	0.664325799	0.162640175	0.674064552
0.864509948	0.856010925	0.116640436	0.155775144	0.155672603	0.590363701
0.054515906	0.055129426	0.054711597	0.690239192	0.690163989	0.69022813
0.045611206	0.048190056	0.054142381	0.655556046	0.656425082	0.655268063
0.113767774	0.10031857	0.84180417	0.626257656	0.600769597	0.134975537
0.82568856	0.251956067	0.2536378	0.118973831	0.612764999	0.584710077
0.876274513	0.882441428	0.0000055	0.170894659	0.175436824	0.69921973
0.874292032	0.055394077	0.872365955	0.168591669	0.655142753	0.164751901
0.42551919	0.877204568	0.4590816	0.539482634	0.170529614	0.575572637
0.882814068	0.040845947	0.876350483	0.174818841	0.692823893	0.170767083
0.877844419	0.437516283	0.44444929	0.170921651	0.592368006	0.562778866
0.091070836	0.078581179	0.869056318	0.668438174	0.657120131	0.162637743
0.121601326	0.298464301	0.209998669	0.622218569	0.626468639	0.623195885
0.014400628	0.014300159	0.882210419	0.696734286	0.697189044	0.175600299
0.877575687	0.448829841	0.439646375	0.170683686	0.559998475	0.527654197
0.077048817	0.867753749	0.864982985	0.62303274	0.160053632	0.160938123
0.274165098	0.280324718	0.826380821	0.610693141	0.580232516	0.119040252
0.070263705	0.071619301	0.074155079	0.649998047	0.650026691	0.650448543
0.439365852	0.876870649	0.448431943	0.527551037	0.170829425	0.559901419
0.128488102	0.109339817	0.146404738	0.616311598	0.614815838	0.615939108
0.081717159	0.867450175	0.865985789	0.621228268	0.159736821	0.161732384
0.459062653	0.425724256	0.877363531	0.575490257	0.539369151	0.170572132
0.062434642	0.062493015	0.06241186	0.638262537	0.638296883	0.638594516
0.869114724	0.082698428	0.074831274	0.162565469	0.672754215	0.659560922
0.083432102	0.102172907	0.841430872	0.630929764	0.606153723	0.134851589
0.846669542	0.846271839	0.847232456	0.257700405	0.256951942	0.257520186
0.882542373	0.0000055	0.875277423	0.174540454	0.699341008	0.170159468
0.075976784	0.872072934	0.874560233	0.650553465	0.164637165	0.168623165
0.86252708	0.843351631	0.133717867	0.155182654	0.147814397	0.567774195
0.08340501	0.102195698	0.841700813	0.631113109	0.605746519	0.134724467
0.083376618	0.868964983	0.084744938	0.660872235	0.162598304	0.672930405
0.229001841	0.239056997	0.825598955	0.61063824	0.579346408	0.118678232
0.08158147	0.250072314	0.23605174	0.620507934	0.627350015	0.62222348
0.047127645	0.872335743	0.873680299	0.656861914	0.16453977	0.167796009
0.204525082	0.826048004	0.208614301	0.578143058	0.118944384	0.607887515
0.858105624	0.13049208	0.862782627	0.156626192	0.586501181	0.154417303
0.223297264	0.232792983	0.827063467	0.610665659	0.579049808	0.118924074
0.12311564	0.863377129	0.857348843	0.58835442	0.155189781	0.156392086
0.081751819	0.867461609	0.866212733	0.621196554	0.159939579	0.161857043
0.87722411	0.437788738	0.443448198	0.170497512	0.591688153	0.562507164
0.480751031	0.401403899	0.877465911	0.590010795	0.548028756	0.170881308
0.44765109	0.432300646	0.876807215	0.591061404	0.558169737	0.170484895
0.059435863	0.064670596	0.063637933	0.652121983	0.651336371	0.651272519
0.067662695	0.067614121	0.067921224	0.63651689	0.636349374	0.63674002
0.077866476	0.081174162	0.868971711	0.678550407	0.665942388	0.162488963
0.054553296	0.055355127	0.054919477	0.690250156	0.690092002	0.69036638
0.882087515	0.04085192	0.874340255	0.174907486	0.692935352	0.170507067
0.854730522	0.116683213	0.862716841	0.155381618	0.590436439	0.155307943
0.107821945	0.86492148	0.855063436	0.593706575	0.156830583	0.154613318
0.426960628	0.877364798	0.450389275	0.593088403	0.170435517	0.626509528
0.103087121	0.078842926	0.855355674	0.643566521	0.6236604	0.149273558
0.877393181	0.462768737	0.420621731	0.17066267	0.609496494	0.572982478
0.877241741	0.877594811	0.87674102	0.17054832	0.170780613	0.170392785
0.846234408	0.845133461	0.848398822	0.25758351	0.256976361	0.257527148
0.092672816	0.099596705	0.841225831	0.629462702	0.604454324	0.134927542
0.46609096	0.424412197	0.877305898	0.608463175	0.571883318	0.170558951
0.027323392	0.876152548	0.883591455	0.695163528	0.170903616	0.175659606
0.279148951	0.289395708	0.825686584	0.61220086	0.585057576	0.118724427
0.877391296	0.437095596	0.446362514	0.17058296	0.575767255	0.5461017
0.080540956	0.855883908	0.104973795	0.623347128	0.14956021	0.642777214
0.877636878	0.459668698	0.42960681	0.170806702	0.55976097	0.524493105
0.404178798	0.877637031	0.473569228	0.586220157	0.170796099	0.625867095
0.233711466	0.245996543	0.826092443	0.607080719	0.580825943	0.119073197
0.08151248	0.867671719	0.865561862	0.621351586	0.159843456	0.161623055
0.404137768	0.877540159	0.473514346	0.586227276	0.170685041	0.625804623
0.869094294	0.082593134	0.074714124	0.16260121	0.67412814	0.660399839
0.446339319	0.877349239	0.437075063	0.546073542	0.170580777	0.575727442
0.875089937	0.076021501	0.871694238	0.168648721	0.650569392	0.164572617
0.86453799	0.854889557	0.11145657	0.155790125	0.154684983	0.591902255
0.825737796	0.277178512	0.279767207	0.118329141	0.612336857	0.583828194
0.509152596	0.507538901	0.877641823	0.558851022	0.530237347	0.170686111
0.864700056	0.855665208	0.111402449	0.156160088	0.155198895	0.592250747
0.877347454	0.437184654	0.444245044	0.170343825	0.591471374	0.561967265
0.088060656	0.867490713	0.865941412	0.619243856	0.159743925	0.161939652
0.8820158	0.027535521	0.027521574	0.175496021	0.694324879	0.694873412
0.864588169	0.863661876	0.863983583	0.21977704	0.219843162	0.21916883
0.486759551	0.401540767	0.877314438	0.607666138	0.564797202	0.170477495
0.874776961	0.873038726	0.874972595	0.188965553	0.188703327	0.189414363
0.414595723	0.877384118	0.474531329	0.56966116	0.170552336	0.608840345
0.137197407	0.861259665	0.843893959	0.566399287	0.153719158	0.148527227
0.863777276	0.8563988	0.123150268	0.155165748	0.155958007	0.588585747
0.439034912	0.878100576	0.43903963	0.596278473	0.17123506	0.626723896
0.00000486	0.881412529	0.00000488	0.69935387	0.175047118	0.699127521
0.825883735	0.187495767	0.19085625	0.11843859	0.612884417	0.581410751
0.877347354	0.483855149	0.400024317	0.170491771	0.608202214	0.565475161
0.00000488	0.881845089	0.00000478	0.699131564	0.175457009	0.699263116
0.459282174	0.429317779	0.876955578	0.559880125	0.524368022	0.170640745
0.027321649	0.876592853	0.88249861	0.695116599	0.171147707	0.175725657
0.447621424	0.432359019	0.876836672	0.590765569	0.558202631	0.170243731
0.438869997	0.877771036	0.438874721	0.596462986	0.170563752	0.626587007
0.498833404	0.511151522	0.877440249	0.561174579	0.53192054	0.170628764
0.845884289	0.847082952	0.845698315	0.257029641	0.257421975	0.25680693
0.872548129	0.87585393	0.065204196	0.165505405	0.169054252	0.652793824
0.10303159	0.07893836	0.85601366	0.643487545	0.623633409	0.14976022
0.877212799	0.461905716	0.415334169	0.170555947	0.626134793	0.589868034
0.054273823	0.881539083	0.054672429	0.690551338	0.175371558	0.689917568
0.111397664	0.864904307	0.855815226	0.592204846	0.156287046	0.155364039
0.087656001	0.868609832	0.085165835	0.664018089	0.162591172	0.67695914
0.866592964	0.095478176	0.867293054	0.16229993	0.617183099	0.159379888
0.882032728	0.027631944	0.027254986	0.175395394	0.694403149	0.694827095
0.882781726	0.0000055	0.876355449	0.175354049	0.699319122	0.17091332
0.88204389	0.00000483	0.00000488	0.175457199	0.699318973	0.699199204
0.881935953	0.0000048	0.00000489	0.175476375	0.699302407	0.699143332
0.217755992	0.826094055	0.217755882	0.57990106	0.119269978	0.608990338
0.444572701	0.877331192	0.438303601	0.561797395	0.170330194	0.591309524
0.825780205	0.280571946	0.2995292	0.118478031	0.611245123	0.583152125
0.822099522	0.823640974	0.824117859	0.298866092	0.298684732	0.298735078
0.099341091	0.841852084	0.103067115	0.602322609	0.134898653	0.627672111
0.04540695	0.048228128	0.053701009	0.655504419	0.656482783	0.655295029
0.860702898	0.84436377	0.137257174	0.153821863	0.148600906	0.56614949
0.846889605	0.846125312	0.84780717	0.257367399	0.256780993	0.257659914
0.438368628	0.444862977	0.877708216	0.593224151	0.563483205	0.17059385
0.883441271	0.013706292	0.875970336	0.17511723	0.697317692	0.170672909
0.856641153	0.123036068	0.864256867	0.15649453	0.588476056	0.155839599
0.877700438	0.480931693	0.401728595	0.170930511	0.59030271	0.547969269
0.825524201	0.136903614	0.128176804	0.118597123	0.606639212	0.57729961
0.087124484	0.077245225	0.868892376	0.672695602	0.661592984	0.162584625
0.882205243	0.0273255	0.874737687	0.175392113	0.695216798	0.170728507
0.137216914	0.859973329	0.844441292	0.5663531	0.15418596	0.148994643
0.047126109	0.872064348	0.874313029	0.656908785	0.165249623	0.168296027
0.862904075	0.85731626	0.130373713	0.154671543	0.156786348	0.586490831
0.065236555	0.871897197	0.873745711	0.652827914	0.165182839	0.168647897
0.137203318	0.860896939	0.844212691	0.566413464	0.153735824	0.148539729
0.099713264	0.841555608	0.09268722	0.604604659	0.13482309	0.629784313
0.054577707	0.055428967	0.055182391	0.690389924	0.690088764	0.690314753
0.393180391	0.87795087	0.485023095	0.582639149	0.170819286	0.625176043
0.485916414	0.402341558	0.877288363	0.607530574	0.564700902	0.170486062
0.841329552	0.102901407	0.099049889	0.134986573	0.627665988	0.60271575
0.079721212	0.071546898	0.855123529	0.647828739	0.627410559	0.148973595
0.041256642	0.040992114	0.881341323	0.692503146	0.692907507	0.17526013
0.040861692	0.875959919	0.883435307	0.693165131	0.170539278	0.175831102
0.841786304	0.092713003	0.099693926	0.134805318	0.629656311	0.60426154
0.082492897	0.856156272	0.067831909	0.631445075	0.149063447	0.652728501
0.103071594	0.099076862	0.841560913	0.627702877	0.602612914	0.134979359
0.298598637	0.82565681	0.292076454	0.590494939	0.118840294	0.618948674
0.860746238	0.845103043	0.14754414	0.152687195	0.150249487	0.562802851
0.877455469	0.437836364	0.443698547	0.170560051	0.590762617	0.561141512
0.877451513	0.469914918	0.415504197	0.170590739	0.575610708	0.536295589
0.826301949	0.1466891	0.131947773	0.119180765	0.60467695	0.575245415
0.055375029	0.871846615	0.874362921	0.654914425	0.16466493	0.168456879
0.48487683	0.393010282	0.877636862	0.625175515	0.582619677	0.170718403
0.425521402	0.877200599	0.459073471	0.539482499	0.170512249	0.575597191
0.419768026	0.87755304	0.47029471	0.52089078	0.17065889	0.559686351
0.051941281	0.053290413	0.057803201	0.653965811	0.654213761	0.653481308
0.123083688	0.86450745	0.857144976	0.588448474	0.155739501	0.15697248
0.864748263	0.854586783	0.107753161	0.156337784	0.154266255	0.593895594
0.855351905	0.102862514	0.079026098	0.149397146	0.643514085	0.623566784
0.402519772	0.877403439	0.485726144	0.564837322	0.170548629	0.607549664
0.040782537	0.046493581	0.074732699	0.677329004	0.678112936	0.680664912
0.445687554	0.877596043	0.437974911	0.562787898	0.170678872	0.592472143
0.459544572	0.429664404	0.877571963	0.55973251	0.524319921	0.17074082
0.143688402	0.826097779	0.149077963	0.576203041	0.119289052	0.605651066
0.869086712	0.090241862	0.076393023	0.162664389	0.672149868	0.659829017
0.027327033	0.875963157	0.883633058	0.695239735	0.170928683	0.175802075
0.871831371	0.875927153	0.075946485	0.164819271	0.169503076	0.650481325
0.00000549	0.874350177	0.882586763	0.699305006	0.170321959	0.174948661
0.446245081	0.87734696	0.444389647	0.576456577	0.170558767	0.606937084
0.081530301	0.856057499	0.068574608	0.633278445	0.14907431	0.654606176
0.871943614	0.875785474	0.075941369	0.16476937	0.169444655	0.650562483
0.884349935	0.0000055	0.875199829	0.175368517	0.699306547	0.170370796
0.13941796	0.825298133	0.146863399	0.574656761	0.118571203	0.601632222
0.88134011	0.00000488	0.00000483	0.175342709	0.699097441	0.699208742
0.825184023	0.823233602	0.824203175	0.298646082	0.298544381	0.29792423
0.067447856	0.079864964	0.85458466	0.652329937	0.632170391	0.148704439
0.088052451	0.867361575	0.865859786	0.619196899	0.159756827	0.161947261
0.877509487	0.473497353	0.404123681	0.170605773	0.625762512	0.586066315
0.875271605	0.076023736	0.871476891	0.168757136	0.650564469	0.164584279
0.855858739	0.068707365	0.072016708	0.1491652	0.650192618	0.629789451
0.013872943	0.014256694	0.013876373	0.696816508	0.69711827	0.696066816
0.826704169	0.190217839	0.189235071	0.119014608	0.613231687	0.58167991
0.847081107	0.153932947	0.859859954	0.151542854	0.560950969	0.152132301
0.884208088	0.013709339	0.876542736	0.175874719	0.697534376	0.17088052
0.480733985	0.409961027	0.87716258	0.559299734	0.517619736	0.170493886
0.875836594	0.884278642	0.0000055	0.170870711	0.176300365	0.69965312
0.868674179	0.077339212	0.080728239	0.162576691	0.676245474	0.664282693
0.140457543	0.130962576	0.82571573	0.605998628	0.57726907	0.119203125
0.873973522	0.873396535	0.872913431	0.188795405	0.188708029	0.188454197
0.867029415	0.865852226	0.077446074	0.160018322	0.16168469	0.622662258
0.872334394	0.874714474	0.047618476	0.165291903	0.168447709	0.658893091
0.445270913	0.877364819	0.43802377	0.56284199	0.170468676	0.592568918
0.877634411	0.448845973	0.439701188	0.170655421	0.559788479	0.527826727
0.133697021	0.861999421	0.844264511	0.56778947	0.155183245	0.148149873
0.877437455	0.450423776	0.426999241	0.170490199	0.626367239	0.593212659
0.869015644	0.076548985	0.081011205	0.162546734	0.676501853	0.664515824
0.067728536	0.067606697	0.067873441	0.636446233	0.636483959	0.636751961
0.437105091	0.446366955	0.877404482	0.57579775	0.546043786	0.170574099
0.87245865	0.874686846	0.047407658	0.16580257	0.168680485	0.656882396
0.875114143	0.882959587	0.013706632	0.170396174	0.175374678	0.697326807
0.826264491	0.224709302	0.228648248	0.118615072	0.610063055	0.582603978
0.393160397	0.877937338	0.48502771	0.582672241	0.170794158	0.625230023
0.480613577	0.401231729	0.877161936	0.590164428	0.548193505	0.170145438
0.86650252	0.866800999	0.104374543	0.159185583	0.163017268	0.615622677
0.068847117	0.071408047	0.855161102	0.649861443	0.62981468	0.148863957
0.153946953	0.859692248	0.846973411	0.560826256	0.152693255	0.151793158
0.868854258	0.080414846	0.07709079	0.162636718	0.672660526	0.661560261
0.099235237	0.841906512	0.103012269	0.602328274	0.134897542	0.627698654
0.45500664	0.43588693	0.877399777	0.611028995	0.577432675	0.170589328
0.10402438	0.866210068	0.866685955	0.615577939	0.159182288	0.162870753
0.405884374	0.877352406	0.480592336	0.532762573	0.170557378	0.575079397
0.424280411	0.877335426	0.465365989	0.572917754	0.170556879	0.60955376
0.05426759	0.876241167	0.882615622	0.690420617	0.17111339	0.175389421
0.08402256	0.86863575	0.085320403	0.661623423	0.162611949	0.676404472
0.111397221	0.864887941	0.855496989	0.5920427	0.15632072	0.155292492
0.877621182	0.883915155	0.040855868	0.170842832	0.175762262	0.693081671
0.123083358	0.863438815	0.856705137	0.58848785	0.155088224	0.156281992
0.439668137	0.877573511	0.448822127	0.52748611	0.170756348	0.559986704
0.099117318	0.841860894	0.103093668	0.602543512	0.134913791	0.627740761
0.068793482	0.071278037	0.855492889	0.649648797	0.629339534	0.149004343
0.392995413	0.87759237	0.484848898	0.582641853	0.170875964	0.625251591
0.865717335	0.087710634	0.866801126	0.161866025	0.619331316	0.159306424
0.065212685	0.872098859	0.874019093	0.652867072	0.164645932	0.168219881
0.087949724	0.867029223	0.866334488	0.619577088	0.159667919	0.161979675
0.405788341	0.877348553	0.480693639	0.532734501	0.170630361	0.575050842
0.446359968	0.877382236	0.437087725	0.546089853	0.170604489	0.575730669
0.872824653	0.876305862	0.065179548	0.165112374	0.169264958	0.652798209
0.14708879	0.133109218	0.82581639	0.601332341	0.571941211	0.119887213
0.013707776	0.876825852	0.883815377	0.697321229	0.170926939	0.175798039
0.3929207	0.87742655	0.484758354	0.582439865	0.170484183	0.625286752
0.841732856	0.083353541	0.102263848	0.134863315	0.631367513	0.605912667
0.086457618	0.869067995	0.083053885	0.665122289	0.162464574	0.677146773
0.877302334	0.46245237	0.421023309	0.170578473	0.608612999	0.572162535
0.868928367	0.090856562	0.07772264	0.1626893	0.67136259	0.659342216
0.841621365	0.124971825	0.103851964	0.135296696	0.623276656	0.597887671
0.041155617	0.881522123	0.041773096	0.693029009	0.175442511	0.692584498
0.107750889	0.865198157	0.854872736	0.593975978	0.156890115	0.15457197
0.882475859	0.027845079	0.027518838	0.175394453	0.695002746	0.694887179
0.864498994	0.863357782	0.864032257	0.219528558	0.219337863	0.219465747
0.123108877	0.863456415	0.857114643	0.588442198	0.155056049	0.156265001
0.878017514	0.470451637	0.420085082	0.170937402	0.559678588	0.521083858
0.140013676	0.131735769	0.825501239	0.604198417	0.575990748	0.118999786
0.825527296	0.148451827	0.129857285	0.118926706	0.604433689	0.57600522
0.826230998	0.23054192	0.23808678	0.11880462	0.609357731	0.580428725
0.054280968	0.875074882	0.883382037	0.690593051	0.170947466	0.175563637
0.204692164	0.826238147	0.202306091	0.579198001	0.11932696	0.606937847
0.877293703	0.877596624	0.87691453	0.170499146	0.170782152	0.170376418
0.446240793	0.877346977	0.444391958	0.576456492	0.170558792	0.606937168
0.465740768	0.424566343	0.877392139	0.608870274	0.572208478	0.170606696
0.877363271	0.473563599	0.410207113	0.170541286	0.609089902	0.569261452
0.146982444	0.130585918	0.824881076	0.602190567	0.573024175	0.119405234
0.14187958	0.860993478	0.84345655	0.564486085	0.15387486	0.149817134
0.868357705	0.865834913	0.077172214	0.160171226	0.161583331	0.62312358
0.842929728	0.1338097	0.861713339	0.147384367	0.567726223	0.154420996
0.843637773	0.133782967	0.862077259	0.147633293	0.567811006	0.154605049
0.41554508	0.877623394	0.462105402	0.589655297	0.17076685	0.626162765
0.469858844	0.415688156	0.877385467	0.57541786	0.536262374	0.170596784
0.84410697	0.14172779	0.860991333	0.149655839	0.564636241	0.153695071
0.414418319	0.877233471	0.475111181	0.569221205	0.170579588	0.608243576
0.437067741	0.446306842	0.877305788	0.575698004	0.545992456	0.170575916
0.869070968	0.098629681	0.081892251	0.162764355	0.66818018	0.654482362
0.054286566	0.881247476	0.054610395	0.69094547	0.175468145	0.689952858
0.083393524	0.102153296	0.841534443	0.63083285	0.605789203	0.134736185
0.438844159	0.877718773	0.438848897	0.59640443	0.170712034	0.626509146
0.877545601	0.448025652	0.433052697	0.170655844	0.590742637	0.557787896
0.826562994	0.262737453	0.280704241	0.118763736	0.612961812	0.584555951
0.06245718	0.062481482	0.062413219	0.638235832	0.638381272	0.638559903
0.878416024	0.877365135	0.878962435	0.170887151	0.170533688	0.170966078
0.459143086	0.422084593	0.877655943	0.590998667	0.554985524	0.170846556
0.435812566	0.877224707	0.448068974	0.542871222	0.170539328	0.575798496
0.072855596	0.855560793	0.071040437	0.629769918	0.149117256	0.649687337
0.868954662	0.089254208	0.074947585	0.162664197	0.672172497	0.659752754
0.014474852	0.881508264	0.014286912	0.69733144	0.175332292	0.696944953
0.844179255	0.137230555	0.861670563	0.148942992	0.566141439	0.1544557
0.068868109	0.071224908	0.855200872	0.649975389	0.629535906	0.148781331
0.08000145	0.855717675	0.104274231	0.623574443	0.149604004	0.643642957
0.00000484	0.0000049	0.881686506	0.699291254	0.699150911	0.175261194
0.868895881	0.091778719	0.077933545	0.162692182	0.671378333	0.65931841
0.855007759	0.111444201	0.864629044	0.154685967	0.59218864	0.15571187
0.439125396	0.878281612	0.439130119	0.596324144	0.171211348	0.626734616
0.459662192	0.429730928	0.877763054	0.559765157	0.524364587	0.170713164
0.289402747	0.285518652	0.825844133	0.615201977	0.585688444	0.118707509
0.10219647	0.841402835	0.0834189	0.605884713	0.134740113	0.631421547
0.102841273	0.078806317	0.855383668	0.643726242	0.623672126	0.149263374
0.083358881	0.10216876	0.841525094	0.631086211	0.606249514	0.13485515
0.041105125	0.040849484	0.881374155	0.692387167	0.693035443	0.175279833
0.041267449	0.882037589	0.041441719	0.692842459	0.175085052	0.693025924
0.092778624	0.099693469	0.84148803	0.629564355	0.604442995	0.134913277
0.848213883	0.846624508	0.847070543	0.257363454	0.25740901	0.256758039
0.856967288	0.079600206	0.071810633	0.14924232	0.647907955	0.627510871
0.068865552	0.071288056	0.855599369	0.650137669	0.629385362	0.148795375
0.825585989	0.147996535	0.131589397	0.119049975	0.604688969	0.575283539
0.874715369	0.049190504	0.872971432	0.168473064	0.659271915	0.165253466
0.081673716	0.867323071	0.865914114	0.621167016	0.159748693	0.161736215
0.868981748	0.083355227	0.07573993	0.16266268	0.674269914	0.66144446
0.877823897	0.459764532	0.429701956	0.170428209	0.559771652	0.524382087
0.450345504	0.426919707	0.877279717	0.626527382	0.593015284	0.17043472
0.882063748	0.054274618	0.875237459	0.174920539	0.690519777	0.170664818
0.137900272	0.825605989	0.14855807	0.573786626	0.118633163	0.60201407
0.461685564	0.415115927	0.876774566	0.626379475	0.589662808	0.170460255
0.881864566	0.041056845	0.040812497	0.175485585	0.692633539	0.693001218
0.060074769	0.060004214	0.059928141	0.639766241	0.640446049	0.639931188
0.083348999	0.102157948	0.841279006	0.630748255	0.605895816	0.134843395
0.082823694	0.868885391	0.084079635	0.663200086	0.162488784	0.677222382
0.446491509	0.877319494	0.443476855	0.577306041	0.170581983	0.608283591
0.153951423	0.859688832	0.847224	0.56078992	0.152456526	0.151568666
0.45052215	0.427091392	0.877628374	0.626573172	0.593083701	0.170645769
0.054600848	0.054271868	0.881738732	0.689841788	0.69030806	0.175589101
0.480694959	0.401385514	0.877395163	0.590151441	0.548026107	0.170429954
0.823304457	0.823869347	0.824885429	0.298279653	0.29874513	0.298698362
0.876612286	0.883973753	0.013706999	0.170763104	0.175992336	0.697368371
0.045724273	0.047742437	0.053590739	0.655706472	0.656290339	0.656559063
0.882834624	0.054271178	0.876564886	0.175081606	0.690459249	0.170965113
0.054690912	0.055523792	0.05492864	0.690408526	0.690242448	0.690856737
0.866592251	0.095484152	0.867248167	0.162299327	0.61716625	0.159384814
0.470037183	0.415490524	0.877281529	0.575216265	0.536011248	0.170535712
0.103128552	0.099093277	0.841548095	0.62769227	0.60259827	0.134983393
0.099745001	0.841586911	0.092764777	0.60434523	0.13483664	0.629685056
0.442738429	0.447902321	0.877366826	0.607595268	0.577104523	0.170593574
0.0000049	0.881236161	0.00000484	0.699259362	0.175206474	0.699075585
0.139945777	0.131719789	0.825540683	0.60423461	0.575944567	0.119050073
0.075988928	0.871898772	0.875563081	0.650578855	0.164542592	0.168523113
0.45879977	0.421743036	0.876982531	0.590927345	0.554991292	0.170300584
0.411482314	0.87719977	0.469793116	0.551627012	0.17023702	0.590525829
0.415543091	0.87731991	0.469950117	0.53609818	0.17052124	0.575431157
0.099327305	0.841805626	0.103035627	0.602373415	0.134903827	0.627662951
0.844725616	0.141818153	0.860027622	0.149685262	0.564561746	0.15362053
0.881280595	0.054645667	0.054282763	0.175110837	0.690009873	0.690289157
0.0996748	0.841849141	0.092656612	0.604440569	0.134887537	0.629757234
0.480781443	0.405868446	0.877457313	0.574757538	0.532335373	0.170574724
0.877325803	0.473404696	0.404032975	0.170564851	0.625794938	0.586063069
0.405826141	0.877318373	0.480582453	0.53272356	0.170594706	0.575018653
0.87744874	0.473491758	0.410125428	0.170616322	0.609295883	0.56948771
0.067561103	0.067730921	0.067814605	0.63622079	0.636453436	0.636794744
0.102997497	0.078823165	0.85534064	0.643474856	0.623657205	0.14926161
0.05427431	0.876315965	0.883929806	0.690518886	0.171052577	0.175565987
0.081148734	0.855507393	0.066727596	0.630542509	0.148831617	0.652287529
0.062481138	0.062480887	0.062426986	0.638275279	0.638267244	0.638591567
0.146489307	0.131148528	0.825328668	0.602179296	0.573084643	0.119427197
0.882248373	0.027716013	0.02742715	0.175557085	0.694588109	0.694781666
0.047134588	0.870831865	0.873547636	0.656925891	0.164479249	0.168034883
0.014068375	0.014278509	0.881301255	0.697374564	0.69753552	0.175184034
0.027324571	0.876627604	0.882991383	0.695193572	0.171219544	0.17574101
0.062470066	0.062477791	0.062429685	0.638291444	0.638394646	0.638523355
0.876276511	0.882506781	0.0000055	0.17088698	0.175432787	0.699222533
0.087973839	0.867550008	0.865946544	0.619257103	0.159737751	0.16194279
0.87456203	0.055416143	0.871818306	0.168574976	0.65501526	0.164635701
0.877991404	0.459798317	0.429829095	0.170411178	0.55977731	0.524449784
0.872430163	0.874052937	0.075943688	0.165105376	0.16893065	0.650420213
0.825708229	0.250528755	0.25272993	0.118963552	0.612879423	0.585265178
0.860137704	0.844650865	0.141756277	0.152991966	0.149315742	0.564532166
0.459092739	0.422156617	0.877686562	0.590978125	0.554795138	0.170278307
0.415545036	0.877352272	0.469964905	0.536015839	0.170515591	0.575273516
0.86636786	0.866300788	0.104381468	0.158958493	0.162492229	0.615195042
0.085485602	0.869002405	0.08206037	0.665400124	0.162545984	0.677363442
0.877541948	0.877405373	0.876606507	0.170919597	0.170758388	0.170449895
0.877823562	0.45061721	0.427191465	0.170645905	0.62659187	0.593061727
0.883020085	0.054271272	0.876092918	0.175018879	0.690464732	0.170845423
0.210864427	0.82601775	0.209783588	0.5773308	0.119329039	0.606525511
0.392909254	0.8774289	0.484770351	0.582571196	0.170715524	0.625290927
0.877233055	0.47032873	0.411766692	0.170387991	0.590660305	0.551626473
0.051720613	0.053840849	0.058145566	0.65407395	0.654462276	0.653698464
0.411486671	0.877248392	0.46984089	0.55164174	0.170215583	0.590539678
0.867087944	0.104029983	0.8663627	0.162706972	0.615418403	0.158950751
0.454349086	0.436310237	0.877339957	0.609620579	0.576376816	0.170591151
0.091175653	0.074249266	0.855129539	0.645324803	0.625696594	0.149172025
0.141784357	0.860047753	0.845752726	0.564454501	0.154106451	0.150330372
0.054275901	0.876323363	0.883201888	0.690531068	0.170839338	0.175235454
0.841697148	0.124987122	0.104007731	0.135290731	0.623189262	0.597748294
0.062467032	0.062480291	0.062425833	0.638270102	0.638343343	0.63854926
0.056993223	0.044565095	0.075440016	0.675637064	0.674605913	0.676186497
0.427182455	0.877803673	0.450606558	0.593074709	0.170864951	0.626515574
0.459883734	0.429983797	0.878238825	0.559907899	0.524400393	0.170627701
0.328486966	0.826070391	0.330470488	0.583963197	0.118523841	0.611899839
0.068880739	0.071255195	0.85553972	0.650034529	0.629472864	0.148912835
0.083373103	0.102211333	0.841807117	0.631230884	0.605855887	0.134725586
0.402964148	0.877372476	0.485881011	0.564895682	0.170490152	0.60761293
0.113765527	0.100334493	0.841754276	0.626232935	0.600739639	0.134961332
0.0145417	0.014338608	0.882559877	0.697351706	0.69685153	0.175371152
0.86808539	0.866036529	0.077056894	0.160105043	0.161622009	0.623075901
0.29761649	0.826003476	0.295987768	0.591694776	0.118843989	0.617586232
0.153943617	0.860483025	0.847323433	0.56086577	0.152872735	0.151998645
0.091298553	0.07818162	0.869116791	0.66847052	0.65712232	0.162633126
0.877181794	0.462437393	0.420858132	0.170561545	0.608661933	0.572184099
0.841622915	0.124800032	0.103652941	0.135296051	0.623218072	0.598055455
0.876823995	0.884253654	0.013707146	0.170866281	0.176141592	0.697382699
0.874496162	0.05540436	0.871887788	0.168723357	0.655090618	0.164819576
0.846840011	0.153901041	0.859376492	0.15121046	0.560787332	0.152155758
0.100480902	0.841709236	0.114119084	0.600295544	0.135039543	0.62556026
0.856829192	0.102869545	0.078814415	0.14955754	0.643427486	0.623872688
0.111414528	0.864089917	0.855807194	0.592068663	0.156328635	0.155238487
0.027740029	0.027399669	0.027927579	0.694882393	0.694865144	0.69579556
0.086313109	0.868946525	0.083111761	0.665106024	0.162493592	0.67741825
0.00000278	0.00000292	0.00000285	0.699354902	0.698827956	0.698926598
0.866365201	0.866302107	0.10438347	0.15896202	0.162485915	0.615188864
0.077204998	0.080710722	0.868998143	0.678452628	0.665940497	0.162492373
0.87574181	0.883749826	0.05427659	0.170888251	0.175670824	0.690523194
0.068791994	0.071347623	0.855102959	0.649868085	0.629492394	0.149184227
0.444113486	0.877149628	0.43872624	0.562593769	0.170518796	0.59230968
0.846181779	0.845117006	0.848573225	0.257460303	0.256911561	0.257531376
0.87743522	0.480870607	0.40154271	0.170627091	0.590400646	0.548085778
0.08772428	0.079248005	0.868626343	0.672870001	0.661847676	0.162777984
0.447448378	0.8773259	0.4442946	0.577073464	0.170559627	0.607352821
0.027326281	0.876732011	0.883813802	0.695235488	0.171229888	0.175735198
0.06979565	0.06515577	0.085201324	0.67050677	0.670265334	0.672503756
0.028341002	0.028229059	0.881449642	0.694703093	0.695302625	0.175235562
0.86340914	0.857035718	0.130373088	0.155076557	0.156914121	0.586478437
0.448539358	0.439451224	0.877049824	0.559836782	0.52747835	0.170709623
0.866782189	0.865803903	0.088343268	0.159278846	0.161955332	0.619059817
0.13040471	0.862835561	0.857488064	0.586319274	0.155111836	0.15741002
0.132970422	0.825429339	0.149543984	0.574289235	0.119089573	0.603567948
0.877479356	0.45089672	0.432170083	0.170543285	0.609441399	0.576111337
0.87473297	0.065239982	0.87146867	0.168424649	0.6526585	0.164588673
0.062502946	0.062484516	0.062449203	0.638340553	0.638374675	0.638512397
0.877269489	0.459090732	0.422072577	0.170393497	0.590724413	0.554896898
0.447659855	0.432429458	0.876949125	0.590810963	0.558267293	0.170211265
0.480562687	0.40575319	0.877284437	0.575080576	0.532581325	0.170525383
0.448141791	0.435887787	0.877387734	0.575766531	0.54283483	0.17056587
0.278466884	0.285944539	0.825692497	0.612083487	0.58517451	0.118731242
0.873982995	0.076030302	0.87080301	0.168492764	0.650497563	0.164653895
0.866908452	0.866126138	0.081772926	0.159218073	0.161852115	0.621200976
0.874547975	0.051376929	0.872055343	0.168375602	0.659089417	0.165022097
0.292183142	0.82583525	0.287042882	0.584854884	0.11903125	0.61200018
0.847789631	0.846955212	0.846816891	0.257044667	0.257401592	0.256739411
0.041451059	0.041012937	0.041651614	0.6931993	0.691684996	0.69219355
0.8736762	0.065238369	0.870339614	0.168150131	0.65274417	0.164453998
0.113976271	0.100061232	0.841980282	0.625860906	0.600621655	0.135040332
0.448692828	0.439633625	0.877403083	0.559814615	0.527492402	0.17069685
0.014253721	0.014225504	0.881385774	0.697091232	0.697565927	0.175311241
0.877645185	0.480912386	0.410262938	0.170749622	0.559485287	0.517333715
0.863811976	0.856297971	0.123124062	0.155321662	0.15619911	0.588625959
0.877444958	0.450734944	0.432331684	0.170566654	0.60968042	0.576291622
0.054263335	0.876291034	0.883014608	0.690388957	0.171370553	0.175489255
0.124741789	0.103155408	0.841773377	0.623486542	0.598450646	0.135250139
0.014452531	0.014210997	0.881589449	0.697508897	0.697560642	0.175205205
0.081704343	0.85600769	0.068666575	0.63337242	0.149154857	0.654426877
0.13373363	0.862295101	0.844340971	0.567752108	0.155259557	0.148256607
0.041068596	0.882313895	0.041541636	0.692732136	0.175875591	0.692215463
0.866907178	0.866746958	0.095484522	0.159483427	0.162729685	0.617456319
0.147233424	0.134275086	0.09721837	0.618868213	0.617875597	0.615360431
0.877406408	0.469836517	0.415541379	0.170598059	0.57556451	0.536238372
0.42971195	0.877701102	0.45963571	0.524427553	0.170742784	0.559723272
0.881958536	0.00000485	0.00000484	0.17539797	0.699200842	0.699347278
0.876818471	0.877091689	0.877056385	0.170090806	0.170797157	0.17063608
0.877339344	0.459067462	0.425525958	0.170583978	0.575635049	0.539615871
0.404476899	0.8782338	0.473867507	0.586214841	0.170786306	0.625834469
0.153926046	0.859344356	0.846828106	0.560859072	0.152743075	0.151871114
0.864516708	0.863401432	0.863968251	0.219546028	0.219263183	0.219504608
0.844355672	0.141812333	0.859769726	0.149682097	0.56457471	0.153643608
0.443007017	0.448138958	0.877349274	0.606596218	0.576589971	0.170605857
0.860902682	0.844173665	0.141773849	0.153632429	0.149686369	0.564486198
0.042059969	0.040946059	0.041891666	0.692966621	0.693087613	0.693671277
0.877963352	0.470478495	0.419994667	0.170674923	0.559716454	0.520959456
0.43869553	0.438690806	0.877412471	0.626641878	0.596359551	0.170686199
0.878469627	0.876989182	0.877658039	0.170619259	0.170671231	0.17046752
0.079321722	0.869041769	0.092899368	0.658384827	0.162577467	0.670058195
0.269947196	0.825581486	0.276039791	0.581894083	0.118597039	0.611513673
0.872110178	0.874162351	0.048055329	0.165237702	0.168434396	0.658817628
0.027293602	0.881639135	0.02766419	0.695300835	0.17509037	0.694412628
0.876650621	0.883345426	0.040860505	0.17078975	0.175885635	0.693142392
0.869123839	0.090386086	0.076254122	0.162665655	0.671975829	0.659818946
0.866921901	0.095298379	0.867296049	0.162393169	0.617730551	0.15942407
0.86659025	0.09549849	0.867318995	0.162302922	0.617200304	0.159378052
0.877355739	0.448087833	0.435858052	0.170628146	0.575757781	0.542876708
0.437653314	0.445161118	0.877398196	0.591322497	0.561969504	0.170389868
0.139907729	0.131034654	0.825598263	0.606053927	0.577533138	0.119232715
0.392803529	0.877220829	0.484668523	0.582682545	0.170794013	0.625225227
0.102172586	0.84163222	0.083421349	0.606136965	0.134729495	0.631432858
0.877810706	0.470420424	0.419897095	0.170841359	0.559726576	0.521029765
0.099676221	0.841761022	0.092649084	0.604335914	0.134833716	0.629764631
0.04547374	0.048360217	0.053719823	0.655900076	0.65614289	0.656161001
0.027330874	0.88163077	0.027663894	0.695345264	0.175052214	0.694376934
0.867651757	0.866934557	0.095417328	0.159259358	0.162527018	0.617780158
0.848988752	0.847134784	0.847253924	0.257648408	0.257162271	0.257197032
0.877380029	0.483764951	0.400138268	0.170489329	0.608209594	0.565500514
0.446055309	0.87735578	0.444518586	0.576444817	0.170561514	0.606943771
0.00000484	0.881413569	0.0000049	0.699343169	0.17503868	0.699135997
0.867039809	0.104039283	0.866485181	0.1627144	0.615244729	0.159000494
0.128437268	0.321514541	0.224331918	0.622426879	0.622619218	0.620878362
0.882895794	0.040857712	0.875120575	0.174984954	0.693018093	0.170657348
0.877289863	0.462492882	0.420995159	0.170610333	0.608623345	0.572167767
0.091284488	0.07831144	0.868857918	0.667975814	0.657364146	0.162568979
0.877342853	0.437071376	0.446338432	0.170588267	0.575737143	0.546083483
0.4032076	0.877398169	0.485423653	0.564798634	0.170528762	0.607447044
0.446145191	0.877316919	0.443953299	0.576563925	0.170578133	0.607315283
0.826419724	0.13553225	0.127021635	0.119135068	0.605275341	0.577900171
0.825624357	0.271636131	0.276511752	0.118545205	0.611869399	0.58655995
0.205871953	0.826042998	0.21004591	0.579001528	0.119124169	0.606162917
0.874005835	0.065238546	0.870893417	0.168025407	0.652740452	0.164498026
0.862805437	0.856182431	0.123168635	0.155027987	0.156176657	0.588378443
0.841725918	0.103027233	0.099042122	0.13499646	0.62768172	0.602600004
0.872022355	0.875943042	0.065177333	0.16509792	0.169447283	0.652782834
0.047127157	0.872567782	0.873643698	0.656866174	0.164578532	0.167863927
0.854852231	0.111476223	0.864503096	0.155237075	0.592133892	0.156497165
0.095685738	0.866878675	0.866408591	0.617421935	0.159472668	0.162635132
0.080272864	0.855298704	0.104399176	0.623460867	0.14917579	0.643364294
0.075971473	0.871792068	0.875162353	0.650517973	0.164460254	0.168493882
0.856402167	0.111446276	0.864692647	0.154968025	0.59200391	0.155824787
0.874313373	0.055388543	0.87302256	0.168645035	0.655128882	0.164779704
0.877448736	0.473491891	0.410124802	0.170616348	0.609295871	0.569487719
0.111447934	0.864200043	0.856033348	0.592115037	0.156189429	0.155357807
0.087558167	0.078205053	0.868933766	0.672592578	0.661514747	0.162593858
0.877878677	0.470419472	0.419972334	0.170659511	0.559759403	0.520976295
0.869106406	0.098257258	0.080834616	0.16268585	0.669449201	0.657219618
0.014121777	0.881259151	0.014288023	0.697203872	0.175496053	0.697342339
0.845404699	0.133718052	0.864456029	0.148491238	0.567803119	0.155668825
0.882450146	0.040850672	0.875192279	0.17452758	0.692903032	0.170561075
0.877168266	0.461879725	0.415315447	0.170733651	0.626290306	0.589652478
0.868943163	0.090220102	0.077516738	0.162663191	0.671428687	0.659305661
0.862403876	0.842973956	0.133702496	0.154703282	0.14741738	0.567710815
0.882018508	0.027558775	0.027540049	0.175572961	0.69437039	0.694854989
0.47650162	0.412686604	0.877201008	0.609843087	0.570469765	0.170585739
0.871458321	0.874122364	0.048123482	0.165209565	0.168375477	0.658793186
0.437714898	0.445009442	0.877468252	0.592803889	0.563261873	0.170502709
0.877636081	0.448032862	0.433113794	0.170646209	0.591230319	0.558677626
0.841884835	0.0927341	0.099622972	0.134790419	0.629675927	0.604358738
0.881591971	0.041170826	0.040813218	0.175379534	0.692840985	0.692900881
0.865829114	0.077138629	0.867985708	0.161591259	0.623258929	0.160335072
0.082478298	0.868940944	0.08368883	0.663574732	0.162497266	0.677167995
0.126092671	0.294117115	0.200484028	0.622952589	0.627710474	0.623322988
0.43274275	0.877337098	0.44780583	0.558211726	0.170710571	0.591419964
0.867306839	0.865271001	0.077602342	0.159666566	0.161215004	0.622757199
0.863219725	0.857304823	0.130368646	0.154664771	0.156779361	0.586503053
0.153962205	0.859838137	0.846699411	0.560802402	0.152582127	0.151673524
0.439124727	0.878280473	0.439129447	0.596284519	0.17113978	0.626700794
0.057143677	0.044472207	0.075340915	0.675634065	0.67461014	0.676211817
0.87444655	0.049566009	0.872251386	0.168276677	0.658815216	0.165015559
0.0000048	0.881376633	0.00000493	0.69930409	0.175009003	0.6991847
0.070238115	0.071488161	0.073820903	0.649748503	0.650208267	0.650560134
0.446337897	0.877342026	0.437070447	0.546068936	0.170591132	0.575721643
0.045209099	0.872048462	0.874283979	0.659008222	0.165301669	0.168179896
0.140278399	0.131188977	0.825209191	0.604105887	0.576636422	0.118780876
0.866200923	0.866676827	0.095510721	0.159440082	0.1627218	0.617461727
0.883211216	0.013707369	0.875583019	0.175041665	0.697400375	0.170428136
0.875107778	0.055372737	0.871921446	0.168545533	0.65487155	0.16433262
0.856153042	0.091320888	0.074075137	0.149251804	0.646012298	0.625729704
0.877603728	0.480889054	0.410245402	0.170753275	0.559516503	0.517357188
0.424007514	0.877450062	0.465593595	0.573119975	0.170555163	0.609852032
0.448233102	0.439061314	0.876356371	0.559793754	0.527654985	0.170484623
0.095453573	0.866406082	0.866045849	0.61751884	0.158872236	0.161996447
0.875463952	0.075991763	0.871442754	0.168873115	0.650411237	0.164438258
