Va	Vb	Vc	Ia	Ib	Ic
0.875741691	0.884197255	0.027326037	0.170657179	0.175901478	0.695192676
0.091645437	0.074311835	0.854937852	0.645366689	0.625634846	0.148836416
0.486582234	0.401631095	0.877413504	0.609964453	0.566657216	0.170491874
0.875947138	0.075984782	0.871376928	0.168846767	0.65047083	0.164405112
0.884673154	0.02732715	0.876690204	0.176281553	0.695250955	0.170713054
0.410199344	0.877406561	0.480742834	0.517449356	0.170685022	0.559453532
0.344486967	0.825522269	0.330054669	0.586425269	0.118655837	0.61619512
0.060001465	0.060017807	0.059963728	0.639534828	0.64018992	0.639817621
0.100656565	0.081808205	0.869310624	0.668967205	0.657718118	0.162626367
0.877445841	0.450725415	0.432299491	0.17055196	0.609496211	0.576145581
0.279709322	0.300208928	0.825889515	0.613030264	0.583828342	0.118714416
0.141475643	0.825490307	0.149073719	0.573900935	0.118508204	0.601603316
0.066914596	0.078715448	0.854950161	0.654002505	0.634106645	0.148735021
0.141748861	0.86068406	0.844931571	0.564522686	0.153460939	0.149651302
0.877636081	0.448032862	0.433113794	0.170646209	0.591230319	0.558677626
0.866291123	0.866882224	0.104205862	0.159169912	0.162960194	0.615610798
0.279706549	0.300222686	0.8258897	0.61304127	0.583832117	0.118714431
0.074634117	0.075052146	0.075094621	0.634141898	0.634385766	0.634622207
0.027324693	0.876426552	0.883334251	0.695169394	0.171219422	0.175663098
0.86205142	0.842786285	0.133723687	0.155168603	0.147813039	0.567752852
0.883666013	0.0000055	0.875338215	0.175258336	0.699330926	0.170220161
0.458728822	0.42165337	0.876816467	0.59070076	0.554994392	0.170315664
0.876311202	0.883885004	0.027326327	0.170588586	0.175767963	0.695200503
0.040861773	0.874962754	0.882545925	0.693154816	0.169808704	0.175133282
0.841643437	0.113700715	0.100386126	0.135149936	0.625800252	0.600881593
0.470059654	0.411726055	0.87771306	0.590650026	0.551418138	0.170709994
0.849631015	0.847143498	0.847531575	0.257287965	0.257217287	0.25695239
0.082505687	0.07988221	0.868876637	0.675951463	0.66384824	0.162597195
0.860721588	0.844022974	0.137197653	0.15398528	0.148618134	0.566196462
0.402842083	0.877386687	0.485732177	0.564934619	0.170493553	0.607591134
0.432651395	0.87746562	0.448041616	0.5581608	0.170534056	0.59085979
0.877700438	0.480931693	0.401728595	0.170930511	0.59030271	0.547969269
0.865270136	0.855039884	0.111369582	0.155697371	0.154625489	0.592010094
0.868825464	0.090445921	0.076832296	0.162681577	0.671376418	0.65929456
0.861367529	0.863490987	0.862006261	0.218499641	0.219135671	0.219158543
0.079409864	0.082239493	0.868810177	0.677708373	0.665433541	0.162587332
0.866501388	0.865692617	0.104043474	0.1592818	0.162485413	0.615209386
0.863858371	0.856346265	0.123155121	0.15566524	0.156443521	0.588418198
0.04196611	0.04105102	0.042495375	0.692868034	0.691720657	0.692291876
0.075993295	0.871357327	0.875397691	0.65045446	0.164351992	0.168802127
0.088277297	0.079917455	0.868774499	0.672307496	0.660600412	0.162680608
0.87757725	0.472034279	0.479055418	0.170692943	0.561264701	0.532266315
0.137217018	0.859974253	0.844441149	0.56635272	0.154185641	0.148994106
0.411610397	0.877529135	0.469990315	0.551576338	0.170522872	0.590518528
0.876179375	0.88353307	0.040861829	0.170785622	0.17590562	0.693161108
0.08104633	0.855509908	0.066665633	0.630704683	0.148845094	0.652212625
0.079324036	0.868775104	0.088369475	0.662599928	0.162688939	0.6745507
0.424182522	0.877388458	0.465194968	0.573174593	0.170547319	0.609861034
0.854700893	0.11148081	0.864548678	0.154788425	0.592183783	0.155946253
0.880531799	0.054616006	0.054318419	0.175277019	0.689911157	0.690711521
0.279031435	0.282477311	0.825753038	0.612663381	0.584986597	0.118728047
0.878927403	0.87736485	0.879521857	0.170955215	0.170511862	0.170900467
0.866501356	0.865692831	0.104043404	0.159281808	0.162485376	0.615209576
0.446174902	0.8773475	0.444431609	0.576455025	0.17055918	0.606938708
0.87777877	0.484935463	0.393096047	0.17072601	0.625195722	0.582601967
0.877534995	0.474173378	0.481385544	0.170656959	0.560987392	0.532200958
0.883064629	0.054273608	0.876447203	0.175028927	0.69048773	0.170933672
0.856095674	0.116761671	0.863340352	0.155402877	0.590278677	0.155262811
0.856148603	0.11669192	0.864465438	0.155882482	0.590302151	0.156187008
0.113766363	0.10030508	0.84180306	0.626260851	0.600763589	0.134985958
0.068815318	0.071274043	0.855443981	0.649594195	0.629368223	0.149006302
0.497008506	0.512421713	0.877472373	0.559547744	0.531390942	0.170609447
0.855069148	0.10755621	0.865166557	0.154956028	0.593767127	0.156971708
0.877607537	0.470358409	0.419754442	0.170810056	0.559661582	0.520963213
0.141741123	0.860830932	0.845511342	0.564524509	0.153655955	0.149837116
0.0747879	0.07495971	0.075150877	0.634152404	0.634365052	0.634556584
0.099479909	0.134917122	0.177436654	0.618233783	0.618618792	0.619693567
0.079298246	0.869138916	0.092917938	0.659133158	0.16273779	0.670596435
0.480439517	0.409819514	0.876706972	0.559347511	0.517514387	0.170712478
0.100480902	0.841709236	0.114119084	0.600295544	0.135039543	0.62556026
0.419923634	0.877873938	0.470455579	0.521100487	0.170777385	0.559684265
0.300602963	0.825902525	0.295834532	0.587481394	0.118794428	0.617800339
0.07486459	0.855724414	0.091386782	0.625982872	0.149366263	0.645543962
0.279031435	0.282477311	0.825753038	0.612663381	0.584986597	0.118728047
0.877393923	0.483696243	0.400152039	0.170607718	0.608637881	0.566065682
0.877398766	0.480828729	0.410096221	0.170443904	0.55932488	0.51758854
0.87635893	0.877594368	0.877234795	0.170691106	0.170726336	0.170692156
0.872824653	0.876305862	0.065179548	0.165112374	0.169264958	0.652798209
0.062470066	0.062477791	0.062429685	0.638291444	0.638394646	0.638523355
0.079187714	0.868964965	0.088069009	0.663449958	0.162639231	0.672403258
0.455048866	0.435891632	0.877374701	0.610831021	0.577388334	0.170596167
0.881823869	0.054691886	0.054302504	0.175680792	0.689967979	0.690480629
0.881338388	0.00000484	0.00000489	0.175398728	0.699056158	0.698914109
0.877053505	0.470230383	0.41182372	0.170199261	0.58968209	0.551182474
0.091736876	0.074179023	0.855274359	0.645321134	0.625806529	0.14869976
0.07488919	0.074887393	0.075041548	0.634076391	0.634345	0.634575446
0.82615026	0.148570839	0.130602165	0.119163177	0.605106578	0.575591762
0.459465384	0.429593251	0.877413846	0.55967242	0.52433992	0.170645974
0.480873226	0.410051272	0.877408071	0.559288662	0.517738757	0.170485924
0.484927337	0.393063736	0.877740213	0.62522395	0.582593748	0.170633027
0.436210457	0.877370602	0.454321951	0.576406521	0.170523791	0.609813561
0.027376782	0.881665426	0.027660921	0.695476569	0.17499668	0.694326423
0.486993474	0.401522747	0.877441323	0.607417436	0.564315733	0.170529599
0.469609023	0.411393469	0.876920521	0.590549155	0.551866982	0.170325953
0.826240783	0.219981046	0.223040811	0.118613184	0.609972431	0.58312019
0.111450044	0.864326973	0.856012128	0.592133397	0.156305759	0.155472506
0.103959286	0.867217044	0.866853874	0.615834722	0.159200591	0.162853303
0.862143737	0.843743204	0.133732784	0.155268957	0.14815842	0.567778731
0.87583658	0.065226607	0.871360869	0.168714173	0.652825443	0.16436339
0.866806616	0.095188221	0.867362226	0.162354944	0.617698566	0.15943871
0.87679716	0.438388095	0.438383338	0.170320561	0.62642539	0.596530873
0.476220278	0.412953018	0.877343521	0.61062803	0.570862105	0.170535276
0.068844714	0.071291609	0.855560916	0.650102225	0.62938871	0.149047111
0.40159582	0.877519477	0.480670167	0.548223701	0.170374237	0.589954085
0.448184318	0.435876517	0.877415816	0.575802488	0.542830852	0.17055651
0.869208099	0.098864166	0.080560657	0.162687802	0.669882764	0.65733461
0.067714071	0.067596719	0.067882255	0.636437265	0.636527432	0.636758258
0.446048293	0.877354984	0.444521704	0.576445078	0.170561489	0.606946157
0.062532944	0.062483534	0.062451411	0.638387438	0.638408072	0.638525482
0.465824524	0.424718553	0.877360576	0.60876213	0.572142169	0.170585299
0.123103709	0.863382532	0.856324852	0.588427159	0.155089037	0.156294797
0.459040639	0.425797868	0.877413611	0.57550617	0.539384707	0.170572051
0.091753894	0.074282524	0.856472461	0.645340724	0.625893808	0.149514542
0.872293931	0.875054933	0.065210365	0.165295382	0.168973605	0.652837516
0.439692064	0.877593109	0.448820157	0.527658387	0.170591731	0.5597773
0.862587613	0.845513001	0.137239	0.154385062	0.149038239	0.566254646
0.00000494	0.00000481	0.881636122	0.699279954	0.69912285	0.175105902
0.435890859	0.877312011	0.448074386	0.542880691	0.170518651	0.575825978
0.841417787	0.083373974	0.102185003	0.134866516	0.631299293	0.606275602
0.877385132	0.469842615	0.415538026	0.170594158	0.575604798	0.536332716
0.137224771	0.861337466	0.843447845	0.566254721	0.15423968	0.148815194
0.420115293	0.878232242	0.470618792	0.521067517	0.170828297	0.559692146
0.866498294	0.865693354	0.104020035	0.159286924	0.162491485	0.615222474
0.869086419	0.090541562	0.076224277	0.162679721	0.671643911	0.659678559
0.111440003	0.864165247	0.855656777	0.592116069	0.155840531	0.155072317
0.469739812	0.41140249	0.877058685	0.590521417	0.55211551	0.169983098
0.439692064	0.877593109	0.448820157	0.527658387	0.170591731	0.5597773
0.42239774	0.878099995	0.459311468	0.555312537	0.170549563	0.591199976
0.825824494	0.190909596	0.193266848	0.118397876	0.612902717	0.582153309
0.874932165	0.047226461	0.87135517	0.168380122	0.656942689	0.164827438
0.435880178	0.877259283	0.448038322	0.542885052	0.170510473	0.575832001
0.82628985	0.191230333	0.187718217	0.118957393	0.611847848	0.581666176
0.874660079	0.065226089	0.871323138	0.168725671	0.652753504	0.164397362
0.875847207	0.883382617	0.0000055	0.170569951	0.175258376	0.699289513
0.866342265	0.866930317	0.104320101	0.159139616	0.162905146	0.615586773
0.458996792	0.421943591	0.877382961	0.59077232	0.555087852	0.170402141
0.062471206	0.062476134	0.062429029	0.638268202	0.638466656	0.638508709
0.074899935	0.074953472	0.075436136	0.634414631	0.634323782	0.634439211
0.303581315	0.826289028	0.292307146	0.584607208	0.11894355	0.612973095
0.041102092	0.881775841	0.041629589	0.692817862	0.175161826	0.692913745
0.413721102	0.8773842	0.47567038	0.566004333	0.170681054	0.605588946
0.23018327	0.222046097	0.825017315	0.606589822	0.581270083	0.118953842
0.054339962	0.881777248	0.05462989	0.690683725	0.175474709	0.690326329
0.874281019	0.047232174	0.870382315	0.168203753	0.65702928	0.164645804
0.454823199	0.435989643	0.877416851	0.611033143	0.577342133	0.170577488
0.113751475	0.100230028	0.841935871	0.625865503	0.600607835	0.135203749
0.876426676	0.883880074	0.054279376	0.171205936	0.175668742	0.69058884
0.165153244	0.15476786	0.094915109	0.617339492	0.615659604	0.615933369
0.868705649	0.081945684	0.078854431	0.162616722	0.67405426	0.662151125
0.884225863	0.027325466	0.876926775	0.175740619	0.695191211	0.171420939
0.855315745	0.102931282	0.078887246	0.149116	0.64354943	0.623601149
0.841481707	0.12486158	0.104096696	0.135329027	0.622957765	0.597735386
0.874217221	0.047193408	0.872362784	0.168475194	0.656911892	0.164825344
0.00000549	0.874178471	0.882089149	0.699403875	0.169828703	0.175483395
0.060088792	0.05999175	0.059942177	0.639768374	0.640509434	0.639918391
0.855387072	0.10284352	0.078978068	0.14930549	0.64354205	0.623455961
0.877686259	0.47031756	0.419885287	0.170739454	0.559639361	0.520957203
0.059510765	0.064045961	0.063057387	0.652110763	0.651457812	0.651156431
0.153906012	0.859459129	0.846852549	0.560904995	0.152436612	0.151621616
0.450295267	0.426863566	0.877173558	0.626368685	0.593231211	0.170250492
0.102213557	0.841500737	0.083365424	0.60558147	0.134712321	0.630653614
0.081612513	0.867523474	0.865911582	0.621306272	0.159742629	0.161724247
0.865289673	0.087769755	0.866743257	0.162081667	0.618983617	0.159536875
0.055296906	0.872872682	0.87442997	0.654749908	0.165299226	0.168803041
0.881435264	0.00000488	0.00000491	0.175394115	0.699121844	0.699330907
0.278955474	0.28278059	0.825711782	0.612500694	0.585032871	0.11873357
0.860040783	0.844832442	0.137281582	0.154081645	0.148819291	0.566209918
0.877789194	0.473635324	0.404266218	0.17061657	0.625931821	0.586036953
0.29761649	0.826003476	0.295987768	0.591694776	0.118843989	0.617586232
0.86024804	0.844659557	0.1372866	0.153908716	0.148648138	0.566209339
0.133723468	0.862141268	0.843668087	0.567761136	0.155233714	0.148226365
0.885684197	0.027327713	0.878022243	0.176170343	0.695272095	0.170764157
0.878415719	0.44922265	0.44008986	0.170760233	0.559839017	0.527661045
0.148695829	0.133175909	0.825603294	0.603872571	0.574983153	0.119468347
0.496746996	0.512139882	0.877525502	0.560615841	0.531686319	0.170634166
0.419841351	0.877642369	0.470309657	0.520887712	0.170834993	0.559777711
0.878267746	0.470567382	0.420206098	0.170784436	0.559691057	0.521081096
0.082374573	0.868936735	0.083679317	0.663514992	0.162492483	0.677190028
0.07465358	0.855409294	0.091425538	0.625720654	0.149183826	0.645533177
0.44629994	0.877286014	0.43705175	0.546059305	0.170537205	0.575732982
0.436227966	0.877369702	0.45431617	0.576406874	0.17052352	0.609813343
0.082757118	0.30164381	0.282552708	0.620069112	0.617910198	0.618470997
0.00000549	0.876364442	0.883247502	0.699084663	0.170624578	0.175240405
0.877577235	0.472034906	0.479056559	0.17069293	0.561264655	0.532266301
0.055376018	0.871093256	0.874682142	0.654954934	0.16480513	0.16868284
0.877352427	0.483941821	0.399895517	0.170490548	0.608211633	0.565465567
0.876131203	0.87761024	0.877886514	0.170683112	0.170746432	0.171040626
0.448814552	0.439625549	0.877513548	0.559795931	0.52770014	0.170642461
0.438802997	0.438798297	0.877627426	0.626687668	0.596321928	0.170723177
0.080769923	0.85575201	0.067840888	0.631408918	0.149033334	0.652272164
0.086917287	0.078742871	0.868681839	0.672425689	0.660207617	0.162656051
0.421719486	0.877085988	0.458995005	0.554915876	0.170044959	0.59027713
0.864639155	0.854282613	0.111436955	0.156303064	0.155239658	0.591885798
0.091355846	0.079386891	0.869402877	0.668160785	0.65707307	0.162652113
0.027360852	0.881651126	0.027661273	0.695426301	0.175016126	0.694344151
0.070562742	0.051572961	0.082820443	0.673504634	0.672513814	0.674162112
0.089705133	0.075454718	0.868926877	0.668256144	0.65867567	0.162563768
0.877348762	0.884338181	0.0000055	0.171057121	0.176003708	0.699541665
0.278226217	0.290472195	0.825659384	0.613703465	0.582869636	0.11868833
0.092767229	0.099600872	0.841193085	0.629470921	0.604393973	0.134890975
0.041490379	0.881805261	0.041654352	0.692941829	0.175270729	0.692824877
0.876324357	0.883873054	0.027325767	0.170566327	0.175808849	0.695183677
0.875779665	0.882692509	0.040862139	0.170358127	0.174882167	0.693168754
0.442531627	0.448100389	0.877330741	0.607201699	0.576823472	0.170605972
0.470410405	0.419883313	0.877780381	0.559634795	0.520990298	0.170844937
0.866147631	0.087679267	0.866377124	0.161626909	0.619381466	0.159017795
0.045397224	0.047704857	0.052989444	0.655816053	0.656329474	0.655363879
0.450621432	0.427196814	0.877832693	0.626544697	0.593100398	0.170584365
0.877425907	0.473461181	0.404075635	0.170626334	0.625923029	0.586025553
0.826714407	0.268791058	0.270827168	0.118675638	0.609212065	0.583252063
0.856959593	0.130383613	0.862674695	0.156473331	0.586459456	0.154396642
0.465735193	0.424541296	0.87737443	0.608782174	0.572182461	0.170612507
0.459207859	0.422213023	0.877860917	0.5909138	0.555165053	0.170355169
0.841556905	0.113737175	0.100372501	0.135150168	0.625760257	0.600801021
0.06695405	0.078582218	0.854673736	0.654003227	0.633774291	0.14902683
0.871761492	0.874845099	0.046239807	0.165013972	0.168422219	0.658050223
0.863984836	0.85663027	0.123104456	0.155688419	0.15652054	0.588579792
0.437104167	0.44632495	0.877361352	0.575760458	0.546053336	0.170595951
0.051434395	0.05370984	0.057182306	0.653726631	0.654172664	0.654020414
0.877342875	0.437071394	0.446338435	0.170588277	0.575737176	0.5460835
0.151656522	0.139043749	0.098356376	0.619263579	0.617540424	0.615259179
0.424004553	0.877369922	0.464935024	0.572704778	0.170573417	0.609443875
0.405878531	0.877337105	0.480610163	0.532697571	0.170522589	0.575061837
0.470041573	0.411746078	0.877695543	0.590649417	0.551447145	0.170612842
0.111434184	0.864446596	0.855701579	0.592100199	0.156109305	0.155285108
0.877309831	0.448048818	0.435867581	0.170596104	0.575689168	0.542808413
0.860312083	0.845881817	0.153951624	0.151660427	0.150830679	0.560993263
0.877669377	0.480964782	0.401666075	0.170695972	0.59029886	0.547978119
0.00000491	0.00000477	0.88167798	0.699329761	0.69909755	0.175338119
0.095405052	0.866771799	0.865605869	0.617472714	0.159228332	0.162137208
0.865948421	0.86655317	0.104358059	0.159014903	0.162715827	0.615315435
0.443534755	0.446677393	0.877312061	0.6086567	0.578059359	0.170576266
0.863764307	0.86366639	0.863126811	0.218470974	0.21942631	0.218914244
0.080368453	0.855372661	0.104777356	0.623637638	0.14948531	0.643257955
0.013929236	0.014297267	0.013826196	0.696653534	0.697519611	0.697521056
0.862919079	0.863219543	0.863186407	0.21857735	0.21907607	0.219064972
0.00000549	0.876404865	0.884084602	0.699146535	0.170839138	0.175512696
0.8637471	0.854843879	0.111364849	0.155665307	0.154619495	0.592069312
0.877501025	0.473500619	0.404111134	0.170672366	0.625801035	0.586154624
0.868354011	0.865841422	0.077234474	0.160172108	0.161571259	0.623112291
0.102219594	0.841594701	0.083447755	0.606183302	0.134768344	0.631220935
0.077052873	0.867513231	0.864420995	0.623131274	0.160205424	0.161193219
0.825683755	0.277068733	0.279223756	0.118329153	0.611884771	0.583963088
0.067561045	0.067727576	0.067841036	0.636297777	0.636575136	0.636771406
0.861570878	0.843733177	0.137211515	0.154510115	0.148858004	0.566199883
0.437956354	0.444883713	0.877408659	0.592712218	0.56321906	0.170332034
0.867172185	0.864550531	0.077294344	0.159989103	0.161205599	0.623079784
0.069849535	0.065048275	0.08458893	0.670486554	0.670759065	0.672847889
0.113927246	0.100075925	0.841918923	0.625860082	0.600603773	0.135039988
0.43836918	0.444855451	0.877704087	0.593224047	0.563481282	0.170594822
0.860746236	0.84510304	0.147544152	0.152687187	0.15024947	0.562802826
0.883176017	0.054272424	0.875904648	0.174935269	0.690505879	0.170618524
0.07332632	0.855051504	0.0715675	0.629434327	0.148692153	0.64966578
0.045560887	0.047934592	0.053490719	0.655755899	0.656777874	0.656805799
0.825642338	0.277614661	0.287091797	0.118294514	0.610307989	0.584280278
0.092672341	0.099602027	0.841553285	0.629546607	0.604569041	0.134948586
0.848220256	0.846552426	0.847730235	0.257634863	0.256940555	0.257411291
0.877267023	0.448692517	0.439475291	0.170507423	0.55975886	0.527727803
0.860500673	0.845650212	0.147456001	0.153093239	0.150724178	0.562515729
0.041653922	0.04113059	0.042248083	0.693094729	0.692371997	0.692357135
0.846197151	0.846831672	0.846185187	0.256285189	0.25731027	0.256568155
0.872859015	0.875461279	0.055344554	0.165625028	0.168718144	0.654799077
0.841627667	0.113891462	0.100279189	0.135060109	0.625983286	0.600544859
0.841088326	0.083340101	0.10221917	0.134841751	0.63122523	0.605942779
0.07482916	0.074932488	0.075017849	0.634174335	0.634497243	0.634392818
0.841703885	0.12489408	0.10337997	0.135270883	0.623482613	0.598026718
0.881683507	0.0000049	0.00000482	0.175307473	0.699591036	0.699689951
0.392945116	0.877494895	0.484801179	0.582507748	0.170582788	0.625320705
0.411481977	0.877193824	0.469788193	0.55162968	0.170262893	0.590545787
0.876551267	0.884139457	0.054283266	0.171372431	0.175841436	0.690638139
0.876258553	0.883763662	0.054272393	0.170848337	0.175639286	0.690454854
0.824097112	0.823147008	0.823065028	0.298261028	0.298482863	0.297192526
0.059494539	0.063846325	0.062957611	0.652047161	0.652335711	0.652313592
0.877391077	0.483597144	0.400346211	0.170591001	0.608644622	0.566064554
0.484921699	0.393057076	0.877728998	0.62514585	0.582581161	0.170793322
0.867234988	0.866231406	0.08833855	0.159536949	0.162470189	0.6196228
0.871862215	0.87338446	0.047424538	0.165257871	0.168257164	0.658736563
0.841671492	0.0833478	0.102198251	0.134844498	0.631047404	0.606235034
0.00000549	0.876848563	0.882802341	0.699058642	0.17077212	0.175381922
0.462220908	0.415653835	0.87784771	0.626128457	0.589814707	0.170591288
0.875512337	0.065231083	0.871320602	0.168678554	0.652795426	0.164278242
0.855902127	0.116769574	0.863651369	0.15560533	0.590296849	0.155515938
0.841698581	0.124900674	0.103323355	0.135272681	0.623474417	0.598017969
0.083417829	0.102160146	0.841561187	0.630768307	0.60592469	0.134730779
0.871338153	0.874640071	0.075958246	0.164409156	0.168252731	0.650454702
0.124386473	0.111842841	0.142834642	0.615226577	0.615323581	0.615953248
0.09967682	0.841621045	0.092662858	0.604520068	0.134889866	0.62975715
0.462010481	0.415444386	0.877427867	0.626341965	0.589650704	0.17059224
0.059346111	0.064425024	0.063646924	0.652202308	0.651851787	0.651942068
0.874530848	0.873510399	0.874019655	0.188795668	0.188429216	0.188459791
0.882622606	0.027563566	0.027415366	0.175409458	0.694908257	0.694812402
0.22664376	0.238001897	0.825552202	0.610824341	0.580448059	0.118781785
0.051828953	0.053341979	0.057710686	0.654026447	0.654149212	0.653442807
0.04043709	0.046296375	0.074087057	0.677035425	0.678582411	0.680571837
0.095676637	0.866725598	0.865975275	0.617442342	0.159545438	0.162229289
0.465984889	0.424454201	0.877293529	0.608212759	0.571596711	0.170553261
0.075984945	0.872286197	0.874823622	0.65055338	0.164632275	0.168496512
0.841624406	0.083375007	0.102203138	0.134852609	0.631127059	0.606268949
0.082332051	0.868943671	0.083637135	0.663665788	0.162511464	0.677121525
0.856938419	0.079591073	0.071903052	0.149282603	0.647892239	0.627492093
0.86740089	0.865722333	0.082041866	0.159828629	0.161518562	0.620936836
0.87744874	0.473491758	0.410125428	0.170616322	0.609295883	0.56948771
0.082036376	0.302837684	0.287193204	0.619703114	0.616201673	0.615936208
0.866557594	0.86560192	0.10430844	0.159229588	0.162481879	0.615014039
0.226103357	0.229777158	0.827141266	0.610494213	0.578884339	0.118920219
0.059558001	0.064307579	0.062931289	0.652270834	0.651757829	0.651339581
0.087793488	0.867193841	0.865614626	0.619772977	0.159696925	0.162299426
0.071006915	0.064932096	0.085566743	0.669982025	0.670752284	0.67189383
0.876221906	0.883510335	0.054274685	0.171070846	0.175603614	0.690522883
0.868784884	0.084210935	0.075943095	0.162663134	0.673010715	0.661650398
0.448138722	0.435898197	0.877396132	0.575801972	0.542872463	0.17055938
0.868416969	0.865842841	0.077347997	0.160161127	0.161554063	0.62311574
0.877350415	0.45913658	0.422114941	0.170400284	0.590590633	0.554770792
0.133705516	0.862500387	0.843892719	0.567797095	0.155233597	0.148203448
0.429783576	0.877827569	0.459685796	0.52439464	0.170706273	0.559898149
0.130661606	0.110883819	0.154053395	0.61564609	0.614180855	0.614979927
0.841668423	0.113695133	0.10046124	0.135162347	0.625864511	0.600922545
0.473789794	0.404413411	0.878090815	0.625968597	0.586141058	0.170545151
0.434940445	0.877527436	0.454865946	0.574536723	0.170565397	0.607935303
0.039756158	0.046607029	0.073634313	0.677127415	0.6766654	0.677413544
0.862182585	0.842450246	0.133726363	0.154837497	0.147608016	0.567665166
0.856009285	0.068858579	0.071803538	0.148900178	0.649699891	0.629097517
0.877300039	0.440335345	0.444060103	0.170515285	0.608046285	0.577727365
0.124785399	0.103089685	0.841851327	0.623995425	0.598659617	0.135250218
0.855395216	0.102837709	0.07908739	0.149281908	0.64348463	0.623550453
0.86399134	0.857206068	0.130369097	0.155113578	0.156864751	0.586500148
0.841876424	0.092729121	0.099618423	0.134789195	0.629677501	0.604353027
0.480589397	0.401282167	0.877189698	0.590015369	0.548038182	0.170186795
0.846057393	0.846988406	0.846543245	0.256715425	0.257040294	0.257106579
0.883773629	0.040848342	0.876070641	0.175759937	0.692878444	0.170695348
0.855777836	0.123106214	0.863950312	0.15568956	0.588332343	0.154951388
0.073277915	0.854734376	0.071565422	0.629452101	0.148702351	0.649603747
0.476220977	0.412949017	0.877342227	0.610630013	0.570861359	0.170535795
0.131832405	0.826030743	0.149807779	0.575853057	0.118988995	0.604167709
0.465962267	0.42450213	0.877291887	0.608178224	0.571548797	0.170550487
0.09971918	0.081218406	0.869183776	0.669073937	0.657146547	0.162697835
0.137166204	0.861272118	0.843051715	0.566311969	0.153908165	0.148639527
0.107737688	0.865294588	0.85498008	0.593979806	0.157003849	0.154819011
0.469736727	0.411570712	0.877226988	0.590576907	0.551721148	0.170398283
0.877513858	0.473499379	0.404126057	0.170606284	0.625762547	0.586066349
0.476001329	0.413045819	0.877331851	0.610494006	0.570844082	0.170525266
0.091298553	0.07818162	0.869116791	0.66847052	0.65712232	0.162633126
0.07600848	0.870911865	0.875366854	0.650525492	0.164461855	0.168897648
0.083432609	0.102229979	0.841795416	0.631248562	0.605940346	0.134729936
0.825542905	0.136473971	0.126954056	0.11882889	0.603593975	0.576051173
0.055364442	0.871726966	0.874318263	0.65487084	0.164533616	0.168365134
0.076000418	0.871279505	0.874158417	0.650503422	0.164352039	0.168719033
0.09260181	0.080384301	0.869087254	0.667813843	0.65685588	0.162719133
0.147452595	0.858925046	0.845833249	0.562866331	0.152543791	0.150372134
0.079682936	0.868940225	0.093685565	0.659282627	0.162668209	0.670391071
0.141629153	0.129583754	0.825076041	0.605399457	0.577664182	0.118678364
0.113770347	0.100097151	0.842088235	0.625867203	0.600735176	0.135111609
0.047132604	0.871572557	0.873881426	0.656830089	0.164563567	0.16777992
0.05857468	0.03832076	0.077104473	0.679666295	0.6790552	0.680257803
0.069781997	0.051828138	0.082568924	0.673092477	0.672536612	0.674035521
0.844350234	0.133688085	0.86202714	0.14889481	0.567759731	0.15567224
0.877288264	0.448111597	0.43578477	0.170599088	0.575684237	0.542819226
0.469857443	0.415753988	0.877399107	0.575417485	0.536267544	0.170590942
0.868797518	0.07686374	0.080163276	0.162573623	0.676074454	0.664428014
0.85860462	0.844501572	0.147568699	0.152660755	0.150289453	0.562812763
0.08196077	0.304654417	0.289147021	0.61981537	0.618087232	0.617490241
0.044523638	0.049751522	0.051699985	0.658261409	0.658946407	0.658625707
0.130418171	0.864290354	0.858208407	0.586507341	0.155185896	0.157332446
0.133713829	0.861697246	0.843704649	0.567836989	0.15521622	0.148204329
0.869049418	0.082993414	0.075014635	0.162588207	0.673503527	0.659791915
0.074185811	0.855254623	0.081950313	0.628157288	0.149405212	0.647951409
0.444308817	0.876945157	0.438255269	0.561716981	0.170231867	0.591254456
0.329098804	0.825968736	0.319381878	0.586662716	0.118664882	0.61317087
0.054277288	0.875875277	0.883516564	0.69054755	0.170905796	0.175406889
0.877250607	0.877743661	0.876528911	0.170308369	0.17075711	0.170304139
0.448779005	0.439595159	0.877444614	0.559703756	0.527847784	0.170592988
0.425644612	0.877426657	0.459187072	0.539404163	0.170557097	0.57545929
0.435972435	0.877384221	0.448075729	0.542752309	0.170567281	0.575645577
0.082955215	0.869010886	0.084654303	0.661011377	0.162554243	0.672965071
0.221155598	0.218469254	0.825321879	0.607312516	0.582741168	0.118850778
0.130423443	0.863570816	0.857470669	0.586292123	0.155126406	0.157419229
0.098367383	0.129341426	0.167846102	0.616843176	0.620003231	0.617139947
0.060051972	0.060042103	0.059947319	0.63983784	0.640159134	0.639940177
0.876499093	0.883888214	0.040854767	0.170540892	0.175861064	0.693052863
0.045215461	0.871801653	0.87506685	0.659053892	0.165337091	0.168339886
0.092030348	0.079331767	0.86940286	0.668124171	0.657099906	0.162656384
0.867039809	0.104039283	0.866485181	0.1627144	0.615244729	0.159000494
0.877340431	0.459021182	0.425557138	0.170587842	0.575697929	0.539647603
0.074919928	0.856339619	0.091350951	0.625679482	0.149856129	0.645920446
0.446383594	0.877441906	0.437124027	0.546081145	0.170606787	0.575759269
0.877441862	0.439888206	0.444801606	0.170640103	0.609805809	0.579408717
0.069965072	0.065227525	0.084737717	0.670271164	0.671108607	0.672809745
0.070250316	0.065335991	0.085283082	0.67032311	0.671127188	0.672744308
0.056363228	0.044629423	0.074810029	0.67535576	0.674691352	0.675877017
0.054598012	0.054234482	0.882004192	0.689922841	0.690717105	0.175350613
0.153945827	0.859873488	0.846902658	0.560828023	0.152715533	0.151816878
0.42552945	0.877217824	0.459083788	0.539481818	0.17053224	0.575563856
0.079606403	0.071522694	0.85570894	0.647819988	0.627756939	0.149023734
0.846903661	0.153955092	0.858743154	0.150895913	0.560890511	0.151575874
0.054340047	0.881695877	0.054628738	0.690541582	0.175423645	0.690224968
0.867347156	0.864616682	0.077279688	0.160029663	0.161201866	0.62306644
0.081811287	0.867115814	0.866220025	0.621086603	0.159840407	0.161954101
0.090603212	0.076194775	0.868917698	0.66873395	0.65930257	0.162593268
0.059629592	0.063958612	0.062285351	0.652105127	0.651789379	0.652090338
0.864067084	0.856475319	0.116634353	0.155684159	0.155685857	0.590331317
0.865792998	0.081511298	0.867563194	0.161455809	0.621168463	0.15960499
0.438978909	0.877988404	0.438983627	0.596362533	0.17074435	0.626495461
0.442621892	0.447913028	0.877363002	0.608120955	0.577535822	0.170587656
0.275882804	0.283460314	0.826122629	0.612479146	0.581252606	0.118734366
0.857564299	0.12306368	0.864688116	0.156431344	0.588490689	0.155622093
0.882119267	0.00000484	0.00000488	0.175442695	0.6993392	0.699232917
0.099774381	0.081088896	0.868986703	0.668201946	0.657598197	0.162605374
0.821344424	0.823442956	0.820410802	0.297959725	0.298724887	0.29832533
0.404249885	0.877783025	0.473643939	0.586218486	0.170855599	0.625905074
0.111434813	0.864369616	0.85593929	0.592097773	0.15607019	0.155252673
0.041341811	0.04101742	0.041542352	0.693283049	0.691751214	0.692637278
0.405914018	0.877343903	0.480604312	0.532755064	0.170554036	0.575083733
0.404339685	0.877941794	0.473714496	0.586235058	0.170758805	0.625861268
0.877269513	0.459110677	0.422075341	0.170353622	0.590768046	0.554955171
0.041537451	0.04112801	0.042156472	0.69299782	0.692527149	0.692514853
0.825536352	0.147893485	0.131350934	0.119092044	0.604684608	0.57529227
0.877831947	0.470400591	0.419938157	0.170808123	0.559675093	0.520998073
0.410292582	0.877802816	0.481029832	0.517505776	0.170836688	0.559493368
0.882536019	0.0000055	0.87544683	0.174545923	0.699341245	0.170162233
0.060014879	0.060018585	0.059992268	0.639420476	0.640104153	0.639919494
0.424375999	0.877404699	0.465144319	0.573180072	0.170546342	0.609863653
0.437866014	0.445369188	0.877665453	0.592910827	0.56274969	0.170443753
0.131303934	0.309184771	0.209108053	0.621467044	0.623387886	0.622771517
0.153945505	0.859904637	0.846891571	0.560828042	0.15271744	0.151819179
0.419907512	0.877657608	0.470267453	0.520888293	0.170598483	0.559678722
0.826601195	0.263066958	0.284334552	0.11873324	0.611526435	0.584125909
0.442910726	0.44847535	0.877360753	0.606545965	0.576647608	0.170597023
0.882567394	0.054513614	0.054254404	0.175443427	0.690244023	0.690200337
0.865459392	0.081466073	0.867177041	0.161407667	0.621394483	0.159307124
0.140168924	0.130775849	0.824636354	0.604614078	0.577537625	0.118823475
0.10025951	0.841780737	0.113882839	0.600498734	0.135105229	0.625584301
0.438983681	0.877998183	0.438988383	0.596296135	0.171010663	0.626648207
0.884423191	0.02732423	0.87466762	0.175456106	0.695195607	0.170175746
0.87734655	0.484733921	0.392863258	0.170587684	0.625306003	0.582581708
0.883222958	0.013707005	0.875207623	0.175001263	0.697350922	0.170417239
0.054681601	0.055038337	0.05485122	0.690193812	0.690219303	0.690252389
0.087803498	0.866943673	0.86651656	0.619444137	0.159546018	0.162502204
0.877269953	0.448692742	0.43947786	0.170505243	0.559758688	0.527727631
0.87486384	0.047189587	0.871949015	0.168508261	0.65690982	0.164873727
0.01391812	0.014138922	0.013751575	0.697427227	0.696858401	0.696410515
0.040853959	0.87537094	0.883597318	0.693044479	0.16999385	0.175275247
0.067071093	0.079031109	0.85457593	0.653236826	0.633472362	0.148734199
0.855318213	0.111433482	0.864479449	0.154802691	0.592241377	0.155726696
0.124966714	0.103567088	0.841672299	0.623367152	0.598333877	0.135146513
0.825585989	0.147996535	0.131589397	0.119049975	0.604688969	0.575283539
0.485145445	0.393296415	0.878189577	0.625206908	0.582612723	0.170668354
0.446336374	0.877340302	0.43707041	0.546068107	0.170592676	0.575723511
0.113778719	0.100118764	0.841988517	0.625815358	0.600793103	0.135205329
0.877328678	0.448115528	0.435816445	0.17058747	0.575669447	0.542788446
0.825915012	0.282851351	0.293250692	0.11850711	0.609705607	0.582759677
0.432805135	0.877708628	0.448109835	0.558283658	0.170828069	0.591380522
0.066753576	0.079552907	0.853902788	0.652904891	0.633293121	0.148804975
0.882425252	0.013703006	0.876157718	0.175555076	0.697167053	0.171119284
0.059996306	0.060035953	0.059987349	0.639895904	0.640179054	0.639784089
0.091247906	0.077966219	0.868859308	0.667979843	0.65735837	0.162570109
0.082525948	0.868917279	0.083772247	0.663402536	0.162488498	0.67721672
0.881397606	0.04116679	0.041002864	0.175321573	0.692534167	0.693045406
0.87702242	0.884242922	0.013707363	0.170857467	0.176116704	0.697396633
0.882567368	0.0000055	0.876219167	0.175464359	0.699364311	0.171160532
0.855481413	0.079643322	0.071946297	0.148839352	0.648030446	0.627874553
0.866908452	0.866126138	0.081772926	0.159218073	0.161852115	0.621200976
0.028147766	0.028263029	0.881764108	0.694745622	0.694820269	0.175429109
0.067726137	0.067593651	0.067891284	0.636444624	0.636534853	0.636753529
0.450484094	0.427060903	0.877559444	0.626495832	0.593058097	0.170668448
0.876188625	0.884272857	0.013706784	0.170787138	0.175978267	0.69735764
0.413407406	0.877345939	0.475749022	0.567660015	0.170619524	0.606696919
0.133741811	0.861970795	0.844100792	0.567779383	0.1548251	0.147841179
0.080246145	0.869031244	0.09272257	0.658381596	0.162579441	0.670087347
0.855422101	0.10288759	0.078937487	0.149336275	0.643363551	0.623535009
0.079723109	0.082862973	0.868931208	0.679048094	0.666127113	0.162493301
0.864466148	0.856050856	0.11665108	0.155496841	0.155516367	0.590339773
0.486943305	0.401482946	0.877439201	0.607476491	0.564338067	0.170540246
0.446097612	0.877381345	0.444025113	0.577169601	0.170573164	0.608107591
0.401605869	0.877595524	0.480732639	0.548225892	0.170460674	0.589948655
0.825611667	0.823039967	0.825940404	0.29848341	0.298554522	0.297857329
0.439642987	0.877454625	0.448729601	0.527519141	0.17069142	0.559905012
0.449152934	0.440047455	0.878281137	0.559786052	0.527744281	0.170654027
0.875779576	0.882692498	0.040862138	0.170358071	0.17488226	0.693168731
0.141861727	0.861066676	0.844217751	0.564511369	0.154145973	0.150041735
0.882386209	0.0000055	0.874470336	0.174964059	0.699348697	0.169963503
0.877562869	0.462079288	0.415510378	0.17055272	0.626145147	0.589801824
0.877346496	0.484733874	0.392863254	0.170587662	0.625306055	0.582581559
0.865104683	0.855654533	0.116592139	0.156009462	0.155969162	0.590388683
0.462529517	0.415963173	0.878465611	0.626170873	0.589750359	0.170593419
0.822099522	0.823640974	0.824117859	0.298866092	0.298684732	0.298735078
0.86662553	0.866247427	0.088275889	0.159424893	0.162020498	0.619627706
0.43892863	0.438923876	0.87787891	0.626636232	0.596324702	0.170708235
0.47027627	0.419791875	0.877553505	0.559657598	0.520991503	0.170611188
0.876870447	0.87757503	0.877516304	0.170687161	0.170696653	0.170569343
0.138782852	0.132615494	0.824582146	0.605234913	0.577666601	0.118789683
0.425685029	0.877336521	0.45908443	0.539468239	0.170511522	0.575580437
0.086029304	0.868913901	0.082771442	0.665083011	0.162502438	0.677431311
0.00000278	0.00000285	0.00000281	0.699182496	0.699031889	0.699471384
0.874279734	0.873505552	0.875410937	0.188779353	0.188755598	0.188978293
0.862532407	0.863230664	0.862748183	0.218382595	0.218895542	0.219367573
0.073127437	0.855662495	0.082521491	0.627731744	0.14938634	0.647604201
0.871849493	0.87535271	0.075949101	0.164607336	0.169228482	0.650423618
0.056255972	0.044928607	0.075258604	0.674775378	0.674779326	0.675521066
0.00000278	0.00000292	0.00000283	0.699257245	0.699342765	0.699525499
0.103525825	0.841472423	0.125045083	0.598587552	0.135291509	0.623417055
0.448032628	0.432754268	0.87763779	0.590949939	0.558460468	0.170273186
0.877514993	0.464066272	0.486591043	0.170625942	0.560107706	0.531980302
0.082542192	0.080112364	0.868799513	0.675436723	0.663840476	0.162581604
0.869099566	0.082735377	0.074830703	0.162563502	0.672970016	0.659560877
0.13720981	0.860360122	0.844431703	0.566359316	0.154129032	0.148926478
0.427079987	0.877599733	0.450505041	0.59309509	0.170699876	0.62649791
0.877578445	0.480932229	0.410171566	0.17090202	0.559588569	0.517362014
0.014479462	0.014293337	0.882590256	0.697397322	0.696883652	0.17536922
0.081944156	0.856056723	0.068188861	0.631862643	0.149028581	0.652788315
0.073884482	0.855516863	0.082541335	0.627631339	0.149283726	0.647674876
0.880626683	0.054618188	0.054199028	0.174972379	0.689943007	0.690733166
0.432532156	0.877499595	0.448216836	0.558111771	0.170565665	0.590821593
0.014121777	0.881259151	0.014288023	0.697203872	0.175496053	0.697342339
0.401608097	0.877520912	0.480681159	0.548212662	0.170402663	0.589926642
0.447732116	0.432442011	0.877022991	0.590813386	0.558337631	0.17011452
0.439141131	0.878312662	0.43914588	0.596470551	0.170646591	0.626473897
0.842960353	0.133786794	0.861379451	0.147640284	0.567783727	0.154605027
0.871100404	0.874544429	0.075957265	0.164406533	0.168139554	0.650371371
0.844355672	0.141812333	0.859769726	0.149682097	0.56457471	0.153643608
0.054255687	0.881603973	0.054650879	0.69049921	0.175341909	0.689979951
0.872473588	0.87553884	0.055323659	0.165280958	0.169118951	0.655019067
0.875081097	0.076016555	0.87114879	0.168844074	0.65049906	0.164516289
0.877208571	0.46208198	0.421028831	0.170610153	0.609239054	0.572603004
0.861084548	0.844917648	0.14175129	0.153878012	0.149840735	0.564540582
0.054484216	0.055091488	0.054923711	0.690377767	0.69025099	0.690886168
0.133796519	0.86083097	0.84247083	0.567780492	0.154746298	0.147818799
0.465790169	0.424529327	0.877381596	0.608844983	0.572194685	0.170604627
0.874021273	0.065225755	0.871077118	0.168689894	0.652763831	0.164289694
0.57298075	0.877189204	0.544065325	0.537890168	0.170400551	0.564651621
0.07930193	0.082251714	0.86879505	0.677775046	0.665504599	0.162591371
0.876691325	0.883768606	0.013706442	0.17109579	0.175734455	0.697304713
0.872401461	0.875152809	0.075939334	0.165177259	0.168969024	0.650402943
0.856075017	0.111457666	0.864664749	0.155653538	0.592150092	0.156742903
0.846874537	0.153959616	0.859224066	0.151446239	0.560878131	0.152081397
0.04712423	0.870681988	0.873300642	0.656923406	0.164442539	0.168051751
0.855474263	0.123105422	0.862330705	0.155745639	0.588440409	0.154983737
0.102934365	0.099076261	0.841659863	0.627776839	0.602544019	0.135010339
0.876586065	0.883997219	0.013707034	0.170780684	0.17599179	0.697370535
0.445625193	0.87765636	0.438091324	0.562608739	0.170735013	0.592327799
0.877358119	0.459552519	0.429443423	0.170810649	0.559771299	0.524513251
0.877335171	0.884083697	0.0000055	0.171424957	0.175592277	0.699293984
0.863255915	0.845946699	0.137243752	0.154394316	0.149113447	0.566229204
0.411844594	0.878020427	0.470252792	0.551627531	0.170494707	0.590622355
0.85567804	0.068685171	0.072082817	0.148944602	0.650177576	0.629545932
0.874914891	0.051123255	0.872048078	0.168369127	0.659088619	0.165019256
0.346639217	0.826248599	0.332463311	0.582868729	0.118686277	0.610601201
0.111396225	0.86504095	0.855619568	0.592076589	0.156401355	0.155322454
0.286988614	0.826003387	0.29002847	0.585553243	0.119050082	0.61243785
0.866444924	0.865858986	0.088206997	0.159337277	0.16183871	0.619585689
0.822292125	0.823507096	0.824147665	0.298931116	0.298651202	0.298863111
0.459854396	0.429966211	0.878187886	0.559863137	0.524463856	0.170781658
0.854979294	0.111473637	0.864516778	0.155262475	0.592129103	0.156528708
0.447846389	0.432506119	0.877211579	0.591212134	0.558128437	0.17045153
0.86252708	0.843351631	0.133717867	0.155182654	0.147814397	0.567774195
0.868928368	0.090594822	0.076808963	0.162660985	0.671421339	0.659287293
0.450475976	0.427052347	0.877542794	0.626495693	0.593057776	0.170664647
0.861781937	0.862375042	0.863565759	0.218821517	0.21913048	0.219124834
0.861268741	0.845406762	0.141730921	0.153849119	0.149872592	0.564564854
0.10304803	0.841933203	0.12496115	0.598551991	0.135180242	0.623662347
0.825575381	0.823135406	0.824624691	0.299106825	0.298523736	0.298545975
0.405803618	0.877306163	0.480612696	0.532743515	0.170544834	0.575077843
0.083464735	0.299238294	0.277336469	0.620067238	0.61888982	0.618284666
0.137262403	0.862218266	0.845502733	0.566081055	0.154608878	0.149102484
0.099668808	0.841627572	0.092684622	0.604592608	0.134796638	0.629833008
0.875112878	0.055406332	0.871816746	0.168508559	0.654988871	0.164527955
0.415526087	0.877578199	0.462079525	0.589646874	0.170807674	0.62617246
0.137251863	0.862008566	0.845211601	0.566278679	0.154338493	0.149123742
0.348658942	0.825467043	0.342318375	0.585643991	0.11849522	0.612889588
0.877499847	0.462043831	0.415483338	0.170498559	0.626087758	0.589817654
0.872917229	0.875946439	0.047453257	0.165341308	0.169257874	0.657158434
0.133741785	0.862441863	0.844090835	0.567776521	0.155467116	0.148441571
0.87727737	0.484298841	0.399471383	0.170513723	0.608263838	0.565589215
0.070201408	0.071471755	0.073696457	0.649744182	0.650187391	0.650581605
0.450281416	0.426854913	0.877150829	0.626327794	0.593186622	0.170280919
0.425662711	0.877316872	0.459066906	0.539453532	0.170554742	0.575560909
0.878045814	0.462318687	0.415754007	0.170733642	0.626331727	0.58966358
0.868887654	0.075846028	0.078724562	0.162516297	0.676456567	0.664355953
0.095698195	0.866715581	0.866523371	0.617394356	0.159369566	0.162615866
0.841667192	0.113815067	0.10027383	0.135159473	0.625854808	0.60091798
0.82603447	0.221204655	0.221530595	0.118835068	0.611540351	0.582788978
0.039791817	0.046786202	0.073881019	0.676987269	0.676733286	0.677238542
0.867132461	0.865635024	0.081814554	0.159612013	0.161593359	0.620978959
0.081763295	0.867091887	0.866252326	0.621088634	0.15979864	0.161943197
0.104045456	0.866256787	0.866835632	0.615707073	0.159200651	0.162838665
0.092841387	0.09969158	0.841668777	0.629415753	0.604429388	0.134934252
0.865906873	0.08150053	0.867331812	0.161524513	0.621288325	0.159590795
0.082325805	0.868934569	0.08363599	0.663491997	0.16249027	0.677196031
0.143090008	0.82609926	0.148968803	0.576203592	0.119266616	0.60565886
0.856203842	0.111457525	0.86477151	0.155763677	0.592156074	0.156764563
0.437098214	0.446326998	0.877356009	0.575731791	0.546016493	0.170610027
0.864172609	0.854730189	0.107708245	0.156251313	0.154274405	0.593744868
0.876137293	0.882892707	0.0000055	0.170515618	0.17523375	0.699240329
0.841876378	0.092717409	0.099656018	0.134791596	0.629621327	0.604383098
0.059403382	0.064451201	0.063373428	0.652182578	0.651885082	0.651939285
0.877505021	0.473495282	0.404121256	0.17060531	0.62576246	0.586066299
0.825607627	0.149149235	0.133717683	0.118979804	0.60466462	0.575548692
0.147000712	0.133304367	0.825929166	0.601531319	0.571766977	0.119472408
0.070109059	0.065339933	0.085409565	0.670333801	0.67079902	0.671938912
0.82330697	0.823998982	0.825527866	0.299058022	0.298588745	0.298601859
0.014151338	0.014297307	0.881229558	0.697312763	0.697525041	0.175209608
0.099616943	0.841780395	0.092671937	0.604307946	0.134898802	0.629744074
0.447821476	0.432529614	0.877210981	0.590782845	0.558449592	0.170226687
0.091801779	0.074428894	0.856554236	0.645545571	0.625842728	0.149390839
0.861570055	0.84370497	0.137207088	0.15450381	0.148851467	0.566215457
0.855443323	0.079658782	0.071887971	0.149191452	0.647839357	0.627905342
0.861429831	0.843301183	0.137255334	0.154630648	0.148949271	0.566105195
0.487282888	0.401273221	0.87745908	0.608964347	0.56559912	0.170503226
0.103148157	0.099175961	0.841597794	0.627693593	0.602524694	0.135012956
0.092769461	0.099695703	0.841501137	0.629556156	0.604446892	0.134917686
0.103016533	0.078884482	0.855951776	0.643235771	0.623615006	0.149657917
0.877411489	0.450725742	0.432460768	0.17057503	0.609785395	0.576354136
0.415384273	0.877315113	0.461957889	0.589909541	0.170675363	0.626083946
0.438302762	0.444410172	0.877399489	0.592759708	0.563197243	0.1704563
0.080457268	0.854819487	0.104250698	0.623464901	0.149304335	0.643145023
0.877393459	0.473480119	0.410444904	0.170535479	0.609314761	0.569432085
0.027929465	0.027519225	0.027920346	0.694863268	0.694621758	0.695734868
0.873357406	0.05536793	0.870847857	0.168351499	0.654928561	0.164357523
0.877298446	0.437044576	0.44632199	0.170588359	0.575706497	0.546060865
0.446337372	0.877313988	0.437043894	0.54606511	0.170585843	0.575720146
0.882119474	0.040851153	0.874253187	0.17513015	0.692956828	0.170339746
0.8691385	0.089537674	0.076210752	0.162672298	0.671787994	0.659759315
0.074756672	0.85628055	0.091404972	0.625649045	0.149807072	0.645911396
0.070221715	0.064860568	0.08496879	0.670305148	0.670685265	0.67188892
0.86650072	0.095543687	0.867537704	0.162316189	0.61720788	0.159372463
0.028074675	0.028085891	0.881415309	0.694775837	0.695288714	0.174876971
0.8854557	0.027326539	0.877648945	0.17574681	0.695200352	0.171301593
0.014414148	0.880929185	0.01449996	0.697342537	0.17524671	0.697222547
0.403042234	0.877366505	0.485671187	0.5648901	0.170492627	0.607593946
0.877504165	0.438741558	0.43873683	0.170531462	0.626506027	0.596448272
0.859975697	0.844578717	0.141759833	0.152991292	0.14932181	0.564556009
0.027775165	0.027572605	0.881259521	0.694991498	0.695682342	0.175198816
0.102879813	0.841872897	0.124958411	0.598614619	0.135140664	0.623574857
0.301317437	0.825710981	0.290030952	0.585147983	0.118896522	0.614976022
0.438177401	0.444467716	0.877426982	0.592767366	0.563235141	0.170345827
0.823425387	0.823828255	0.825021914	0.298096935	0.298808988	0.29888766
0.438847375	0.877725799	0.438852094	0.596444115	0.170602453	0.626578473
0.075979112	0.871526034	0.874486562	0.650536195	0.164489567	0.168492929
0.448791346	0.439650463	0.877511726	0.559821769	0.527498511	0.17068683
0.099216127	0.841980825	0.103011542	0.602334659	0.134894438	0.627749867
0.413898371	0.87739452	0.475682394	0.566035987	0.170676302	0.605484133
0.079486944	0.082698568	0.868920011	0.679185265	0.666235493	0.162497611
0.86592703	0.077118097	0.867707948	0.161083389	0.623136384	0.159881938
0.067269287	0.079919327	0.854764321	0.652480436	0.632466688	0.148667076
0.473640639	0.404257667	0.877786414	0.625960402	0.586155998	0.17057342
0.846489541	0.153917189	0.859592858	0.151259301	0.560796546	0.152203099
0.866765764	0.866001418	0.088406367	0.15944099	0.162018961	0.619132833
0.841655328	0.113711317	0.100254415	0.135120579	0.625609938	0.600474375
0.841803712	0.092711212	0.099672222	0.134797563	0.629627809	0.604347499
0.843404739	0.13376501	0.862214611	0.147766604	0.567796129	0.154921608
0.051879911	0.053595466	0.058201557	0.653973092	0.654132285	0.654155655
0.419618234	0.877406266	0.4702906	0.521050262	0.170648274	0.559652354
0.84443436	0.137216074	0.861640396	0.149053515	0.566355397	0.154510443
0.877477362	0.440194429	0.444392679	0.170617484	0.60931086	0.578736146
0.079447379	0.869056924	0.093379547	0.658333268	0.162576127	0.67022266
0.855696611	0.079540452	0.071821356	0.148886976	0.647901887	0.627587568
0.027633782	0.881820935	0.027713524	0.695245638	0.175354094	0.695146327
0.869123839	0.090386086	0.076254122	0.162665655	0.671975829	0.659818946
0.10220716	0.84169832	0.083479523	0.606034629	0.134769419	0.630902768
0.82270098	0.823459946	0.822320444	0.298028006	0.298827048	0.299010163
0.065209874	0.871682903	0.875367538	0.652775974	0.164427337	0.168663477
0.86074134	0.845104183	0.147538343	0.152692141	0.150258653	0.562814229
0.429389624	0.877078601	0.459339337	0.524463546	0.170537359	0.559721735
0.254392081	0.237296464	0.826493446	0.6073767	0.581947244	0.118974093
0.869076406	0.097876683	0.080816357	0.162758564	0.667379637	0.654084752
0.883726518	0.0000055	0.875875467	0.175560953	0.699396478	0.170686406
0.877454152	0.450685363	0.432348424	0.1705646	0.609616146	0.576239025
0.877648155	0.471746167	0.476991734	0.170694904	0.561152675	0.532409317
0.449159977	0.43995482	0.878197458	0.559820379	0.527678706	0.17064197
0.884198179	0.040848801	0.876708997	0.175077446	0.692873798	0.171085463
0.869127637	0.090572609	0.076128607	0.162669974	0.671824061	0.659773188
0.439722324	0.877690673	0.448882051	0.527476358	0.170749719	0.559888255
0.05903098	0.038589845	0.07777767	0.679812229	0.679048485	0.680100046
