Va	Vb	Vc	Ia	Ib	Ic
0.826464583	0.22268772	0.227336486	0.118791824	0.608824513	0.582131544
0.124545016	0.103328193	0.8419559	0.623860748	0.598647254	0.13524153
0.877875452	0.877147711	0.877120013	0.171132406	0.17054348	0.170693323
0.054604175	0.054201788	0.882752577	0.690291797	0.690597403	0.175663455
0.080476872	0.855837392	0.104117743	0.623686994	0.149349497	0.643455677
0.866485748	0.095157982	0.867273064	0.162281105	0.61757517	0.159479545
0.868862839	0.081581597	0.078115094	0.16261271	0.673402169	0.661726169
0.866306625	0.087739832	0.867581175	0.162139099	0.619314664	0.159691376
0.876739942	0.883348872	0.040853969	0.170869119	0.175573763	0.693026419
0.079529823	0.869034007	0.092583148	0.658361402	0.162595929	0.67002394
0.100237234	0.082720793	0.868947172	0.667178133	0.656422909	0.162684645
0.027478906	0.881384353	0.027641739	0.695132629	0.175026817	0.694701072
0.485131911	0.393277198	0.878157967	0.625277998	0.5825091	0.170578525
0.866567318	0.095619229	0.867224848	0.162532108	0.617296021	0.159513134
0.410268799	0.877898252	0.481133454	0.517528435	0.170693832	0.559440602
0.856645466	0.116694643	0.864643742	0.1558826	0.590387663	0.155945195
0.415562009	0.877660713	0.462125737	0.589695475	0.170692193	0.626230738
0.06249653	0.062483639	0.062494324	0.638290814	0.63848318	0.638504553
0.014308853	0.881692502	0.014567974	0.6974471	0.175449735	0.69705863
0.402721352	0.877396976	0.48553943	0.564830621	0.170556663	0.60752716
0.87729713	0.458962975	0.425576793	0.170589992	0.575633763	0.539621648
0.104167339	0.866820277	0.867014669	0.61537515	0.159283839	0.162931116
0.141784357	0.860047753	0.845752726	0.564454501	0.154106451	0.150330372
0.877360242	0.469834098	0.415493759	0.170559526	0.575406987	0.536132165
0.130430647	0.863400914	0.856864861	0.586619369	0.155234458	0.157329426
0.480699438	0.401351154	0.877375932	0.590161432	0.548029354	0.170482388
0.099341091	0.841852084	0.103067115	0.602322609	0.134898653	0.627672111
0.873542383	0.873675388	0.874955218	0.188989221	0.188816692	0.189837464
0.841453671	0.102866943	0.099160243	0.13497668	0.627833667	0.602816873
0.878202816	0.877126029	0.877594415	0.170762022	0.170676393	0.170705867
0.877415756	0.483569734	0.400427161	0.170588474	0.608638935	0.566075794
0.419866905	0.877619906	0.470268853	0.520890489	0.170640654	0.559682826
0.87132078	0.874512011	0.065183551	0.16479039	0.168488706	0.652867871
0.845768874	0.147465028	0.859374114	0.150148756	0.562650445	0.152551345
0.875316954	0.047264404	0.87195948	0.168500073	0.65686585	0.164841804
0.075995071	0.871645695	0.875057478	0.65047568	0.164415609	0.168871898
0.825179273	0.823154524	0.823905434	0.298329544	0.298480087	0.297319835
0.877406277	0.483948703	0.399935048	0.170545822	0.608546608	0.565953324
0.878102412	0.481142819	0.410483814	0.170945878	0.559595626	0.517381737
0.141790679	0.860863078	0.845930753	0.564468321	0.154224553	0.150491455
0.438710503	0.438705783	0.877442552	0.626592624	0.596363994	0.170445265
0.823217271	0.824035541	0.826089668	0.298361167	0.298729222	0.298664153
0.041020736	0.882103269	0.041660641	0.692787605	0.175731061	0.692046115
0.062503309	0.0624727	0.062440471	0.638275122	0.638271718	0.638498646
0.081751404	0.85605022	0.068754354	0.633404857	0.149141955	0.654451817
0.869076247	0.076613597	0.080193371	0.162540178	0.676625644	0.664496633
0.455044231	0.43587842	0.877394081	0.611013838	0.577443124	0.170591149
0.041640143	0.040934091	0.041503968	0.693029333	0.69216171	0.693488756
0.877494772	0.480498523	0.405826052	0.170558602	0.575141052	0.532792823
0.863382609	0.857023513	0.130361684	0.155156233	0.156919047	0.586527173
0.877584587	0.462086331	0.415525449	0.170709591	0.626244384	0.589614119
0.051621249	0.053699486	0.057871078	0.653855113	0.653913042	0.653985324
0.072993422	0.854059642	0.07094473	0.629524926	0.148978412	0.649039066
0.107653938	0.864679863	0.85444196	0.593702042	0.156733565	0.154439437
0.404183528	0.877645711	0.473573237	0.586220301	0.17079823	0.625867236
0.855656223	0.107509475	0.86570513	0.155246188	0.593666188	0.157111405
0.078917335	0.868965024	0.088504421	0.66354936	0.162638904	0.67252928
0.446310725	0.877307294	0.437062013	0.546064196	0.170539007	0.575736576
0.824942114	0.823041721	0.825051428	0.298555026	0.298586239	0.298173552
0.079295025	0.869039625	0.092584037	0.658390801	0.162592142	0.670012629
0.455000589	0.435903929	0.877408046	0.611038697	0.57742077	0.170585814
0.027501058	0.881946612	0.027831461	0.694942476	0.175096195	0.695167787
0.826590483	0.263073307	0.284365065	0.118733818	0.611444419	0.584093118
0.124763575	0.103131938	0.841933077	0.623670264	0.598599677	0.135234691
0.873085185	0.874423959	0.875442525	0.188883691	0.188818897	0.189782117
0.877342772	0.459458278	0.429525223	0.170404752	0.559795313	0.524420782
0.43944925	0.877029295	0.448505691	0.527611748	0.17068807	0.559763577
0.871137138	0.874540057	0.075957249	0.16439527	0.168132417	0.650383845
0.410293442	0.877934666	0.481150624	0.517573956	0.170520448	0.559340793
0.855464226	0.102837547	0.07901869	0.149283272	0.643599516	0.623398974
0.458961954	0.421939249	0.877347099	0.590704936	0.55505132	0.170347135
0.081686473	0.867335528	0.866493445	0.621385916	0.159727607	0.161714801
0.10415547	0.866733228	0.867016787	0.615376917	0.159271455	0.162902363
0.45969455	0.429640826	0.877697316	0.559820342	0.524434075	0.170788331
0.415541153	0.87735597	0.469984295	0.536126448	0.170520104	0.575448659
0.876458323	0.883094782	0.013706466	0.170457193	0.17538605	0.69730299
0.841665746	0.113708433	0.100422764	0.135053028	0.625834365	0.600461556
0.883721492	0.0000055	0.87581003	0.175561378	0.699396969	0.170684412
0.876133455	0.882108561	0.040859572	0.170670374	0.175222729	0.693098447
0.10221271	0.841624306	0.083451858	0.606188083	0.134766802	0.631217351
0.461685564	0.415115927	0.876774566	0.626379475	0.589662808	0.170460255
0.854769177	0.079531856	0.071880155	0.148910118	0.647627659	0.627594623
0.473358529	0.403962104	0.877209514	0.625712269	0.586322743	0.170557204
0.041166408	0.040890726	0.881237559	0.692367429	0.693106458	0.175190698
0.865324446	0.081474356	0.867613832	0.161496155	0.621237916	0.159847865
0.484734896	0.39287557	0.877359305	0.625283836	0.582533605	0.170574933
0.877871153	0.459774965	0.429730094	0.170808277	0.559762472	0.524496441
0.572475918	0.877083833	0.543803391	0.538676526	0.170408113	0.566048365
0.458996792	0.421943591	0.877382961	0.59077232	0.555087852	0.170402141
0.080275926	0.869101972	0.093373039	0.659107042	0.162719761	0.670468592
0.422108199	0.87745482	0.458969809	0.555311087	0.170429817	0.591147602
0.860124427	0.845255442	0.147559967	0.152639263	0.150228919	0.562831839
0.877223489	0.473674293	0.409956246	0.170520388	0.609084819	0.569268886
0.87161753	0.874225434	0.047122069	0.164819261	0.16823306	0.656993488
0.823789859	0.823900778	0.82585392	0.299009021	0.29859129	0.298585294
0.027346021	0.881724516	0.027626241	0.695125106	0.175285384	0.695097076
0.0000049	0.00000481	0.881725396	0.699296215	0.69912201	0.175389388
0.056743038	0.045027655	0.075546598	0.675638001	0.674634477	0.676005428
0.866146448	0.087676557	0.866418056	0.161616289	0.619380614	0.159007536
0.877340135	0.448149989	0.432655272	0.170415153	0.590736658	0.557806097
0.405618579	0.877293798	0.480765866	0.532765094	0.170551703	0.575088595
0.866508265	0.865428092	0.087951072	0.159185297	0.161919337	0.619525965
0.872488309	0.874815219	0.0651805	0.1647882	0.16850803	0.652862791
0.883197906	0.040849159	0.876401798	0.175057089	0.692882339	0.171000448
0.841436134	0.102896079	0.099013366	0.135000019	0.627589476	0.602478547
0.869053289	0.090429902	0.076166466	0.162669929	0.672129959	0.659822815
0.877186097	0.438582601	0.43857791	0.170347312	0.626406325	0.596491806
0.00000549	0.875429758	0.885001049	0.699351765	0.17044648	0.175892426
0.873533483	0.055386072	0.871562909	0.168610184	0.654831574	0.164646928
0.100029568	0.081403206	0.86885785	0.667825333	0.657410355	0.162606393
0.877353618	0.437189209	0.444244199	0.170342178	0.591470684	0.561971127
0.877614723	0.448790104	0.439740578	0.170716335	0.559966084	0.527629463
0.88242913	0.054273556	0.875649009	0.174931841	0.690495254	0.170554291
0.8719524	0.874613288	0.075954305	0.164386614	0.16809368	0.650415088
0.870851965	0.873904362	0.055342685	0.164416742	0.168097854	0.654883658
0.866498281	0.86570274	0.104028881	0.159284554	0.162486238	0.615224429
0.876665393	0.877515319	0.877537459	0.170621277	0.170796435	0.170976413
0.087726357	0.867132554	0.8666693	0.619513872	0.15955387	0.162427587
0.058757348	0.038955412	0.077927914	0.679416105	0.679059201	0.679882648
0.435959453	0.877434751	0.448148901	0.542696971	0.170633069	0.575585635
0.410280522	0.877813845	0.481051351	0.517510998	0.170890089	0.559492916
0.877776348	0.877351644	0.878757943	0.171053113	0.170698838	0.171085355
0.079591959	0.868854663	0.09235214	0.658449239	0.16274	0.670042644
0.0878404	0.867046573	0.865727819	0.619880326	0.159542495	0.162075475
0.877467429	0.441255199	0.44329861	0.170620327	0.609450322	0.578915888
0.054291378	0.881786938	0.054616901	0.690922324	0.175529618	0.690427703
0.10217206	0.841509208	0.083383456	0.605558755	0.13469383	0.630665767
0.867190145	0.866505182	0.09545283	0.159513371	0.162717048	0.617301843
0.875035542	0.055420669	0.871721955	0.168661435	0.655038221	0.164749604
0.823066733	0.823168288	0.822197073	0.298255541	0.298578069	0.297630883
0.047135423	0.87133329	0.873793958	0.656826872	0.164531976	0.167743355
0.087946319	0.866811301	0.866604374	0.61960256	0.159637651	0.161985226
0.484989393	0.393126328	0.877864597	0.625360708	0.582472251	0.170589598
0.448142631	0.435913612	0.877414724	0.575825414	0.542885128	0.17055207
0.055332492	0.872894284	0.874497526	0.654735112	0.165270727	0.168794534
0.8417645	0.092677435	0.099709525	0.134770258	0.62962932	0.604207001
0.825404787	0.137042361	0.130621488	0.11865916	0.605673627	0.576318823
0.124457652	0.113703936	0.14812431	0.616734757	0.614330937	0.615774688
0.056216126	0.044582957	0.074517601	0.675412362	0.674690208	0.675881097
0.823424431	0.823823081	0.825649988	0.298704174	0.298660907	0.298582549
0.847039782	0.153962474	0.858875838	0.151419279	0.560875455	0.152060354
0.045492658	0.048446659	0.0543109	0.655697939	0.65686668	0.656150882
0.139687289	0.131338719	0.825610507	0.60616201	0.577338177	0.118938361
0.42418517	0.877388533	0.465194652	0.573174656	0.170547324	0.609860899
0.401611771	0.877570767	0.480716555	0.548225168	0.170454523	0.589948579
0.877154438	0.437128449	0.444038343	0.170473187	0.591700466	0.562394993
0.013705898	0.876437491	0.883611179	0.69722808	0.170866672	0.175604338
0.152065707	0.139846227	0.096829027	0.618723795	0.617250225	0.615499712
0.045655791	0.047930307	0.053648449	0.655735698	0.656771677	0.656809249
0.855963576	0.068685583	0.071970256	0.149441468	0.649968683	0.629929224
0.419796097	0.877413945	0.470138434	0.520863086	0.170708916	0.559665233
0.877483253	0.473609023	0.410188617	0.170569538	0.609304315	0.569473235
0.877436887	0.4504235	0.426998947	0.1704908	0.62636727	0.593212711
0.825964871	0.192303985	0.201732214	0.118779628	0.612442477	0.581039424
0.86680732	0.10399569	0.866639684	0.162606617	0.615172303	0.159274455
0.00000279	0.000003	0.00000286	0.699145636	0.699058074	0.698478591
0.0775077	0.080866436	0.868973546	0.678273524	0.666091255	0.16253042
0.404224933	0.877710431	0.473597116	0.586191879	0.170703346	0.625716721
0.435915892	0.877325937	0.448013476	0.542860738	0.170622108	0.575863964
0.841796639	0.113736688	0.100192358	0.135155821	0.626209844	0.600819746
0.877670575	0.48489428	0.39302583	0.170735961	0.625186695	0.582604897
0.069920581	0.065299663	0.084738399	0.670332321	0.671125688	0.672744589
0.855798947	0.09129544	0.07418048	0.149394846	0.64514001	0.625804955
0.067652101	0.067579765	0.067824824	0.636398181	0.636318235	0.636711236
0.87249044	0.874428338	0.047314886	0.165816425	0.1686897	0.656809175
0.215247928	0.826644027	0.21323534	0.580070836	0.119050021	0.608218228
0.825750875	0.229932601	0.220507039	0.118826734	0.609826169	0.581853491
0.41559393	0.877722221	0.462155221	0.589659992	0.170819777	0.626209347
0.44541143	0.877495187	0.438137116	0.562995251	0.170554213	0.592671248
0.111439788	0.86416481	0.855652847	0.592119028	0.155839919	0.155071284
0.877323859	0.45914574	0.422079697	0.17037606	0.590835935	0.55495217
0.845419206	0.13722221	0.861577632	0.148895814	0.566278092	0.154322544
0.041182679	0.881850307	0.041625124	0.692977786	0.175166303	0.692884218
0.027303042	0.881673355	0.027661796	0.695335638	0.175104426	0.694420828
0.149296073	0.134393435	0.82556865	0.60389171	0.574883464	0.119381719
0.873027437	0.874237357	0.872943487	0.188326109	0.189297367	0.189256415
0.047136327	0.871922764	0.873979276	0.656858801	0.164673612	0.167944753
0.877669809	0.484894057	0.393025271	0.17073539	0.625188804	0.582605316
0.079388291	0.869072367	0.088834618	0.659616037	0.16263373	0.670831502
0.137256904	0.861463157	0.84496614	0.56632657	0.154354239	0.149238773
0.429577773	0.877536266	0.459601456	0.524475057	0.170526605	0.559717969
0.070193001	0.065500958	0.085556333	0.670388572	0.671073928	0.672732935
0.415561701	0.877660104	0.462125436	0.589695288	0.170692273	0.626230875
0.067649868	0.067654824	0.067901128	0.636240868	0.636319333	0.636643435
0.082704149	0.302884584	0.284014974	0.620148909	0.618497183	0.617746417
0.873968991	0.873603192	0.875255955	0.188787352	0.188943523	0.189307655
0.404029162	0.877327723	0.473410008	0.586150958	0.170887367	0.625888079
0.87386456	0.055342373	0.872342637	0.168026488	0.654888375	0.164502277
0.841728735	0.103014193	0.099025824	0.134992248	0.627677877	0.602610762
0.113834485	0.100127732	0.841762316	0.625860532	0.600530362	0.13502854
0.841649465	0.124956093	0.103829674	0.135300569	0.623293749	0.597963875
0.444592934	0.877366147	0.438547399	0.561811065	0.170409842	0.591289262
0.051986682	0.053495087	0.05844597	0.653750774	0.654189536	0.653551684
0.427142046	0.877724796	0.450567992	0.593090888	0.170826923	0.62644857
0.841673486	0.083351682	0.102201652	0.134842625	0.631020707	0.606204725
0.102216098	0.841595875	0.083423951	0.606125235	0.134711998	0.631431472
0.415479686	0.877494152	0.462041822	0.589832906	0.170514381	0.626053087
0.062502946	0.062484516	0.062449203	0.638340553	0.638374675	0.638512397
0.078955445	0.868952468	0.087793605	0.662307097	0.162634288	0.67141078
0.877278658	0.462414999	0.421020658	0.170576227	0.608620502	0.572150145
0.884126874	0.0000055	0.876322871	0.175490779	0.699359646	0.170889448
0.866112048	0.081552856	0.867574233	0.162009179	0.621669846	0.159834282
0.393168151	0.877951598	0.485034354	0.582666996	0.170794269	0.625227598
0.102943773	0.841848995	0.124952166	0.598620107	0.135237657	0.623615141
0.877342549	0.437071231	0.446338282	0.170588216	0.575737005	0.546083281
0.446312091	0.877307816	0.43706233	0.546054764	0.170557824	0.575726735
0.866906136	0.866381413	0.081762873	0.159597626	0.161951952	0.621078483
0.469865285	0.415739433	0.877393737	0.5754236	0.536261477	0.170586711
0.856166593	0.091328352	0.074068395	0.149241348	0.646015487	0.62574625
0.099382194	0.08062776	0.869008741	0.667435304	0.656997064	0.16256136
0.099745001	0.841586911	0.092764777	0.60434523	0.13483664	0.629685056
0.486692965	0.401556415	0.877406117	0.609850291	0.566533465	0.170499532
0.855969968	0.064403247	0.078318768	0.148969988	0.652873191	0.631698973
0.041167152	0.040878556	0.881203561	0.69236228	0.693153672	0.175227418
0.403188707	0.877357362	0.484969846	0.564744871	0.170557553	0.607410781
0.877723779	0.436927069	0.444792228	0.170621235	0.59188745	0.562597993
0.87760081	0.47399871	0.482811454	0.170713301	0.56186799	0.532168805
0.111409388	0.864315472	0.855837009	0.592182495	0.156332708	0.155540345
0.079358908	0.868910902	0.08858299	0.66432468	0.162659902	0.67418928
0.855747107	0.116682507	0.864218424	0.155555392	0.590232199	0.155823003
0.10767776	0.865262525	0.854939594	0.593929646	0.15687526	0.154425999
0.080689012	0.856033936	0.104059093	0.623558419	0.1495293	0.643735749
0.081613277	0.869216709	0.099408688	0.657090753	0.162658102	0.669518431
0.877295822	0.440460606	0.443943761	0.170534845	0.60807974	0.577710959
0.480785107	0.405853031	0.877458686	0.574758562	0.532336041	0.170574744
0.054273894	0.875220566	0.883537155	0.690505855	0.170879482	0.175332271
0.459093775	0.425699856	0.877423886	0.57594547	0.539766809	0.170579978
0.877147103	0.877532662	0.877889524	0.170650288	0.170787044	0.170942593
0.877590188	0.448059021	0.432972417	0.170650332	0.591207988	0.558667369
0.854737785	0.107515463	0.864568872	0.154865991	0.593922821	0.156998749
0.11144968	0.864130526	0.856136445	0.592130383	0.156245994	0.155407935
0.081606835	0.869221367	0.099469497	0.657148526	0.162652611	0.669524004
0.077526875	0.080893741	0.868992867	0.678273012	0.666124068	0.16252713
0.103414614	0.841739955	0.125011746	0.598504427	0.135302074	0.623502013
0.445269834	0.877372509	0.438023555	0.562846762	0.170466101	0.592564465
0.873524111	0.874161827	0.874506496	0.188522946	0.189289572	0.189047881
0.092956974	0.080034759	0.869413559	0.66805693	0.657014598	0.162661566
0.873997528	0.048590156	0.872257947	0.168272628	0.658964692	0.165345798
0.10219415	0.841508709	0.083401647	0.605682537	0.134743722	0.630643219
0.480773084	0.409990281	0.87723907	0.559258626	0.517687518	0.170416484
0.045434434	0.048181545	0.051609546	0.657167757	0.658417996	0.659158088
0.415522274	0.877574858	0.462079969	0.589685978	0.170686374	0.626198588
0.873964459	0.055399393	0.871754897	0.168487187	0.655093551	0.164743518
0.066596522	0.078351771	0.854961044	0.654004603	0.634135843	0.148642095
0.876589776	0.884118237	0.027329127	0.170616389	0.175864532	0.695263566
0.87143011	0.874197236	0.047186383	0.164850502	0.168137499	0.657088886
0.107754463	0.865166798	0.855324989	0.593943002	0.157068472	0.154799055
0.054275874	0.876282534	0.883206527	0.690530548	0.170802452	0.17520142
0.124692318	0.103189104	0.84183762	0.62408549	0.598651325	0.135239971
0.86701868	0.864836926	0.077411472	0.159936966	0.161210587	0.623023199
0.439022489	0.878075844	0.439027213	0.596295961	0.171210037	0.62671017
0.014359646	0.014159529	0.882244517	0.696750936	0.697331565	0.175485623
0.103203783	0.078868522	0.856376442	0.64368931	0.623583838	0.14962767
0.422235671	0.877898617	0.459319301	0.554767819	0.170594811	0.590781166
0.871798767	0.874870186	0.045936753	0.165111708	0.168603731	0.658117445
0.865103867	0.855754738	0.111447904	0.156241751	0.155443487	0.592209359
0.045425576	0.048122735	0.053359826	0.65592636	0.656115997	0.655937994
0.045170119	0.871960236	0.874093635	0.659036508	0.165255984	0.168153867
0.393017523	0.8776394	0.484873758	0.582642817	0.170888904	0.625268587
0.147411887	0.860052324	0.846076638	0.562688759	0.152747353	0.150508385
0.484981636	0.393137888	0.877867262	0.62517122	0.58258327	0.170788805
0.104202463	0.866938482	0.867493748	0.615413462	0.159302666	0.162915788
0.121500282	0.296203683	0.207936246	0.621700842	0.625713172	0.623995366
0.415480994	0.8772652	0.469980624	0.536011809	0.170509061	0.575269663
0.844136423	0.846457994	0.845474272	0.256767043	0.257054151	0.2572213
0.051367604	0.053781576	0.057351956	0.653949934	0.654144053	0.653886486
0.438501195	0.444498456	0.877664924	0.593085462	0.563430409	0.170591118
0.876815993	0.884253335	0.013707146	0.170866218	0.176141918	0.697382634
0.843536593	0.137218048	0.860799385	0.148643636	0.566240317	0.154254394
0.877377977	0.437086424	0.446358844	0.170587755	0.575750248	0.546091216
0.041140666	0.040875841	0.881764202	0.692666459	0.692932279	0.175218148
0.415538764	0.877326173	0.469962096	0.536108777	0.170518767	0.575444222
0.877206404	0.44782576	0.432842895	0.170251168	0.590957905	0.55857135
0.291162227	0.295386157	0.825717982	0.61286812	0.583017622	0.118713739
0.863856224	0.863254388	0.863738507	0.219171574	0.219091962	0.219601198
0.881958536	0.00000485	0.00000484	0.17539797	0.699200842	0.699347278
0.203731111	0.826100059	0.209767223	0.578788628	0.119073759	0.606463052
0.877379687	0.459004729	0.425624377	0.170571404	0.575643712	0.539636498
0.113855389	0.100111037	0.84209487	0.625864629	0.600633556	0.135050631
0.469870038	0.415573629	0.877261027	0.575528062	0.536373603	0.170548063
0.099240342	0.841774306	0.103065184	0.602388167	0.134906825	0.627658787
0.88205771	0.0000055	0.874214122	0.174707711	0.699352966	0.170121948
0.84307637	0.133738336	0.861455231	0.147539785	0.567815901	0.154545491
0.47618723	0.413236297	0.877452727	0.609600351	0.569249054	0.170557871
0.877348996	0.473425131	0.404034814	0.170690252	0.62579353	0.58621229
0.080219996	0.868983808	0.092957306	0.658242912	0.16265958	0.67006249
0.028223576	0.028050039	0.881766741	0.69468837	0.69494492	0.175443207
0.857601143	0.068751401	0.071773625	0.149380953	0.649874737	0.629717575
0.123086674	0.86406712	0.85601542	0.58866564	0.155293165	0.156426848
0.877711957	0.438163826	0.443533042	0.170687334	0.590870594	0.561399281
0.113651007	0.099951135	0.842066234	0.625836783	0.600879981	0.135184564
0.87410486	0.05161028	0.872012921	0.168373145	0.659104508	0.165019399
0.877999625	0.448979708	0.439924528	0.170667376	0.5599916	0.527614086
0.878540554	0.877049754	0.877622927	0.170540546	0.17065046	0.170246279
0.083097389	0.080087177	0.86895142	0.675332111	0.66258794	0.162514598
0.059011975	0.038716044	0.077939444	0.679820345	0.67902689	0.68021661
0.070584277	0.051259093	0.08267779	0.673560314	0.67262848	0.674868769
0.455008015	0.43586321	0.877420958	0.611041915	0.577377067	0.170577513
0.855306826	0.10751598	0.865082563	0.154882979	0.593973929	0.157001372
0.123119086	0.863460169	0.85714979	0.588347192	0.155264984	0.15645629
0.877555783	0.448761339	0.439711584	0.170575288	0.559761878	0.527765207
0.877845511	0.481069007	0.410295809	0.170824282	0.559540116	0.517350414
0.08191097	0.855994568	0.068410334	0.631631443	0.149080465	0.652774348
0.073055687	0.855273124	0.071678482	0.629227254	0.148749095	0.64910627
0.446317052	0.877323791	0.443923229	0.576514429	0.170574619	0.607229651
0.866959143	0.866119837	0.08177787	0.159238098	0.161880089	0.621199305
0.068868109	0.071224908	0.855200872	0.649975389	0.629535906	0.148781331
0.124937968	0.103519207	0.84166476	0.623384947	0.598286936	0.135142192
0.866470525	0.865693567	0.081838631	0.159347699	0.161371516	0.621418877
0.88302586	0.054273874	0.876116335	0.175061841	0.690516081	0.170700872
0.825610917	0.265493456	0.278749307	0.118407412	0.611053127	0.583194951
0.054596441	0.055124774	0.054804528	0.690416779	0.689993071	0.690438968
0.48063781	0.405846752	0.87743281	0.574753923	0.532328238	0.170557387
0.877685557	0.484897798	0.393038217	0.170761012	0.625190593	0.582600909
0.153908435	0.859563466	0.84680654	0.560905764	0.152423875	0.151606708
0.826312517	0.241784507	0.235873162	0.118823508	0.610263717	0.581394119
0.082346925	0.285207338	0.26762302	0.620182598	0.619541462	0.621336059
0.469891527	0.415712156	0.877421153	0.575418758	0.536274231	0.170576425
0.487043483	0.40142095	0.877424596	0.60748203	0.564338319	0.170542737
0.877357476	0.451043625	0.431961786	0.170497134	0.608748004	0.575298442
0.480796666	0.405728353	0.87743567	0.574766925	0.532325655	0.17058223
0.415590439	0.877419518	0.469983495	0.536173463	0.17053595	0.575462656
0.437914495	0.444734189	0.877333846	0.592709552	0.563187766	0.170334816
0.841659275	0.083364036	0.102282792	0.134901027	0.631418829	0.605873389
0.864167145	0.855692777	0.116634941	0.155701259	0.155689497	0.590340327
0.865737125	0.077114156	0.867559957	0.161070373	0.623099598	0.15990711
0.480869144	0.410202833	0.87754596	0.559261619	0.517666888	0.170464129
0.00000549	0.876670369	0.883202039	0.699009333	0.171012059	0.175574647
0.090691237	0.076235708	0.868960284	0.668383767	0.658828431	0.162564793
0.040855302	0.87594902	0.883143813	0.693052386	0.170551687	0.175637602
0.877362252	0.450699942	0.432443341	0.170584857	0.609717132	0.576313839
0.148782755	0.133866745	0.824868051	0.602947532	0.572379342	0.119094421
0.027724629	0.027453141	0.028093967	0.695245788	0.694881337	0.695430942
0.060031598	0.060031676	0.059922814	0.639909769	0.640157407	0.64023408
0.872984541	0.874157252	0.872413165	0.188581746	0.189044959	0.188711905
0.46987801	0.415661089	0.877360676	0.575487867	0.53633057	0.170540355
0.446357486	0.877381006	0.437090534	0.546049051	0.170614576	0.575751459
0.863836405	0.854565201	0.107703077	0.156282446	0.154240887	0.593782362
0.068856688	0.071277136	0.855582437	0.650124008	0.629369675	0.14885936
0.150152813	0.13550204	0.825548732	0.603929382	0.574235753	0.119256083
0.859900626	0.845837114	0.153942274	0.151601026	0.150763349	0.561018001
0.057366167	0.045118618	0.076485298	0.67548665	0.674644257	0.676415618
0.062491929	0.062484592	0.062430926	0.638350603	0.638374684	0.63851483
0.85590612	0.123106017	0.863270655	0.155726301	0.588396269	0.154975584
0.465946862	0.424549438	0.877322043	0.608194284	0.571558342	0.1705436
0.876227025	0.047221216	0.871276002	0.168587136	0.656688138	0.164279249
0.878992142	0.877363483	0.87958752	0.170981491	0.170505546	0.170879609
0.855713091	0.116692233	0.863101568	0.155852444	0.590380882	0.155929124
0.079853084	0.071465987	0.855397903	0.647649159	0.627682554	0.149352919
0.861050923	0.844171759	0.141721071	0.153115307	0.149208943	0.564539068
0.883726661	0.0000055	0.876010767	0.175553434	0.699406379	0.170688613
0.878421827	0.87739073	0.878910455	0.170792692	0.170627014	0.171222532
0.427175353	0.877786214	0.450596349	0.593064812	0.170851587	0.626455832
0.041112655	0.0409246	0.881057965	0.692477271	0.693012434	0.174980829
0.139697285	0.826737069	0.150752096	0.57694074	0.119208266	0.604930218
0.841653763	0.113708216	0.100409829	0.135158696	0.625843853	0.600904155
0.877430993	0.480825912	0.410140539	0.170570977	0.559408671	0.517405698
0.435847688	0.877236216	0.44804749	0.542875735	0.170520868	0.575820446
0.475684979	0.413792981	0.877452332	0.608632789	0.569337978	0.170613376
0.074820434	0.074934931	0.075104038	0.63408177	0.634363081	0.634607241
0.877284291	0.470145245	0.419663753	0.170641658	0.559563368	0.52092555
0.054275279	0.87747351	0.882696763	0.690497013	0.171121269	0.175101481
0.103564959	0.841637779	0.125073319	0.598601666	0.135288568	0.623452974
0.877917437	0.87750297	0.878919062	0.170871503	0.170731404	0.171000446
0.844198767	0.13371467	0.863375596	0.148496544	0.567775039	0.155754929
0.09278699	0.099670701	0.841483091	0.629577918	0.604440652	0.134905955
0.442773654	0.44787179	0.877346237	0.607371061	0.576936993	0.170602838
0.124452679	0.103246204	0.841713699	0.623895869	0.598152566	0.13514146
0.470276829	0.419751753	0.877506853	0.559580883	0.521016209	0.170478229
0.422329438	0.878206137	0.459527062	0.554813376	0.170496407	0.590672214
0.461894543	0.415323591	0.877191265	0.626369935	0.589675003	0.170462554
0.079773337	0.071528895	0.855358796	0.647732525	0.627550867	0.148922973
0.861301617	0.843668067	0.13712623	0.154074076	0.148499524	0.566247789
0.092775421	0.099660756	0.841754224	0.629384727	0.604403809	0.134941496
0.041132928	0.040962489	0.880827311	0.692604339	0.693149868	0.174985149
0.861375595	0.843584111	0.137123681	0.154031624	0.148462672	0.566245422
0.087759808	0.867162983	0.865522722	0.619783161	0.159509737	0.162121806
0.841660105	0.113733729	0.100201771	0.13509669	0.625612005	0.600494579
0.402535113	0.877257448	0.486210882	0.565352158	0.170569319	0.608305389
0.086685808	0.86862036	0.08364389	0.664652402	0.162558211	0.677337003
0.445538918	0.877604098	0.437909591	0.562596384	0.170786465	0.592313114
0.867052328	0.865463096	0.08194453	0.159385078	0.161592091	0.621399461
0.877328803	0.448131732	0.435798654	0.170586681	0.575680012	0.542796647
0.348968598	0.825451236	0.34264045	0.5852988	0.118490028	0.612950898
0.044549738	0.871474395	0.874095814	0.659340361	0.164843521	0.167957307
0.081694872	0.867916965	0.865733937	0.621471849	0.159821187	0.161420701
0.87732557	0.440119861	0.444099064	0.170502335	0.608064239	0.577781147
0.111407074	0.864903661	0.855710027	0.592104826	0.156355841	0.155310484
0.141788968	0.861538257	0.846095989	0.564485579	0.154225333	0.150493329
0.078821345	0.868959338	0.08786121	0.66291586	0.162638576	0.671875098
0.100064769	0.841833114	0.11402698	0.600545202	0.134956737	0.625520018
0.087065461	0.868898397	0.08432668	0.665015386	0.16245983	0.67705759
0.877268016	0.448692596	0.439476158	0.170506686	0.559758786	0.527727761
0.883371871	0.027326057	0.875104799	0.175296102	0.695234166	0.170002008
0.873074065	0.874091972	0.873230125	0.188567971	0.189233753	0.188896237
0.878597797	0.877399018	0.877426165	0.171120037	0.170604991	0.170354308
0.056323036	0.044838257	0.074991534	0.675570593	0.674667221	0.675936766
0.04547374	0.048360217	0.053719823	0.655900076	0.65614289	0.656161001
0.864220088	0.853955677	0.107672785	0.156388671	0.154016648	0.593861238
0.103123087	0.099108164	0.841568379	0.627687495	0.602575847	0.134952387
0.23520971	0.236031002	0.825994857	0.611127886	0.581593459	0.118916973
0.051847476	0.05314487	0.057141414	0.653727748	0.654191667	0.654041131
0.09998722	0.081324112	0.869210293	0.669234363	0.657583375	0.162747621
0.825527296	0.148451827	0.129857285	0.118926706	0.604433689	0.57600522
0.870567395	0.87345359	0.055342374	0.164526021	0.167840844	0.654854966
0.868675511	0.082003913	0.078768313	0.162614918	0.674326958	0.662416813
0.141750264	0.860693294	0.84476148	0.564511388	0.153484741	0.149671473
0.401620853	0.87754504	0.480698247	0.548223557	0.170416704	0.589934959
0.422103535	0.877841211	0.459380934	0.555189857	0.1703451	0.590420385
0.014112464	0.881454565	0.014303757	0.697226084	0.175423081	0.697106427
0.877939708	0.884613286	0.054281944	0.171340335	0.17560272	0.690631824
0.866228595	0.10402871	0.866651511	0.162763449	0.615313391	0.159292179
0.825717985	0.279282992	0.296958883	0.118443376	0.6129732	0.583457554
0.869089473	0.098909263	0.081628464	0.162769178	0.668706996	0.65494986
0.877249289	0.43861397	0.438609231	0.170337854	0.626566698	0.596408977
0.826795734	0.187129715	0.189917717	0.118900567	0.611715579	0.581487359
0.040857396	0.875339948	0.883470413	0.693099546	0.170085485	0.175319856
0.825840396	0.281000725	0.297920747	0.118489137	0.610404105	0.582954309
0.014431961	0.8809512	0.014817777	0.697334748	0.17520706	0.697356277
0.874136332	0.065225551	0.871030442	0.168725366	0.652752666	0.164418696
0.43709329	0.44634932	0.877374546	0.575778542	0.546073097	0.170584881
0.230017753	0.238107325	0.825781562	0.61137388	0.582170892	0.118872728
0.487052494	0.401398527	0.87743841	0.607419174	0.564315296	0.170529281
0.13373363	0.862295101	0.844340971	0.567752108	0.155259557	0.148256607
0.847291509	0.153919671	0.859893751	0.151315469	0.560964769	0.152078538
0.102159036	0.841639576	0.083387415	0.605889625	0.13478344	0.630727849
0.153948649	0.860117354	0.846848914	0.560853265	0.152731667	0.151911409
0.140650066	0.825538752	0.148052499	0.574240838	0.118501034	0.601529531
0.082451448	0.868926552	0.083729882	0.663453159	0.162489394	0.677206694
0.877750323	0.459710295	0.429681977	0.170435677	0.559790446	0.524386109
0.876572847	0.883581911	0.027332661	0.170644499	0.175829991	0.695421219
0.432733252	0.877645933	0.448105066	0.558203712	0.170800822	0.591206771
0.153973893	0.859211206	0.846496047	0.560871594	0.1519309	0.151245864
0.883549865	0.027328894	0.876113316	0.175283476	0.695273358	0.170927358
0.476669946	0.412976549	0.877402554	0.610603714	0.570608118	0.170552484
0.877455621	0.440907154	0.443703002	0.170632748	0.609756276	0.579328738
0.278525157	0.282356563	0.826112959	0.610898675	0.582996893	0.119092528
0.088015252	0.866977393	0.866110264	0.619368444	0.15952273	0.162136998
0.43708247	0.446339627	0.877354731	0.575723974	0.546006175	0.17062359
0.102944314	0.078868313	0.855684183	0.643360192	0.623383605	0.149247076
0.099970651	0.081254859	0.869208432	0.669238183	0.657571928	0.162745088
0.876935008	0.4485527	0.439299259	0.170672545	0.559962486	0.527587369
0.876993209	0.480858211	0.401194759	0.170666595	0.590107726	0.548243514
0.857059427	0.102825488	0.078815816	0.149463555	0.643422157	0.623831451
0.45052215	0.427091392	0.877628374	0.626573172	0.593083701	0.170645769
0.085693063	0.869221438	0.082860016	0.665420422	0.162510424	0.677489845
0.459074832	0.425716344	0.877383211	0.575483931	0.539379495	0.170569169
0.855579153	0.068651632	0.072043567	0.148941999	0.650167994	0.629471164
0.865052507	0.855534477	0.111403066	0.156195204	0.155379047	0.592263874
0.847765823	0.846381965	0.847635599	0.257813389	0.257520895	0.257038243
0.874939594	0.076023875	0.870972889	0.168748419	0.65056125	0.16458234
0.877885862	0.485001214	0.393136704	0.170732412	0.625342651	0.58267111
0.138957334	0.132323439	0.82637564	0.606004339	0.577357627	0.119230099
0.872876119	0.87409372	0.87300362	0.188561326	0.189274991	0.188955519
0.12346077	0.111654414	0.145901437	0.615481865	0.614258269	0.615085361
0.8250263	0.195058802	0.200135608	0.118761574	0.613103063	0.580898873
0.07973515	0.071520951	0.855413422	0.6477714	0.627609698	0.148914404
0.056349636	0.044817756	0.075077981	0.675194105	0.674718462	0.675692476
0.104205251	0.866870559	0.867433635	0.615336613	0.159313012	0.162914886
0.866763392	0.866025527	0.08842798	0.15945025	0.162017412	0.619141904
0.872747747	0.874315388	0.075941412	0.164422753	0.168253165	0.650449249
0.00000279	0.00000294	0.00000285	0.699155649	0.699342598	0.699573902
0.434444162	0.877477893	0.455110639	0.574802681	0.170566655	0.608151607
0.111392249	0.8645267	0.855506008	0.59205521	0.156231596	0.15517555
0.435476601	0.877355239	0.454835513	0.576061788	0.170580259	0.609439685
0.855927097	0.068693954	0.071935685	0.149466476	0.649899885	0.629937567
0.876436836	0.883419663	0.040860665	0.170774537	0.17588949	0.693143132
0.847671312	0.84724309	0.846446353	0.256572163	0.257368519	0.256718674
0.103097273	0.099187714	0.841555229	0.627747632	0.602462893	0.135030621
0.878013724	0.470451045	0.420081906	0.170938397	0.55967886	0.521083545
0.059982586	0.060038777	0.059965809	0.639959889	0.640157011	0.639785618
0.439571606	0.877390612	0.448746301	0.527658655	0.170545023	0.559747305
0.279013488	0.29918847	0.825835104	0.614813779	0.584361137	0.118730274
0.062491309	0.062482956	0.062432739	0.638285566	0.638236103	0.638493371
0.48090037	0.405770857	0.877521678	0.574780473	0.532328637	0.17056226
0.864277546	0.854412892	0.107650387	0.156373965	0.1540514	0.593872541
0.480798063	0.401473983	0.877590814	0.590055791	0.548321125	0.170248076
0.058604439	0.038686046	0.077447874	0.679895359	0.679040517	0.680255358
0.393162784	0.877919405	0.48500887	0.582639839	0.170831166	0.625176427
0.095870638	0.8665581	0.866921506	0.617406001	0.159067188	0.162395044
0.103901737	0.866980303	0.86687415	0.615677535	0.159396648	0.162884602
0.872125675	0.875383642	0.055326467	0.165274747	0.169100198	0.655020899
0.013705598	0.875815002	0.883804846	0.697211141	0.17093964	0.17574864
0.87134205	0.875960983	0.075948068	0.16479923	0.169446489	0.650451945
0.861092453	0.84441109	0.141749396	0.152865933	0.148933837	0.564507632
0.081884292	0.867321417	0.866601591	0.62115442	0.159639804	0.161709426
0.877277016	0.437034833	0.446310884	0.170594398	0.575695489	0.546046023
0.065209258	0.871764909	0.874965522	0.652874022	0.164663206	0.168847777
0.480755362	0.401361858	0.87742388	0.590042502	0.548036337	0.170888417
0.039799102	0.046559996	0.073630867	0.677350577	0.676641893	0.677756243
0.08204335	0.304650677	0.28885689	0.619733136	0.617579183	0.617409678
0.130677032	0.308017172	0.208856745	0.621752965	0.622475212	0.621631053
0.869003293	0.090530049	0.076826957	0.162650338	0.671493935	0.659257105
0.871105328	0.874540603	0.07595744	0.164401716	0.168136341	0.650375083
0.435862567	0.87730334	0.448052923	0.542847024	0.170632071	0.575869723
0.877484522	0.480539891	0.405736053	0.170596501	0.575399009	0.532971301
0.44801009	0.432698072	0.87757181	0.590940083	0.558468268	0.17021472
0.866796207	0.10401986	0.866856441	0.162723323	0.615366344	0.159256625
0.027451249	0.881991923	0.027719877	0.695252392	0.175357115	0.694854838
0.863468155	0.854356961	0.107699291	0.156280028	0.154224734	0.593783655
0.872370606	0.87503181	0.065183315	0.164815096	0.1685222	0.652832823
0.13371902	0.861659212	0.843526364	0.567805593	0.155232972	0.148222559
0.067728536	0.067606697	0.067873441	0.636446233	0.636483959	0.636751961
0.571440549	0.877213096	0.552938052	0.537565636	0.170430152	0.564365056
0.062496448	0.062480889	0.062420622	0.638304979	0.638315827	0.638486099
0.866362727	0.095534163	0.867362119	0.162444197	0.617153607	0.159496709
0.131104899	0.82597757	0.149900652	0.575632029	0.119023133	0.603992687
0.864494349	0.856051597	0.116651798	0.155495536	0.155514017	0.590338256
0.856582319	0.13038605	0.862164549	0.156271408	0.586391223	0.154363271
0.410110189	0.877487466	0.480902491	0.517541004	0.170518128	0.559329375
0.414689077	0.87737884	0.474515262	0.569658231	0.170551019	0.608842059
0.100188116	0.841687102	0.113816343	0.600846438	0.13499878	0.625918362
0.06969808	0.065170731	0.084670912	0.670502944	0.670449881	0.672721801
0.48779112	0.525248257	0.876994573	0.560880261	0.53282832	0.170893264
0.434907054	0.877480141	0.454881676	0.574421304	0.170572293	0.607841358
0.865301741	0.087765309	0.866695389	0.162009959	0.619029885	0.159443385
0.485024096	0.39316653	0.877939683	0.625247047	0.582615824	0.170677778
0.480768931	0.401475363	0.87755915	0.590035079	0.548257666	0.170412848
0.055349544	0.872082797	0.874225594	0.654918009	0.16502515	0.1685501
0.877309382	0.44808614	0.43582722	0.170613149	0.57571612	0.542847585
0.147449687	0.859902097	0.844566082	0.562796877	0.152509326	0.150433914
0.404184167	0.877637345	0.473564734	0.58619033	0.170809715	0.625836863
0.877159434	0.484644012	0.392765925	0.170695467	0.625341832	0.58265712
0.878139723	0.462365094	0.415801577	0.170730872	0.6263399	0.589644861
0.075971557	0.871795222	0.874546645	0.650549805	0.164590388	0.168558751
0.871845031	0.873401064	0.047235808	0.16527788	0.168265436	0.658753779
0.130356855	0.863349644	0.857498518	0.586456932	0.154705596	0.157177331
0.863260769	0.856485208	0.123133781	0.155761676	0.156551378	0.588472976
0.864812251	0.854746761	0.11146712	0.155802432	0.154712629	0.591897952
0.876538853	0.882452429	0.013706039	0.170992871	0.175702402	0.697299439
0.041030903	0.881774358	0.041261567	0.693068354	0.175623108	0.692538853
0.42179432	0.877089233	0.45896488	0.554921925	0.169969706	0.590254706
0.865999889	0.081537535	0.867673528	0.161658956	0.621346555	0.159966932
0.438869274	0.87776959	0.438873998	0.596462041	0.17056618	0.626586563
0.866181473	0.087732991	0.867769427	0.162004162	0.619309706	0.159387422
0.825665198	0.275248604	0.275890413	0.118621292	0.610037005	0.583159583
0.855736685	0.091278305	0.074262446	0.149384213	0.645131699	0.625803613
0.087656001	0.868609832	0.085165835	0.664018089	0.162591172	0.67695914
0.101039918	0.130083589	0.171264814	0.617158185	0.622099064	0.620675002
0.435815767	0.877353487	0.454635531	0.576344843	0.170562387	0.609768151
0.865400772	0.07708379	0.867906118	0.161110655	0.623357998	0.159662413
0.044913963	0.049201687	0.051551946	0.657821124	0.658322095	0.658487601
0.402761486	0.877271983	0.485860681	0.56515086	0.17055326	0.608041437
0.86681933	0.104006175	0.86693946	0.162726542	0.615335325	0.159238001
0.84632635	0.153950567	0.85875236	0.150860669	0.56091292	0.151675004
0.111409388	0.864315472	0.855837009	0.592182495	0.156332708	0.155540345
0.059593524	0.064366737	0.062842368	0.651899945	0.65188552	0.652252317
0.402501645	0.877410197	0.486003762	0.564885123	0.17052059	0.607522661
0.074685273	0.074980206	0.075107826	0.634150656	0.634366492	0.634564795
0.825568615	0.136858305	0.130620209	0.118641309	0.605620172	0.57634804
0.436229314	0.877373497	0.454310223	0.57640273	0.170531513	0.609823581
0.41542734	0.877396296	0.461996005	0.589858349	0.170497389	0.626046468
0.868925642	0.089295468	0.076301969	0.162677132	0.672125037	0.659784338
0.574275447	0.877371914	0.539397394	0.538661084	0.170571409	0.566187965
0.027728544	0.027474182	0.02786297	0.695445503	0.695339447	0.695224536
0.12311564	0.863377129	0.857348843	0.58835442	0.155189781	0.156392086
0.446338972	0.87731454	0.43704356	0.546065305	0.170582214	0.575716047
0.100057847	0.08138991	0.868880557	0.667601645	0.657196214	0.162581857
0.469857818	0.415754785	0.877400371	0.575416823	0.536268027	0.170590681
0.06252814	0.062481134	0.062464028	0.638398573	0.638430835	0.638539483
0.00000491	0.881317104	0.00000481	0.699193528	0.175195176	0.698877573
0.111389668	0.864744756	0.855779278	0.592260092	0.156292731	0.155506073
0.47349569	0.404111055	0.877496127	0.625775454	0.586015958	0.170513103
0.826270346	0.148981605	0.131878485	0.119608539	0.60166928	0.573562134
0.079545704	0.082758117	0.868907328	0.679369821	0.666359477	0.162500569
0.140846168	0.130380367	0.824641854	0.604647867	0.577647254	0.118844946
0.444349199	0.877276393	0.438691892	0.561793753	0.170265774	0.591310235
0.00000549	0.877199954	0.884110895	0.69930631	0.170590576	0.176087612
0.446338267	0.877340686	0.437069199	0.546068651	0.170595861	0.575719416
0.218770737	0.238222167	0.826887036	0.609747122	0.578178889	0.118937024
0.845625741	0.141777248	0.861621018	0.149960467	0.5645579	0.154110493
0.127596728	0.308271048	0.212530033	0.623531916	0.623898903	0.620226538
0.846475739	0.147478974	0.860033914	0.150840791	0.56279961	0.153156808
0.864104496	0.856766279	0.123151085	0.155797408	0.156551321	0.588494526
0.059591586	0.064454419	0.062879439	0.652154984	0.651962604	0.651830964
0.880502619	0.054567292	0.054177516	0.175454303	0.689919838	0.690650734
0.09913395	0.841944127	0.103122113	0.602300129	0.134901659	0.627743784
0.882035215	0.027323449	0.874891191	0.175374288	0.695164857	0.170158775
0.878416024	0.877365135	0.878962435	0.170887151	0.170533688	0.170966078
0.424390721	0.877452306	0.465485012	0.573146838	0.170547758	0.609867926
0.86387845	0.856270436	0.123124153	0.155329205	0.156205571	0.588627452
0.279718687	0.282164855	0.825813447	0.614236705	0.584694071	0.118723284
0.863234862	0.863157794	0.863657688	0.219587543	0.219142555	0.219523233
0.068843197	0.071381122	0.855064913	0.649827098	0.629637607	0.148989762
0.88324138	0.013707078	0.875090882	0.175022216	0.697354806	0.170431313
0.045121529	0.871994472	0.874695696	0.659065945	0.165248757	0.168148808
0.041250402	0.881830086	0.041452687	0.692440395	0.175438766	0.692085012
0.055376482	0.87206777	0.873673237	0.654880523	0.164577178	0.16838896
0.041118236	0.040871825	0.881373226	0.692424917	0.693018893	0.175262262
0.06522037	0.872188895	0.873917866	0.652766295	0.16477067	0.168401142
0.00000279	0.00000291	0.00000281	0.699436413	0.698789218	0.698961179
0.825681698	0.267338079	0.279417644	0.11837291	0.611001351	0.582517976
0.132682907	0.826333065	0.149280625	0.576273192	0.11889913	0.604201971
0.865004468	0.854703988	0.107733712	0.156609463	0.154607538	0.593804436
0.861977499	0.843521166	0.133718158	0.154879919	0.147819712	0.567800659
0.014208345	0.88110991	0.014532828	0.697222166	0.175308526	0.697672496
0.074696442	0.074969701	0.075079156	0.634344426	0.634281074	0.634452326
0.33878465	0.825483086	0.334813936	0.586735678	0.118621321	0.612841919
0.872536551	0.875476499	0.075952337	0.165174829	0.168976082	0.650377184
0.081900616	0.079215357	0.868660552	0.675158652	0.663487474	0.162596037
0.140397371	0.130520005	0.825709443	0.604109343	0.576122719	0.11915016
0.147044837	0.133403019	0.825875521	0.601782608	0.571759432	0.119251047
0.415577411	0.877288488	0.469880249	0.536021372	0.170501259	0.575270998
0.877401217	0.459545523	0.429502918	0.170399573	0.559736341	0.524402255
0.877334745	0.459015505	0.425559944	0.170588272	0.575674203	0.539640694
0.426777875	0.876994965	0.450202847	0.593151981	0.170530271	0.626420715
0.081839656	0.867308927	0.866533586	0.62114323	0.15964879	0.161699072
0.884258871	0.027325488	0.876957706	0.175745486	0.695192541	0.171438609
0.45905825	0.422125236	0.877615051	0.590855952	0.555016904	0.170567254
0.425654686	0.877449868	0.459131954	0.53935397	0.170650158	0.575361209
0.876867646	0.883946593	0.054283354	0.171369948	0.175843546	0.690639962
0.868803661	0.081806621	0.078253386	0.162613086	0.673666191	0.661871657
0.881269637	0.041220604	0.040790807	0.175386996	0.692547865	0.692918171
0.856334174	0.107533414	0.866471967	0.15511197	0.593825789	0.157047427
0.074977653	0.074919435	0.075205801	0.634109127	0.634490345	0.634432766
0.461847427	0.415280284	0.8771007	0.626366779	0.589671479	0.170478926
0.877042868	0.469957063	0.41197141	0.170163069	0.591476376	0.5527288
0.868775412	0.083031766	0.075112049	0.162669363	0.673359573	0.661693665
0.867112213	0.86630108	0.088228638	0.15958906	0.162464796	0.619678939
0.166277041	0.154459213	0.096057895	0.617911325	0.617332885	0.615910913
0.881867546	0.00000482	0.00000484	0.175405451	0.69917944	0.699313561
0.878014714	0.481148877	0.410383624	0.170469165	0.559347054	0.517507337
0.480772607	0.40584465	0.877430801	0.574757386	0.532326564	0.170570404
0.065230376	0.87199131	0.874558943	0.652893603	0.165222042	0.168647202
0.843700484	0.846457315	0.845172017	0.256794506	0.25699403	0.257322103
0.130482284	0.863561858	0.856618454	0.586555851	0.155227354	0.157351425
0.402707065	0.877396049	0.485552641	0.564834865	0.170557491	0.607544687
0.877455469	0.437836364	0.443698547	0.170560051	0.590762617	0.561141512
0.82327149	0.823957649	0.825492923	0.298312778	0.298738082	0.298682022
0.866146711	0.087724461	0.867874166	0.162046796	0.619312203	0.159436701
0.072862289	0.856014638	0.071358437	0.62949871	0.149377794	0.650167286
0.87684083	0.883904113	0.054269701	0.171527847	0.175183824	0.690451173
0.074782317	0.074972116	0.075168231	0.634204461	0.634355267	0.634493012
0.841712524	0.102841427	0.098887408	0.134979285	0.62766753	0.60262358
0.139642497	0.825334086	0.147022632	0.574342139	0.118538096	0.601551704
0.438091795	0.445025832	0.877629626	0.590775007	0.561423009	0.17036669
0.573027761	0.877193095	0.543943559	0.537921181	0.170399308	0.564711703
0.841524079	0.133803519	0.862548981	0.148033836	0.567672622	0.15507356
0.439628241	0.877511604	0.448799216	0.52767814	0.170548322	0.559770351
0.88300652	0.027324742	0.875038346	0.175325248	0.695185681	0.170020422
0.039896365	0.046302278	0.073460921	0.677574653	0.676676294	0.678206023
0.862318675	0.845281934	0.137229398	0.154660247	0.148961164	0.566156064
0.476220971	0.412949094	0.877342248	0.610630013	0.57086136	0.170535795
0.100486601	0.841889721	0.113964902	0.601049739	0.135123188	0.625943109
0.876898599	0.883930931	0.054283382	0.171350159	0.175824123	0.690640706
0.014495159	0.014311788	0.882477266	0.697286973	0.696784313	0.17537711
0.014599099	0.881457871	0.014701289	0.697215825	0.175461271	0.69720106
0.480680667	0.405939926	0.877404739	0.574715175	0.53216267	0.170543977
0.014062973	0.881440903	0.014338824	0.697259528	0.175420797	0.697075123
0.027919246	0.027644361	0.028284696	0.695288084	0.694816154	0.695268062
0.076001399	0.871272026	0.87519938	0.650522061	0.16442897	0.168864824
0.13372131	0.862501523	0.844440191	0.56782422	0.155240632	0.148221167
0.469725049	0.411433145	0.8770746	0.590508646	0.552093531	0.170020974
0.099577957	0.129179388	0.167980284	0.616733823	0.621278436	0.61860111
0.877705124	0.480982236	0.410243261	0.170422893	0.55935339	0.517660599
0.877497558	0.439721951	0.444989499	0.170622077	0.609545039	0.579032137
0.881392318	0.00000494	0.0000048	0.175330114	0.699515785	0.699657828
0.855394253	0.111440316	0.864126707	0.154933744	0.592042718	0.155745116
0.099159721	0.841804152	0.103128981	0.60255265	0.134913122	0.627679799
0.074778188	0.075002193	0.075091832	0.634145991	0.634385107	0.634651107
0.877354314	0.483939551	0.399902026	0.170490329	0.608210384	0.565465745
0.876398562	0.882611598	0.0000055	0.171438167	0.175590277	0.699236645
0.151688344	0.141145153	0.097438291	0.619022079	0.616732477	0.615180064
0.857372693	0.130482468	0.862662092	0.156736156	0.586552917	0.154585493
0.013708013	0.876185846	0.881939411	0.697406306	0.170933962	0.175225788
0.013705126	0.87562763	0.882354607	0.697265827	0.170231628	0.174670292
0.875046705	0.047200795	0.871833688	0.168530156	0.656893813	0.164885362
0.075982435	0.871583799	0.874622528	0.650511181	0.164618578	0.168518237
0.411615625	0.877543486	0.470010157	0.551595181	0.17045113	0.590530929
0.882542373	0.0000055	0.875277423	0.174540454	0.699341008	0.170159468
0.843886601	0.137131211	0.861625008	0.148848028	0.566226726	0.154334266
0.469841713	0.411366273	0.877112594	0.590785979	0.551455487	0.170260588
0.877459487	0.437848635	0.443640884	0.170570283	0.59076181	0.561146293
