Va	Vb	Vc	Ia	Ib	Ic
0.866916278	0.866330266	0.104299037	0.159444204	0.162771281	0.615193177
0.880887866	0.054560725	0.054135743	0.175652771	0.689916958	0.690593326
0.854419251	0.065521242	0.079219054	0.148627005	0.652031107	0.631979566
0.825840396	0.281000725	0.297920747	0.118489137	0.610404105	0.582954309
0.866501173	0.865693988	0.104043012	0.159281856	0.162485173	0.615210607
0.473481625	0.404103262	0.877473052	0.625879857	0.586051441	0.170539271
0.842926838	0.845907493	0.846238138	0.256902207	0.25674686	0.257334975
0.040841931	0.875984686	0.882816127	0.692807923	0.17057672	0.175506465
0.443813581	0.447755458	0.877401258	0.606877009	0.577319209	0.170579949
0.867075925	0.104032397	0.86630769	0.162765346	0.615243868	0.159035099
0.054637439	0.054200057	0.882580377	0.690134585	0.690614662	0.175751364
0.825669109	0.26930909	0.28055019	0.118359074	0.610996254	0.582185191
0.081657377	0.867293114	0.86618993	0.621123709	0.159939832	0.161923805
4.84946E-06	0.882258302	4.87601E-06	0.699235263	0.175396853	0.699329006
0.874185294	0.050130792	0.872262584	0.16825929	0.658829162	0.164955497
0.841466419	0.102993344	0.099044514	0.134988872	0.627595648	0.602540726
0.435895286	0.877304988	0.448079031	0.542811172	0.170555906	0.57570099
0.846896849	0.15388051	0.859116348	0.151351878	0.560813405	0.152244499
0.868743426	0.076743584	0.080530209	0.16258041	0.676019218	0.664292075
0.480667294	0.405879308	0.87732517	0.574344766	0.531941627	0.170476037
0.877371533	0.44808884	0.435863068	0.170625479	0.575746136	0.542884068
0.103097273	0.099187714	0.841555229	0.627747632	0.602462893	0.135030621
0.877355772	0.437069767	0.446354019	0.170599466	0.575718713	0.546078562
0.462138721	0.415577776	0.87768919	0.626245196	0.589631126	0.170760494
0.435274612	0.877479737	0.454441684	0.575160899	0.170564257	0.608478724
0.845524242	0.141805873	0.861035898	0.149675868	0.564604927	0.153661348
0.404436487	0.87815208	0.473826694	0.58630061	0.170730459	0.625773934
0.877246773	0.440187144	0.443851067	0.170513331	0.608094936	0.577842084
0.484902593	0.393039119	0.877691595	0.625163965	0.582583603	0.170762303
0.864803383	0.854660687	0.107789932	0.156299565	0.154273646	0.593664756
0.04085232	0.875872385	0.882830336	0.693001237	0.170604896	0.175505819
0.074672204	0.075000578	0.075086159	0.634154022	0.634374852	0.634567152
0.872116804	0.874466562	0.047204634	0.165033212	0.168146622	0.656995621
0.040861311	0.875345966	0.88362559	0.693160044	0.170493167	0.175740923
0.133721431	0.862117924	0.844434112	0.567759716	0.1552737	0.148256893
0.02732143	0.876621901	0.883132433	0.695089883	0.171024075	0.175659266
4.87259E-06	0.882017449	4.79941E-06	0.69915348	0.175434788	0.699315385
0.040851038	0.875909301	0.883023476	0.69296284	0.170406492	0.175425094
0.469857372	0.41575328	0.877398585	0.57541767	0.536267343	0.170591073
0.459012872	0.425757505	0.877348242	0.575453151	0.539343818	0.170581695
0.087089845	0.079137787	0.868695705	0.67237329	0.660134859	0.162654213
0.462165148	0.41560071	0.877738614	0.626380444	0.589671158	0.170463545
0.276484018	0.279323759	0.826068507	0.610929797	0.583040905	0.119046536
0.462036143	0.415475931	0.877485053	0.626267723	0.589602394	0.17068557
0.079726313	0.082692169	0.868927108	0.679089976	0.666154953	0.162494862
0.278502269	0.283854649	0.825743227	0.612309306	0.585093055	0.118727354
0.085617696	0.869235861	0.083057441	0.665419231	0.162510232	0.677481856
0.465733167	0.424683842	0.87739405	0.608793657	0.572154002	0.170586587
0.877349532	0.483835149	0.400143622	0.170500289	0.608199453	0.565452359
0.869208099	0.098864166	0.080560657	0.162687802	0.669882764	0.65733461
0.881511149	4.88169E-06	4.90919E-06	0.17539721	0.699142629	0.699319838
0.421769543	0.877095825	0.458985787	0.55501642	0.170189375	0.590273985
0.146125062	0.131965741	0.826227279	0.60153309	0.57244734	0.11966662
0.45484962	0.435949752	0.877380985	0.609739277	0.576494242	0.170594177
0.099724539	0.841613701	0.092680112	0.604568519	0.134805726	0.629793827
0.866574551	0.866058273	0.10424938	0.159044454	0.162353917	0.615128387
0.039666086	0.046674624	0.073599141	0.676679096	0.676920288	0.677081513
0.442708877	0.448780467	0.877334587	0.606678989	0.577023923	0.170590051
0.079650119	0.869088284	0.093307757	0.659134252	0.162737812	0.670457704
0.014474552	0.014188866	0.881629833	0.697578142	0.697548697	0.175134307
0.854474472	0.065502071	0.079157186	0.148613757	0.652220776	0.632107542
0.877359176	0.459129964	0.422144681	0.170397173	0.590590347	0.554770609
0.473295085	0.403930437	0.877113756	0.625684593	0.585991807	0.170401923
0.859536759	0.844156325	0.141733759	0.152840755	0.148919279	0.564526499
0.133787979	0.861924386	0.843650449	0.56760946	0.154824532	0.147877681
0.054275279	0.87747351	0.882696763	0.690497013	0.171121269	0.175101481
0.867342212	0.866493861	0.095378939	0.159481261	0.162605454	0.617410391
0.047139424	0.872073701	0.873777367	0.656838274	0.165070043	0.168206851
0.067658742	0.06759437	0.067870811	0.636430618	0.63632914	0.636717453
0.877286421	0.470667589	0.484874082	0.170698905	0.560572102	0.531032377
0.402922112	0.877403509	0.485628243	0.565032633	0.17050263	0.607647521
0.082635279	0.079811881	0.868869249	0.675941568	0.663856603	0.162599783
0.455136874	0.435716587	0.877444428	0.610890142	0.577038802	0.170563012
0.103905515	0.866977219	0.866853672	0.61568637	0.159412174	0.162886393
0.044654352	0.049597422	0.052076896	0.658467926	0.659256532	0.658795047
0.062532944	0.062483534	0.062451411	0.638387438	0.638408072	0.638525482
0.128715252	0.299089351	0.202123241	0.621687923	0.626530485	0.624321341
0.857970468	0.13048466	0.862826098	0.157061198	0.586550921	0.154934993
0.442997526	0.448150156	0.877352184	0.606591553	0.57658943	0.17060578
0.130403356	0.863581369	0.857561419	0.586392734	0.15513307	0.157431417
0.154108031	0.140805962	0.096309877	0.618611937	0.616768883	0.61526863
0.856007717	0.116695864	0.864161641	0.155843105	0.59032401	0.156033777
0.877316004	0.459022676	0.425550562	0.170591076	0.575629429	0.539605817
0.883867368	0.054268746	0.876351299	0.175032355	0.690426398	0.170855126
0.427010995	0.877461429	0.450435579	0.593042407	0.170486532	0.62648879
0.056216126	0.044582957	0.074517601	0.675412362	0.674690208	0.675881097
0.082003101	0.869191971	0.09935306	0.656332991	0.162630628	0.668885167
0.101806381	0.126926576	0.169415055	0.61708702	0.622128985	0.620415435
0.860402943	0.843817701	0.137133439	0.15388074	0.148290082	0.566324165
0.054609386	0.054292048	0.881890799	0.689905834	0.690689988	0.175112203
0.027327822	0.876498217	0.88384238	0.695250899	0.170939252	0.175781298
0.855619313	0.0654278	0.079274617	0.14886172	0.65266135	0.631318392
0.860478313	0.845459335	0.147405959	0.153344698	0.150836399	0.562853059
0.459226043	0.422274408	0.87793848	0.590896006	0.5551969	0.170378287
0.415561272	0.877659262	0.462125021	0.589695095	0.170692387	0.626230892
0.487086343	0.401455109	0.877441851	0.607430818	0.56431904	0.170539265
0.855768728	0.068659	0.071974519	0.149007838	0.650176074	0.629682544
0.429693921	0.877825808	0.459773252	0.524422733	0.170577049	0.559703854
0.877215834	0.473943523	0.409849453	0.170518204	0.609004423	0.569220629
0.841703885	0.12489408	0.10337997	0.135270883	0.623482613	0.598026718
0.877330994	0.470523554	0.411735101	0.170344347	0.590711872	0.551680713
0.432582257	0.877385472	0.448034979	0.558222329	0.170524923	0.590908599
0.481224858	0.410400246	0.878111617	0.559315202	0.517578372	0.170526412
0.126993517	0.297865406	0.202960339	0.621720681	0.627034957	0.624643216
0.877437214	0.450423659	0.426999116	0.170490459	0.626367255	0.593212679
0.405788039	0.877352151	0.480659682	0.532769951	0.170537772	0.575096221
0.841073562	0.083347746	0.102227861	0.134824756	0.631280658	0.605946667
0.87744723	0.450428709	0.427004101	0.17048176	0.626355478	0.593222033
0.411789248	0.877869769	0.470163719	0.551560477	0.170476765	0.590707283
0.303068538	0.825780751	0.288291039	0.585862571	0.118895691	0.615832424
0.085774756	0.869098103	0.082325248	0.664652101	0.162350049	0.677173606
0.217735072	0.825657903	0.209160608	0.578073445	0.118851729	0.607623066
0.404426744	0.878129332	0.473814029	0.586291954	0.170717683	0.625772155
0.856494009	0.123072579	0.864154738	0.156474875	0.588480062	0.155773982
0.402510827	0.877404901	0.485730268	0.564837932	0.170548263	0.607548661
0.877348838	0.484734925	0.392864574	0.170587114	0.625305891	0.582581496
0.876275168	0.883906127	0.027326353	0.170591824	0.175763883	0.695201477
0.459073721	0.425671688	0.877383211	0.575838693	0.539642515	0.170586059
0.882734892	5.50083E-06	0.876231459	0.175476169	0.699363467	0.171189306
0.826235372	0.148635852	0.131003417	0.119306228	0.602004745	0.574546942
0.099895956	0.081386719	0.869222464	0.669223708	0.657415204	0.162735317
0.884333123	0.027328642	0.875495267	0.176397643	0.695284304	0.170692623
0.877359568	0.459130002	0.42214516	0.170397097	0.590590146	0.554770741
0.137144934	0.861710899	0.843251793	0.566110508	0.154537909	0.149001329
0.130474964	0.86362543	0.857300827	0.586599562	0.155248737	0.157357756
0.054281223	0.876178467	0.883858029	0.690595873	0.170965062	0.17563919
0.465732933	0.424686554	0.877413238	0.608796963	0.572153897	0.170579465
0.877044494	0.470151308	0.411807963	0.170200249	0.589701933	0.551188638
0.074750842	0.0749577	0.075104696	0.634140404	0.634349678	0.63470851
0.877266386	0.459484845	0.429417287	0.170407978	0.559799579	0.524422159
0.111478263	0.864127177	0.85526832	0.591995633	0.155859776	0.15510993
0.861125699	0.844105343	0.141736473	0.153054443	0.149131544	0.564572082
0.040846996	0.875860189	0.882596492	0.692894831	0.170421359	0.175444167
0.856905119	0.068744516	0.072114541	0.149485439	0.650176578	0.628936936
0.874659092	0.047263578	0.872333244	0.168269218	0.657002745	0.16470238
0.067038874	0.079846295	0.855211388	0.65252456	0.631952115	0.148685928
0.095632871	0.866050215	0.866164721	0.617464918	0.158999397	0.162264032
0.864870805	0.8553484	0.111455369	0.156212636	0.1551629	0.591942503
0.825496398	0.265298987	0.27750351	0.118745792	0.610524201	0.58359536
0.877263823	0.473383143	0.403991271	0.170626992	0.625800566	0.586124794
0.06886452	0.071361687	0.855142483	0.649839285	0.62970521	0.14896277
0.855902833	0.068700711	0.071907659	0.149480695	0.649861337	0.629942107
4.91174E-06	0.881311403	4.80577E-06	0.699197527	0.17514579	0.698866362
0.111409388	0.864315472	0.855837009	0.592182495	0.156332708	0.155540345
0.848612807	0.846738982	0.847411972	0.257158556	0.257107771	0.256611046
0.869009181	0.080059677	0.07707105	0.16256701	0.674728181	0.663107162
0.058583864	0.038253124	0.076845317	0.679583884	0.678887358	0.68020335
0.872210809	0.875833219	0.075940227	0.164763052	0.169437207	0.65057453
0.859307723	0.846104536	0.153989126	0.151985403	0.151159164	0.560976947
0.427116215	0.877672638	0.45054166	0.593066786	0.170823381	0.626463226
0.867090121	0.865779782	0.077361631	0.159779466	0.161395677	0.622641386
0.217858433	0.234970211	0.826924577	0.606454184	0.575750653	0.118986723
0.141831899	0.861111575	0.84465224	0.564611432	0.154195867	0.1500676
0.8583802	0.845231056	0.153950598	0.151599469	0.15087786	0.560935668
0.074725529	0.855665661	0.091416463	0.625983893	0.149369569	0.645542996
0.882327077	0.040844871	0.876983037	0.175022254	0.692802291	0.170989259
0.480834711	0.405825158	0.877458565	0.574737007	0.532197019	0.170543086
0.1417835	0.86162968	0.845788707	0.564578436	0.154320957	0.150165546
0.210651386	0.826220654	0.212428513	0.580048319	0.119335351	0.610140181
0.10213755	0.841529528	0.083410878	0.605494457	0.134669716	0.630723258
0.877392281	0.483654742	0.400189147	0.170611679	0.608685928	0.566079232
0.041147886	0.040898936	0.88159357	0.692404221	0.693021275	0.175271775
0.077522967	0.86882419	0.087397361	0.663917144	0.162661587	0.674562046
0.111402491	0.864818259	0.855469282	0.592130891	0.156350234	0.155307985
0.054329939	0.881865796	0.054619569	0.690952104	0.175505284	0.690425276
0.039645942	0.046723289	0.073635946	0.676731185	0.676883705	0.677081871
0.758129637	0.757352877	0.754277989	0.383857271	0.383860712	0.383188271
0.869129338	0.097683753	0.079044557	0.162747804	0.669930044	0.657294585
0.877445146	0.480584167	0.405719564	0.170599628	0.575311293	0.532918093
0.877042328	0.469956935	0.41197097	0.170162763	0.591476425	0.552728748
0.091708055	0.074560688	0.856320324	0.645509857	0.625555666	0.149959595
0.080429468	0.868995566	0.093075024	0.658250054	0.16265131	0.670065526
0.455299839	0.435484145	0.877330421	0.610041507	0.576773475	0.170596699
0.484939099	0.393081576	0.877769934	0.625168308	0.582584854	0.170807707
0.446336457	0.877316262	0.437046672	0.54606735	0.17058684	0.575730098
4.8629E-06	0.881224102	4.83427E-06	0.699060727	0.175102344	0.69891196
0.85955148	0.845826839	0.153959297	0.151787698	0.150957829	0.560997106
0.870565617	0.874216598	0.075967865	0.164347512	0.168437968	0.650479405
0.884094301	0.013710079	0.876437763	0.176004981	0.697589742	0.170843321
0.877666771	0.877852022	0.878849284	0.170725719	0.17071644	0.170898804
0.137216753	0.859972562	0.84444147	0.566353622	0.154186212	0.14899514
0.013934906	0.014319046	0.013848587	0.696971771	0.697446331	0.697449644
0.864485436	0.854694767	0.107655208	0.156447152	0.154009678	0.593711086
0.078633843	0.868958778	0.087447365	0.662752048	0.162636769	0.671746783
5.49174E-06	0.874636538	0.882752342	0.699383389	0.16997375	0.175422494
0.881363309	4.79652E-06	4.87145E-06	0.17536706	0.699325596	0.699691893
0.111393384	0.864637758	0.854780405	0.592065677	0.156363111	0.155308811
0.04135597	0.04108565	0.041725566	0.693075662	0.692823507	0.693710122
0.02747147	0.88181826	0.027734847	0.695166265	0.175376767	0.695219985
0.861829392	0.844287152	0.137244762	0.154721644	0.148995275	0.566119812
0.438679461	0.438674754	0.877380417	0.626608074	0.596273052	0.170750474
0.058491047	0.038630248	0.077059114	0.679889094	0.679027802	0.680307508
0.427152255	0.877742089	0.450575218	0.593066597	0.170814005	0.626454964
0.074801555	0.855796266	0.091455845	0.625976115	0.149452226	0.645659332
0.111508818	0.864026327	0.855016381	0.592059814	0.15592991	0.155125936
0.079474903	0.86894703	0.093274193	0.6592748	0.162667286	0.670389164
0.841624406	0.083375007	0.102203138	0.134852609	0.631127059	0.606268949
0.497021277	0.511941945	0.877506326	0.560743151	0.531737189	0.17063465
0.758393896	0.757550358	0.756447576	0.383912132	0.383416563	0.382580193
0.462010605	0.415444522	0.877428127	0.626341946	0.589650724	0.170592282
0.126121994	0.111472129	0.149286808	0.61589604	0.615216036	0.615337257
0.437104372	0.446359485	0.877397323	0.57577672	0.546047249	0.170617872
0.074861526	0.074854456	0.075046177	0.634095815	0.634355427	0.634627158
0.862713856	0.857241147	0.130386716	0.154632305	0.1567376	0.586471801
0.05426892	0.881278191	0.05459699	0.690858792	0.175468118	0.689966235
0.062475076	0.062473456	0.062428077	0.638279887	0.63846329	0.638514008
0.334419975	0.826086783	0.337968401	0.583409867	0.118648718	0.611330407
0.103145768	0.099128606	0.84163504	0.627693383	0.602570334	0.134983498
0.082453949	0.079466565	0.868762	0.675267807	0.663674766	0.162588071
0.014337982	0.881242224	0.014527322	0.697391829	0.175351446	0.69764527
0.151261065	0.140045403	0.096550737	0.6186079	0.616797111	0.615564406
0.231621844	0.22660012	0.825501085	0.6058168	0.58180321	0.119015147
0.074696442	0.074969701	0.075079156	0.634344426	0.634281074	0.634452326
0.868994362	0.090317207	0.077160727	0.162649901	0.671482582	0.659266574
0.846328207	0.14748857	0.860404935	0.15093624	0.562832397	0.153240809
0.871559684	0.874356343	0.047247855	0.164856189	0.168041438	0.657022533
0.825630021	0.278199482	0.28812146	0.118311526	0.610828168	0.582973905
0.878254235	0.462424551	0.415856788	0.170562154	0.626127859	0.589822173
0.392909677	0.877408082	0.484750565	0.58244456	0.17048016	0.625279711
0.149840383	0.13522988	0.825477233	0.603937862	0.57424963	0.119280947
0.392823366	0.877263083	0.48468965	0.582488455	0.170516993	0.625292008
0.877264595	0.437030638	0.446302988	0.170597023	0.575699295	0.546043036
0.423909862	0.877375962	0.465475786	0.573153881	0.170545833	0.609843186
0.424679038	0.877429225	0.465193249	0.573159269	0.170550018	0.609865056
0.487047937	0.401407163	0.877438571	0.607419144	0.564315309	0.170529306
0.878017514	0.470451637	0.420085082	0.170937402	0.559678588	0.521083858
0.877322517	0.470582919	0.411556727	0.170404137	0.590890612	0.551768939
0.461965954	0.415399795	0.87733858	0.626391854	0.589644735	0.170430218
0.09181832	0.074424557	0.85683639	0.645446544	0.625702297	0.149923181
0.868956273	0.098093761	0.080471583	0.162771261	0.666552141	0.65397667
0.410288775	0.877782244	0.481014207	0.517506384	0.170828378	0.55945797
0.099157884	0.841928607	0.103096925	0.602331177	0.134908357	0.627727469
0.459611451	0.429576868	0.877555282	0.55985135	0.524460349	0.170771094
0.825992539	0.136289064	0.127894127	0.119123939	0.605815284	0.577941641
0.443835173	0.446281072	0.87733591	0.608930288	0.578353822	0.170569369
0.480455479	0.405956366	0.877347556	0.575338675	0.532849953	0.170510465
0.480537503	0.405813737	0.877321739	0.57494022	0.532465148	0.170526653
0.4848686	0.393003184	0.877620905	0.625227794	0.582599821	0.17062525
0.103414204	0.841669642	0.12529417	0.598598091	0.135291695	0.623457763
0.41557264	0.877346897	0.469978068	0.536010195	0.170524487	0.575259847
0.041250883	0.882943155	0.0417886	0.692775933	0.175761381	0.692474225
0.882369564	0.041033382	0.040875938	0.175733663	0.692357015	0.692949717
0.470027872	0.411871523	0.877832977	0.590531211	0.552038595	0.170203107
0.062508585	0.062481378	0.062447437	0.638349087	0.638329988	0.638508556
0.439171051	0.878372812	0.43917575	0.596358507	0.170785855	0.626533288
0.874929869	0.047291426	0.871877254	0.168451539	0.656796422	0.164625605
0.058634111	0.038422905	0.077255571	0.679554602	0.679085231	0.680062078
0.076002136	0.871482887	0.875071772	0.650539714	0.164294952	0.16869861
0.435012264	0.877387202	0.454905724	0.574035358	0.17055526	0.607677743
0.059977215	0.060035339	0.059974445	0.640214866	0.64011633	0.639891867
0.419692823	0.877329814	0.470157477	0.521015494	0.170586149	0.559614086
0.0542757	0.87766886	0.882601253	0.690500496	0.171054447	0.175039185
0.448678197	0.439626102	0.877373074	0.559896948	0.527576652	0.170540871
0.103203783	0.078868522	0.856376442	0.64368931	0.623583838	0.14962767
0.214909044	0.824895048	0.204459559	0.579553023	0.118829525	0.609280585
0.841639571	0.124896099	0.103691151	0.135310995	0.623016573	0.598056153
0.877409836	0.469814707	0.415577741	0.170550893	0.575409971	0.536141403
0.465731632	0.424165156	0.87739048	0.608773669	0.572080199	0.170562355
0.091227579	0.078050495	0.868856931	0.667968149	0.657383505	0.162568515
0.147424265	0.860056712	0.84580335	0.562690494	0.15312268	0.150836235
0.877100907	0.459383282	0.429370539	0.170418433	0.559765072	0.524386086
0.258931456	0.272242434	0.826134925	0.60982347	0.58078161	0.118631745
0.877298652	0.43863866	0.438633916	0.170318848	0.626574753	0.596422982
0.872330649	0.873567794	0.047298068	0.165647078	0.168579821	0.656953986
0.498422319	0.51713531	0.877360183	0.559407493	0.531274599	0.170608774
0.403998388	0.877275037	0.473387932	0.586288619	0.170713046	0.625782069
0.866501369	0.865692748	0.104043433	0.159281804	0.16248539	0.615209502
0.124636851	0.103187018	0.841620384	0.62410365	0.598420172	0.135109891
2.79819E-06	2.99231E-06	2.86436E-06	0.699173329	0.699229323	0.699556572
0.165622491	0.15298547	0.095211934	0.617567358	0.617074336	0.615732686
0.080758401	0.85533317	0.104551858	0.623466583	0.149203724	0.643372206
0.448177499	0.435877221	0.877407645	0.575780178	0.542809219	0.170560899
0.085799154	0.869149091	0.082322747	0.664800092	0.162346114	0.677169705
0.124634464	0.103181198	0.841855596	0.623563236	0.598538676	0.135243471
0.059987941	0.060051118	0.059961589	0.640171053	0.640107502	0.640100481
0.087492854	0.078982971	0.868726555	0.672737224	0.66107636	0.162684998
0.102985721	0.099116874	0.84159589	0.627757157	0.602494662	0.13502267
0.027866066	0.027538485	0.881035264	0.694674331	0.695205379	0.174861773
0.100344359	0.842104652	0.113940249	0.600882462	0.135109338	0.625677984
0.066704978	0.078508527	0.854673241	0.654008484	0.633778606	0.148974012
0.128131623	0.321508215	0.224634869	0.622542204	0.622870875	0.620894893
0.480688808	0.401430821	0.877433528	0.589957423	0.54817679	0.170655139
0.867422885	0.866508068	0.095425797	0.159496039	0.162626365	0.617426345
0.070035384	0.065390526	0.085257094	0.670326517	0.671122198	0.672770058
0.87729713	0.458962975	0.425576793	0.170589992	0.575633763	0.539621648
0.055363762	0.872552281	0.87487546	0.654957627	0.16492371	0.169005885
0.133723938	0.862364203	0.843840634	0.567772063	0.155333313	0.148298254
0.09277242	0.099667237	0.841512628	0.629546429	0.604451036	0.134921476
0.499711113	0.516909409	0.877598058	0.559541305	0.530338181	0.170684379
0.884228184	0.013706689	0.876149376	0.175098412	0.697326008	0.170687124
0.841741786	0.083351802	0.102277586	0.13486905	0.631393746	0.605904924
0.078026119	0.868821211	0.087587499	0.663842842	0.162662471	0.674582457
0.137204226	0.860281488	0.844643509	0.56643746	0.153891867	0.148670804
0.099668564	0.841859881	0.092653173	0.604333382	0.134893591	0.629764804
0.876651295	0.883345078	0.040860502	0.170789738	0.1758857	0.693142342
0.462015956	0.415447571	0.87743651	0.626375538	0.589680028	0.170472368
0.869106742	0.090116196	0.076443776	0.162667823	0.6719506	0.659809013
0.469724949	0.411432889	0.877074252	0.590508881	0.552093431	0.170021709
0.059494539	0.063846325	0.062957611	0.652047161	0.652335711	0.652313592
0.841908124	0.092697085	0.099715456	0.134790173	0.629672083	0.604359529
0.871327838	0.875944203	0.075946048	0.16477371	0.169400176	0.650441421
0.876969577	0.480764479	0.401166145	0.170264929	0.589615006	0.547573205
0.01420561	0.88113263	0.01430831	0.69720748	0.175361412	0.696512041
0.092748537	0.099646199	0.841401339	0.629569936	0.604400434	0.134838612
0.43711082	0.446378709	0.877421961	0.575772974	0.546059048	0.170604596
0.86061029	0.846227256	0.147403598	0.15328497	0.150942351	0.56270716
0.477268613	0.41221968	0.877498645	0.609434243	0.569048993	0.170558315
0.877226352	0.470306892	0.41180851	0.170386225	0.590659471	0.551626891
0.081338395	0.869280045	0.099907249	0.656399883	0.162635192	0.66907238
0.473481164	0.404102645	0.877472003	0.625878152	0.58605023	0.170539635
0.877486139	0.480447321	0.405893477	0.170540853	0.575053857	0.532708438
0.415538764	0.877326173	0.469962096	0.536108777	0.170518767	0.575444222
0.459556087	0.429655872	0.877572605	0.559807274	0.524388985	0.170631544
0.866585957	0.866060928	0.088246564	0.159426671	0.162019274	0.619566153
0.877499749	0.462043785	0.415483286	0.170499693	0.62608784	0.58981773
0.758485824	0.756057588	0.75657784	0.38402395	0.383947117	0.383633968
0.046160741	0.047779455	0.052651156	0.657967547	0.659033785	0.659563491
0.874281019	0.047232174	0.870382315	0.168203753	0.65702928	0.164645804
0.04513834	0.872252319	0.874949829	0.659167739	0.165562154	0.168551681
0.84389522	0.137132071	0.861625407	0.148849905	0.566223333	0.154336039
0.860575525	0.845105858	0.147523776	0.152705605	0.150282297	0.562840211
0.462148813	0.415591932	0.877713113	0.626338175	0.589669162	0.170549871
0.133732991	0.862198441	0.843789387	0.567771068	0.155276425	0.148263915
0.137198982	0.861322824	0.843665135	0.566280894	0.154023972	0.148707383
0.841632215	0.113828859	0.100353754	0.135067159	0.626015977	0.60056374
0.876851081	0.450130804	0.426705287	0.170661291	0.626580602	0.5930387
0.877278524	0.440463969	0.443890564	0.170629994	0.608639931	0.578046962
0.85683207	0.123047541	0.864197238	0.156432284	0.588490728	0.155655401
0.459073596	0.425706224	0.877376069	0.57549593	0.539374261	0.17057276
0.458992151	0.421861769	0.87728482	0.590954007	0.554905908	0.170799223
0.877496661	0.462042326	0.415481643	0.170506376	0.626088313	0.589818166
0.841843245	0.092737713	0.099663073	0.134798953	0.629619064	0.604363494
0.883856863	0.040843844	0.875678095	0.17554613	0.692812085	0.170405023
0.014298618	0.881569095	0.014471419	0.69745539	0.175461947	0.697019732
0.086819719	0.86897176	0.08378637	0.665018489	0.162451949	0.677102263
0.100413323	0.842023467	0.113999633	0.601055739	0.135126539	0.625926474
0.872526001	0.874882699	0.075949162	0.165207126	0.168983067	0.650405093
0.014677667	0.014479534	0.881197186	0.697223754	0.697515176	0.175284114
0.087622348	0.079108842	0.868714449	0.672874182	0.66184952	0.162751142
0.33674164	0.825710486	0.33633206	0.586274847	0.118651146	0.615914114
0.000005493	0.876826422	0.882987283	0.699140315	0.170441425	0.175030472
0.863742765	0.855748647	0.116655424	0.155719188	0.155718415	0.590303395
0.877199449	0.447826345	0.432895701	0.170281102	0.590956618	0.558563979
0.86046389	0.844974668	0.147446084	0.153342442	0.150834304	0.562939246
0.404147868	0.87756691	0.473529968	0.586203821	0.170667088	0.625721374
0.059998326	0.06002797	0.059967061	0.639383334	0.639929282	0.640118838
0.415546825	0.877631831	0.462111948	0.589694725	0.170693058	0.626230432
0.081845465	0.079150832	0.868692025	0.675167773	0.663417441	0.162588181
0.402963389	0.877306156	0.485766861	0.564862454	0.170511949	0.607560161
0.480869144	0.410202833	0.87754596	0.559261619	0.517666888	0.170464129
0.079578679	0.071553961	0.855622689	0.647854856	0.627810616	0.148943024
0.086928358	0.078457043	0.868937234	0.672449488	0.661318183	0.162616954
0.39307738	0.877773976	0.48494642	0.582644665	0.170830437	0.625174867
0.448607348	0.439462207	0.877143793	0.559699192	0.527760745	0.170445154
0.054641336	0.054255212	0.881790127	0.690206237	0.690228509	0.175086489
0.877217161	0.484666259	0.392801782	0.170728814	0.62523417	0.582654859
0.449173763	0.440012957	0.878270266	0.559853331	0.527616842	0.170652378
0.153945555	0.859897669	0.846894016	0.560828032	0.152717012	0.151818678
0.867112213	0.86630108	0.088228638	0.15958906	0.162464796	0.619678939
0.874222602	0.050074381	0.872340022	0.168276799	0.658823532	0.164979762
0.014151338	0.014297307	0.881229558	0.697312763	0.697525041	0.175209608
0.236222267	0.244504494	0.825493893	0.610620027	0.579055556	0.118594447
0.87696925	0.480763542	0.401167723	0.170259966	0.589615045	0.547572003
0.05997049	0.039614297	0.079794824	0.679419689	0.67916394	0.679915023
0.877333655	0.440942724	0.443460321	0.170632455	0.608796186	0.578176603
0.874568006	0.065240485	0.871407905	0.168533164	0.652757876	0.164754547
0.476167577	0.41307648	0.87734973	0.610592587	0.57086622	0.170529875
0.877563618	0.877748049	0.877678459	0.170725928	0.171023268	0.170965102
0.841622915	0.124800032	0.103652941	0.135296051	0.623218072	0.598055455
0.866490297	0.865702018	0.081737926	0.159481977	0.16166865	0.621435798
0.459085231	0.422121826	0.877642738	0.590875356	0.555023839	0.170742374
0.825825936	0.135775047	0.129043772	0.119112777	0.606030359	0.577932813
0.01385854	0.014127574	0.013844361	0.697380753	0.696811725	0.696258266
0.476039961	0.413058634	0.87733605	0.61054543	0.570858908	0.170524598
0.130384779	0.863592976	0.857242539	0.586215104	0.154976709	0.157365001
0.147451954	0.859990128	0.846048264	0.562690854	0.153030722	0.150727992
0.85773145	0.130444007	0.862733492	0.15670562	0.586448887	0.154445659
0.40159582	0.877519477	0.480670167	0.548223701	0.170374237	0.589954085
0.877942647	0.449019528	0.43984514	0.170878799	0.55986426	0.527569708
0.877861076	0.464680489	0.489199067	0.170645789	0.560975226	0.53285515
0.876276511	0.882506781	5.49578E-06	0.17088698	0.175432787	0.699222533
0.877360338	0.48391884	0.399954422	0.170490255	0.608206944	0.565465226
0.874313373	0.055388543	0.87302256	0.168645035	0.655128882	0.164779704
0.868227839	0.865909795	0.07713511	0.16019224	0.161664494	0.623138156
0.448789571	0.439586793	0.87745317	0.559755923	0.527858679	0.170576249
0.877411149	0.462005775	0.415432299	0.170564376	0.626127809	0.589908239
0.450082075	0.426658414	0.876755238	0.626521454	0.593083278	0.170486684
0.039552391	0.046686667	0.073475606	0.676537034	0.677108554	0.677143665
0.841801347	0.113765652	0.100252322	0.135156845	0.626202909	0.600840613
0.883141944	0.054273113	0.876033364	0.175069113	0.690505976	0.170702004
0.044824245	0.049707233	0.052305523	0.657742781	0.658144044	0.658540185
0.877577077	0.47205195	0.479092903	0.170692522	0.561262479	0.532265995
0.459544572	0.429664404	0.877571963	0.55973251	0.524319921	0.17074082
0.124672825	0.103107961	0.841750315	0.62418492	0.598596986	0.135186922
0.427194129	0.877828366	0.450619523	0.59310385	0.170836635	0.626462957
0.855471575	0.079621965	0.071988482	0.149039878	0.647928708	0.627851044
0.865109088	0.077016414	0.866572839	0.160994292	0.623265674	0.159543194
0.844236848	0.137188683	0.861421178	0.148980021	0.566372307	0.154460839
0.420311207	0.87860854	0.470795271	0.521036953	0.170823042	0.559690722
0.059593524	0.064366737	0.062842368	0.651899945	0.65188552	0.652252317
0.411756865	0.877823919	0.47014345	0.551603201	0.17038015	0.590509978
0.082472674	0.868940858	0.083682491	0.663580511	0.162497698	0.677165071
0.147448203	0.859995876	0.845230522	0.562776976	0.152696971	0.150589892
0.054717355	0.05519726	0.05464939	0.690422582	0.690381947	0.690634236
0.425679787	0.877345221	0.459088471	0.539487281	0.170480701	0.575600238
0.303581315	0.826289028	0.292307146	0.584607208	0.11894355	0.612973095
0.855295838	0.111431053	0.86440975	0.154806714	0.592251801	0.155728603
0.866165692	0.08151856	0.867498525	0.161967093	0.621664726	0.159806944
0.87752288	0.462057123	0.41549272	0.170714823	0.626247599	0.58961353
0.099334147	0.081046928	0.869184973	0.668881116	0.65685893	0.16263505
0.566617147	0.87726116	0.553534051	0.537119394	0.170485862	0.565720628
0.84568011	0.141783713	0.860089416	0.14992785	0.56450348	0.153687279
0.130744595	0.10844861	0.151397006	0.615417482	0.613405653	0.614935271
0.410206503	0.877426763	0.4807564	0.517444715	0.1707366	0.559469982
0.871845031	0.873401064	0.047235808	0.16527788	0.168265436	0.658753779
0.069365468	0.065602267	0.085181477	0.670503815	0.670491826	0.67268825
0.875186852	0.065229288	0.871276748	0.168675205	0.652784268	0.16426558
0.080039386	0.869006971	0.092857142	0.658265626	0.162640817	0.670070878
0.083708537	0.868912681	0.085369427	0.660349517	0.162614626	0.674811945
0.868895434	0.090521646	0.077565891	0.162677817	0.67132673	0.659290257
0.877451513	0.469914918	0.415504197	0.170590739	0.575610708	0.536295589
0.044316067	0.049752611	0.051593587	0.658580965	0.659484892	0.658679073
0.013705152	0.875660546	0.882341572	0.697267093	0.170230633	0.174660257
0.438849696	0.877730448	0.438854423	0.596446117	0.17054741	0.626583638
0.040853959	0.87537094	0.883597318	0.693044479	0.16999385	0.175275247
0.10288147	0.133266596	0.180006982	0.617685751	0.62100315	0.621605156
0.082939342	0.080302745	0.868865751	0.675954744	0.663792428	0.162600617
0.269937514	0.278135663	0.826427996	0.610726848	0.580338543	0.119019017
0.426972069	0.877385204	0.450398853	0.593144731	0.170534484	0.626442815
0.419836624	0.877637807	0.470311801	0.52087374	0.17084875	0.55979425
0.881397606	0.04116679	0.041002864	0.175321573	0.692534167	0.693045406
0.859379836	0.845332099	0.154021278	0.152276535	0.151299574	0.560764793
0.092773415	0.099670548	0.841429632	0.62956618	0.604431152	0.134894195
0.497042015	0.512442471	0.877472164	0.559531662	0.531389081	0.170608366
0.059403382	0.064451201	0.063373428	0.652182578	0.651885082	0.651939285
0.843536593	0.137218048	0.860799385	0.148643636	0.566240317	0.154254394
0.074975785	0.85617339	0.091496799	0.62563663	0.149814726	0.645912863
0.86084866	0.844169917	0.141710624	0.153276015	0.149358323	0.564569699
0.133725969	0.862578203	0.843853074	0.567811923	0.155241292	0.148192197
4.79189E-06	0.881495052	4.91936E-06	0.699095121	0.175431405	0.699102223
0.054275874	0.876282534	0.883206527	0.690530548	0.170802452	0.17520142
0.841076119	0.083319057	0.102222208	0.134813016	0.631294683	0.605955212
0.08278477	0.869236072	0.100166234	0.657246632	0.162632096	0.669436044
0.425614371	0.877342371	0.459119543	0.539485955	0.170477129	0.575608034
0.426997281	0.877427695	0.450415882	0.593023268	0.170608571	0.626439999
0.067652998	0.06764877	0.067901114	0.636230394	0.636324968	0.636636714
0.069849535	0.065048275	0.08458893	0.670486554	0.670759065	0.672847889
0.876257112	0.882196884	5.49578E-06	0.170924002	0.175458189	0.699174146
0.856919442	0.068754993	0.072109563	0.149463791	0.650173674	0.62894879
0.841285149	0.083343136	0.102220109	0.134842674	0.631156791	0.605918146
0.450543969	0.427116185	0.877674639	0.626488025	0.593114513	0.170394918
0.073103118	0.855294092	0.071607637	0.629363484	0.149259642	0.649554772
0.480603827	0.406154915	0.87753401	0.574783518	0.532292302	0.170546516
0.86650133	0.865692996	0.104043348	0.159281815	0.162485347	0.615209723
0.014571227	0.881068672	0.014397161	0.697268446	0.175183422	0.697473134
0.126035197	0.112783019	0.152824461	0.616239642	0.614391541	0.614954509
0.124705974	0.103160929	0.841874226	0.623590608	0.598557105	0.135240388
0.209772624	0.826042147	0.208793117	0.577258608	0.119329457	0.606525106
0.055357739	0.871938454	0.873923916	0.654875704	0.164538169	0.168361211
0.08038981	0.85588583	0.10482579	0.623090305	0.149427385	0.642915779
0.040865849	0.875386181	0.884290912	0.693238371	0.169905452	0.175191437
0.855631551	0.116700977	0.863959073	0.155273505	0.590239297	0.155630185
0.435818582	0.877272139	0.448120987	0.542835262	0.170553377	0.575736324
0.013708538	0.87758431	0.884644511	0.69736737	0.171037564	0.175366493
0.854882087	0.068649987	0.072079942	0.149291557	0.649862566	0.629124199
0.856511755	0.123126028	0.863181268	0.156092745	0.588476937	0.154924342
0.85547426	0.11673518	0.86328212	0.155353855	0.590482927	0.155237803
0.87763446	0.448032591	0.433111863	0.170646589	0.591229647	0.558676811
0.414580608	0.877256988	0.474925149	0.569499314	0.170555267	0.60857945
0.877674624	0.459677849	0.429631814	0.170630534	0.559633324	0.524557694
0.825783102	0.227367148	0.221389595	0.118813374	0.608844636	0.581557786
0.877665849	0.484892503	0.393022811	0.170731824	0.625193361	0.582605721
0.014563537	0.880888355	0.014615474	0.697296353	0.175339082	0.696818344
0.447826337	0.877336587	0.444181749	0.577456092	0.170566494	0.607685572
0.867450861	0.86574482	0.081873069	0.15986566	0.161519871	0.620936168
0.872342959	0.87457832	0.048139342	0.165232688	0.168433251	0.658811009
0.444124817	0.877953911	0.439419256	0.562227535	0.170482666	0.591679681
0.027322546	0.876053211	0.883608767	0.695134308	0.170797998	0.17547217
0.857120748	0.123123728	0.863521964	0.156181416	0.588538962	0.155101842
0.499706628	0.516917974	0.877597197	0.559541329	0.530338546	0.170684525
0.857301204	0.13047515	0.862653725	0.156726779	0.586557334	0.154579499
0.499374809	0.517963611	0.877583474	0.559552005	0.530452016	0.170682167
0.475520768	0.413757329	0.877513512	0.608335293	0.569006044	0.170608923
0.864680403	0.856015811	0.116631779	0.155776499	0.155683448	0.590380649
0.075955	0.871153456	0.874246251	0.650527906	0.164473583	0.168482993
0.402842083	0.877386687	0.485732177	0.564934619	0.170493553	0.607591134
0.427012729	0.87746479	0.450437212	0.593042384	0.170486635	0.626488834
0.337787856	0.82616745	0.33545318	0.582846726	0.118657133	0.61030915
0.841642781	0.113792207	0.100340691	0.135067763	0.626061623	0.60057001
0.102142274	0.126146887	0.170951716	0.616678393	0.62115542	0.617599525
0.062507165	0.062486345	0.062416737	0.638197085	0.638267408	0.638545288
0.867013725	0.087682794	0.867412416	0.162019405	0.619286107	0.159550291
0.099089194	0.841819536	0.103069146	0.602509749	0.134921661	0.627713416
0.856061024	0.13048107	0.861508078	0.156474178	0.586506523	0.154437216
0.076947956	0.86815126	0.865320266	0.623139731	0.160432851	0.16143488
4.86204E-06	4.85947E-06	0.881663159	0.699320048	0.699088533	0.175289383
0.103115232	0.099096628	0.841532992	0.627710684	0.60259403	0.134962236
0.877671341	0.484894508	0.393026386	0.170736529	0.625184702	0.582604512
0.410338998	0.877684156	0.480880364	0.517468115	0.170555869	0.559455323
0.149075275	0.135419112	0.825966909	0.603305747	0.575322439	0.119465911
0.855797362	0.11145891	0.865021101	0.155426134	0.592140047	0.156799887
0.825660178	0.263728274	0.26643295	0.118856681	0.609637012	0.584802356
0.871950781	0.873995494	0.047120715	0.165354433	0.168304867	0.658683081
0.099646718	0.841911203	0.092706106	0.604392398	0.134881442	0.629764651
0.393294165	0.878205223	0.485161181	0.582698884	0.170796948	0.625202859
0.124386473	0.111842841	0.142834642	0.615226577	0.615323581	0.615953248
0.502726811	0.509623237	0.877319187	0.561397612	0.532016479	0.170633632
0.826085982	0.147867608	0.131101687	0.119233314	0.602207172	0.574849109
0.878134814	0.449030983	0.440014251	0.170698186	0.559758884	0.527814501
0.877278224	0.483765454	0.400040354	0.170523928	0.608324072	0.565679457
0.103177543	0.078919304	0.856328495	0.643487542	0.623741894	0.149753653
0.877543643	0.473519127	0.404135971	0.170570918	0.625962087	0.586066503
0.040479469	0.046132938	0.073959037	0.677010249	0.67862281	0.68051412
0.826590483	0.263073307	0.284365065	0.118733818	0.611444419	0.584093118
0.88247763	0.041070641	0.040880043	0.175682129	0.692273554	0.69299699
0.054324426	0.881773586	0.054620312	0.69092741	0.175517617	0.690488269
0.877494264	0.437861722	0.443603364	0.170586914	0.590778761	0.561176928
0.139832861	0.130819339	0.825582274	0.606109034	0.577391136	0.119083246
0.446357486	0.877381006	0.437090534	0.546049051	0.170614576	0.575751459
0.860944463	0.844649051	0.141744072	0.15364592	0.149679752	0.564572062
0.067733182	0.0675836	0.067879487	0.636455181	0.636433497	0.636740622
0.855951444	0.066597075	0.079163366	0.148940225	0.652133632	0.631676317
0.102165552	0.841510735	0.083386878	0.605544751	0.134690954	0.630674889
0.882223129	5.49856E-06	0.874411082	0.17445775	0.699390555	0.170137464
0.013946444	0.014389043	0.013851118	0.696998723	0.696832284	0.696175356
0.844455274	0.141766353	0.861171572	0.149525913	0.564644411	0.153481647
0.855580983	0.123111414	0.862323485	0.155928601	0.588452062	0.155014568
0.01422137	0.881065831	0.014326965	0.697257758	0.175364759	0.69654844
0.125979059	0.303337124	0.209686943	0.623033203	0.623809387	0.621183201
0.465822939	0.424266514	0.877246223	0.6087244	0.57203711	0.17057238
0.874424502	0.055368692	0.871496397	0.168385607	0.654928861	0.164247788
0.864804284	0.077046929	0.867274738	0.161037069	0.622821114	0.159836062
0.013823816	0.014157223	0.013887773	0.696733217	0.697195913	0.696031295
0.051858239	0.053662412	0.058273427	0.654381807	0.654153488	0.654400293
0.027327164	0.876673018	0.883344387	0.695259749	0.171230282	0.175733112
0.871688383	0.874759152	0.06517659	0.164803552	0.168590661	0.652830351
0.877455654	0.459139625	0.422287375	0.170349757	0.590580723	0.554804129
0.05426029	0.881605147	0.054649363	0.69050269	0.175342822	0.68997963
0.045487754	0.048221882	0.054005698	0.655607821	0.656529583	0.655514453
0.059975189	0.060048388	0.059987632	0.640128777	0.640108542	0.639857581
0.480830728	0.410109623	0.87741211	0.559332162	0.517537472	0.170560383
0.87752309	0.462057216	0.415492838	0.170714805	0.626247772	0.589613409
0.425581867	0.877233572	0.459056039	0.539473877	0.170491349	0.575603567
0.845778324	0.15392441	0.859283779	0.151287729	0.560794871	0.152218147
0.419764191	0.877586678	0.47032177	0.521036672	0.170614624	0.559629916
0.439038145	0.878107166	0.439042869	0.596310149	0.171215291	0.626726083
4.88056E-06	0.881902234	4.77884E-06	0.699133054	0.175449387	0.699287322
0.087883287	0.867113941	0.866125914	0.619836854	0.159487503	0.162075159
0.041490379	0.881805261	0.041654352	0.692941829	0.175270729	0.692824877
0.865613802	0.081500633	0.867655635	0.161397587	0.621136912	0.159684204
0.413979147	0.877405186	0.4757382	0.566060388	0.170672845	0.605477832
0.884293331	0.04084369	0.875653644	0.175455363	0.692831624	0.17025428
0.826058316	0.227806739	0.223795365	0.118744306	0.60991211	0.581922181
0.083429122	0.102227206	0.841801397	0.631216827	0.605824193	0.134724861
0.473358529	0.403962104	0.877209514	0.625712269	0.586322743	0.170557204
0.86703792	0.86639978	0.088356347	0.159598301	0.162418	0.619668699
0.066775899	0.077916359	0.855484538	0.653614074	0.63408978	0.149210639
0.866558346	0.103994762	0.866786237	0.162745171	0.615338741	0.159295668
0.111399999	0.865668419	0.856471699	0.59217592	0.156309376	0.155338637
2.77928E-06	2.91479E-06	2.84979E-06	0.699248164	0.69930598	0.699533054
0.841638819	0.124790027	0.103625741	0.135275233	0.623431834	0.598011199
0.041159557	0.040953669	0.881298499	0.69272238	0.69310955	0.174909721
0.877284138	0.469666788	0.415556141	0.170602035	0.575335977	0.536062664
0.047155595	0.871544528	0.87433168	0.656828104	0.164567195	0.1681786
0.473627546	0.404242589	0.877759251	0.625847047	0.586096074	0.170784991
0.459018279	0.425718573	0.877374847	0.575452771	0.539366225	0.17057388
0.041123019	0.040948254	0.881203019	0.692441218	0.692964467	0.174989048
2.77878E-06	2.97417E-06	2.88656E-06	0.699165375	0.699028871	0.69924942
0.82513275	0.147877521	0.131412773	0.119020719	0.604119269	0.576021398
0.065221511	0.871614067	0.87498116	0.652683487	0.164373836	0.168659267
0.343476383	0.825320017	0.330265954	0.583093808	0.118451802	0.613434223
0.013705955	0.876485892	0.883596468	0.697231267	0.170876841	0.175598884
0.44778889	0.43251204	0.877158139	0.591121286	0.558101505	0.170473382
0.877143405	0.48071895	0.401517515	0.170450056	0.589626038	0.547709675
0.411480837	0.877205123	0.469803916	0.551627721	0.170227009	0.590522758
0.10315393	0.099062759	0.841521323	0.627695418	0.602613082	0.134976474
0.877384989	0.46984253	0.415538053	0.17059417	0.575604824	0.536332669
0.858639491	0.845384069	0.153943342	0.151576241	0.150757808	0.560998452
0.074850421	0.855793107	0.091322612	0.625997305	0.149449292	0.645675413
0.070662722	0.051232398	0.082384603	0.67348211	0.672548069	0.674886591
0.877332586	0.459000906	0.425570891	0.17058365	0.575594821	0.539603049
0.860283292	0.84512894	0.147500816	0.152699181	0.15028862	0.562878128
0.448798772	0.439704998	0.877572392	0.559753671	0.527832121	0.170700168
0.884258871	0.027325488	0.876957706	0.175745486	0.695192541	0.171438609
0.877645711	0.877756126	0.877904657	0.170708888	0.171034616	0.170979957
0.44629994	0.877286014	0.43705175	0.546059305	0.170537205	0.575732982
0.100628174	0.84187551	0.113927112	0.601060039	0.135129734	0.625918539
0.014521335	0.881354845	0.014625234	0.697349715	0.175490304	0.697144906
0.077010672	0.868685368	0.865972211	0.623207504	0.160260994	0.161566248
0.091767538	0.074396005	0.85523046	0.645417745	0.625851831	0.149172
0.867455313	0.866517998	0.095462035	0.159495979	0.162632713	0.617428304
0.877402869	0.469841186	0.415530893	0.170595426	0.575594019	0.536264494
0.424399099	0.877392479	0.465095054	0.573175512	0.170548186	0.609863377
0.059626145	0.064753806	0.06301622	0.652024103	0.651695768	0.652088565
0.056361245	0.044770058	0.075140191	0.674616565	0.67468828	0.6755269
0.092757604	0.099652123	0.841404101	0.629567715	0.604406883	0.134843381
0.104214067	0.866743088	0.866773472	0.615115953	0.159233444	0.162909543
0.410245391	0.877658578	0.480938297	0.517432674	0.170785853	0.559478374
0.48080652	0.41004543	0.877322731	0.559306698	0.517619641	0.170493916
0.041435042	0.882385603	0.041776619	0.692830876	0.175579896	0.692601693
0.091689497	0.074358379	0.855036823	0.645368815	0.625636168	0.148767857
0.448804563	0.439680358	0.877559367	0.559817568	0.527492594	0.170695391
0.088189164	0.079882489	0.868809184	0.672295176	0.660737269	0.16267137
0.442899383	0.448496513	0.877366047	0.606547043	0.576646486	0.170596149
0.877392386	0.469819479	0.415586435	0.170595746	0.575599595	0.536324506
0.213388468	0.826004486	0.212012262	0.578054775	0.119304497	0.606374027
0.072939288	0.854467188	0.071408975	0.629339177	0.148814582	0.648958959
0.845526259	0.846249124	0.847045802	0.257844076	0.256689402	0.258182353
0.877909268	0.437590064	0.444425674	0.170666497	0.5909791	0.56153248
0.221757875	0.826282285	0.212854635	0.580055897	0.11917411	0.60916437
0.415511902	0.877548737	0.462064466	0.589670052	0.170767631	0.626194663
0.861358487	0.844842274	0.137197297	0.153979724	0.148618676	0.566207633
0.041474515	0.04107195	0.041924444	0.692937669	0.692322773	0.693732538
0.877025688	0.43850214	0.438497526	0.17033481	0.626497541	0.596505974
0.462010535	0.415444446	0.877427981	0.626341968	0.589650704	0.170592264
0.392925288	0.87745509	0.484780515	0.582448605	0.170516442	0.625309121
0.087737553	0.079275775	0.868542241	0.672864267	0.661814776	0.16279656
0.877853028	0.437416094	0.444566605	0.170670441	0.59125163	0.561599112
0.424397266	0.877401304	0.465109675	0.573179494	0.17054663	0.609861988
0.411413943	0.87706893	0.469736542	0.551709186	0.170293189	0.590547999
0.497008578	0.512421768	0.877472373	0.559547716	0.53139094	0.170609443
0.137255221	0.861296609	0.844783021	0.566364162	0.154333328	0.149206074
0.872583944	0.875333872	0.075941973	0.165216611	0.168993445	0.650360319
0.877790315	0.437484485	0.444456075	0.170675283	0.591268697	0.561600144
0.876133431	0.882543389	0.040843963	0.171020909	0.17537573	0.692851397
0.086917287	0.078742871	0.868681839	0.672425689	0.660207617	0.162656051
0.848230199	0.846599264	0.847701438	0.25820242	0.257354257	0.257106963
0.877458754	0.462027972	0.415457848	0.170562709	0.626119634	0.589861066
0.205398006	0.825210166	0.21845718	0.578386626	0.118783033	0.606867813
0.060014632	0.060039285	0.059886802	0.639877271	0.640162912	0.639923116
0.437114127	0.446377592	0.877424591	0.57580054	0.546053409	0.17057524
0.266320657	0.274426967	0.826571124	0.61218889	0.5838538	0.118843503
0.877349753	0.440439829	0.444219327	0.170616584	0.609865509	0.579584302
0.877349009	0.440465423	0.444177694	0.170618357	0.609870266	0.579581459
0.87807905	0.448985515	0.440006658	0.170691197	0.559760119	0.527788543
0.843979148	0.846138016	0.846390722	0.256026147	0.25671183	0.256826294
0.877892474	0.470444324	0.419958506	0.17067435	0.559698262	0.520971588
0.3929207	0.87742655	0.484758354	0.582439865	0.170484183	0.625286752
0.107687299	0.865388593	0.854951905	0.593987655	0.15701061	0.15483145
0.455044077	0.435879034	0.877394034	0.611012516	0.577443556	0.170591141
0.072992425	0.855306903	0.071498862	0.629437529	0.149103021	0.649530725
0.877408337	0.469838435	0.415555252	0.170557609	0.575425622	0.536153005
0.480768857	0.401474912	0.877558719	0.590035138	0.548257734	0.170413705
0.344314054	0.826319861	0.330450452	0.58391791	0.118788153	0.615179215
0.045606295	0.047868106	0.053402849	0.655725042	0.656599851	0.656798873
0.841852739	0.103001884	0.099087025	0.135033614	0.627747271	0.602569489
0.872064965	0.875147232	0.065200297	0.164976335	0.1687663	0.652928998
0.062475816	0.062488281	0.062449559	0.638290389	0.638245991	0.638515374
0.825814848	0.193100933	0.189953515	0.118847028	0.609689628	0.579565319
0.871529052	0.875768661	0.065176624	0.165088743	0.169426744	0.652781144
0.437923144	0.444825426	0.87743897	0.592789028	0.563257458	0.170359571
0.130356186	0.300283401	0.201422553	0.621598299	0.625334532	0.623668735
0.435915892	0.877325937	0.448013476	0.542860738	0.170622108	0.575863964
0.871172465	0.874649338	0.055341295	0.164180033	0.168228485	0.654904016
0.856075017	0.111457666	0.864664749	0.155653538	0.592150092	0.156742903
0.458968918	0.425705923	0.877331522	0.575670229	0.539488248	0.170592205
0.877229718	0.470318322	0.411786604	0.170386997	0.590659783	0.551626731
0.877387811	0.462767081	0.420678938	0.170662909	0.609489894	0.572980299
0.092030348	0.079331767	0.86940286	0.668124171	0.657099906	0.162656384
0.868774555	0.084568766	0.076493185	0.162673027	0.672630935	0.661504155
0.085632474	0.869233175	0.082928114	0.665419693	0.162509496	0.677491322
0.429577773	0.877536266	0.459601456	0.524475057	0.170526605	0.559717969
0.876087425	0.884490714	0.054281901	0.171302913	0.175772298	0.690619558
0.877381285	0.451121933	0.431872385	0.170515505	0.608800329	0.575394712
0.825665198	0.275248604	0.275890413	0.118621292	0.610037005	0.583159583
0.07034439	0.051823407	0.083429557	0.673010709	0.672538337	0.67407256
0.081784653	0.867641194	0.866031094	0.621348346	0.160042983	0.161573653
5.49376E-06	0.876268693	0.883287269	0.699077253	0.17068061	0.175271541
4.88851E-06	4.89362E-06	0.881707025	0.699241944	0.699164141	0.175408819
0.415526352	0.877253289	0.469902684	0.536049727	0.170522422	0.575345462
0.484751176	0.392891083	0.877390128	0.625414301	0.582496132	0.170591435
0.877402475	0.459190817	0.42212707	0.170259477	0.590674053	0.554774274
