Vam	Vbm	Vcm	Iam	Ibm	Icm
0.054216359	0.881150238	0.054614974	0.690785166	0.175275735	0.690214345
0.876397862	0.076051215	0.873216771	0.169681062	0.650585329	0.164935752
0.425122747	0.877383816	0.464217749	0.57349549	0.170618322	0.609711294
0.419875117	0.87764991	0.470280765	0.521014225	0.170741072	0.559676678
0.866745478	0.866398384	0.103976294	0.159499863	0.162946192	0.615319277
0.841960259	0.103163719	0.0992467	0.134923294	0.627878372	0.602551968
0.877240233	0.492555233	0.493721012	0.17057017	0.561271055	0.531834907
0.100080777	0.841997999	0.114128657	0.600471126	0.135039974	0.625755442
0.841867965	0.125192019	0.103092282	0.135188675	0.62361034	0.598518931
0.147470175	0.859707123	0.84551192	0.562642349	0.152750977	0.150341045
0.113766907	0.100064871	0.841799193	0.626114057	0.600896945	0.135082255
0.860370339	0.846473754	0.147467083	0.153347809	0.151122712	0.562585734
0.133771915	0.86285133	0.843270129	0.567891157	0.154941916	0.147735872
0.048171719	0.045492466	0.053264286	0.656263029	0.656130301	0.6560229
0.875807304	0.055365858	0.87122193	0.168648809	0.654760328	0.164200734
0.882760443	0.040854399	0.875598011	0.175297059	0.692980094	0.170630655
0.826628614	0.195872619	0.19628979	0.119531305	0.610854608	0.580758427
0.875176769	0.882691763	0.02732822	0.170507876	0.174782129	0.695214894
0.092530174	0.080233265	0.869053594	0.669686073	0.656872483	0.162694815
0.126171937	0.826800693	0.143706185	0.575039224	0.119245063	0.603519044
0.877316813	0.448702024	0.439538797	0.17052741	0.559872444	0.527656181
0.076072387	0.869300074	0.084850694	0.661312792	0.162503155	0.673564957
0.12262721	0.130079891	0.205512056	0.618392621	0.619253129	0.619673667
0.040932121	0.881561553	0.041224965	0.692847575	0.175251795	0.692721577
0.081027922	0.078718541	0.868902717	0.674198196	0.662245314	0.162463334
0.875608192	0.88375184	0.013707435	0.170407625	0.175628452	0.69736929
0.462099527	0.415546588	0.877618687	0.626240388	0.589593973	0.17066219
0.880797711	4.90184E-06	4.83456E-06	0.175256934	0.698862022	0.699184335
0.85507677	0.079695872	0.071534869	0.149078593	0.647856325	0.627689198
0.841506329	0.113578032	0.100467014	0.135110065	0.625831637	0.600569726
0.401698521	0.877726303	0.481091893	0.548319937	0.170610349	0.590298922
0.865152954	0.077096466	0.867637821	0.161134765	0.623370862	0.159893731
0.876857851	0.438418227	0.438413473	0.170161691	0.626648698	0.596322781
0.872598136	0.875640678	0.075938711	0.165083139	0.16927037	0.650388637
0.470176108	0.419621616	0.877273683	0.559615122	0.521038949	0.170672241
0.877621252	0.459628616	0.429641155	0.17070531	0.559839792	0.524294761
0.872335178	0.874464282	0.075962043	0.165296383	0.168611711	0.650589252
0.863999067	0.865120027	0.863461446	0.218795587	0.218940415	0.219260192
0.873437085	0.055330455	0.869931865	0.168145753	0.654853123	0.164343834
0.866006304	0.866407288	0.104022352	0.158985748	0.162855663	0.615306684
0.480496168	0.405966833	0.877314846	0.575097851	0.532576789	0.170572691
0.125127455	0.103206603	0.841860031	0.623675461	0.598380798	0.135326822
0.841714433	0.092764229	0.099797929	0.134783999	0.629516242	0.603996596
0.856014938	0.07977673	0.07157888	0.149208478	0.64803311	0.627500944
0.877158207	0.458845069	0.421921835	0.170222991	0.590599776	0.554663554
0.877436151	0.480578701	0.405643416	0.170586757	0.575342291	0.532959236
0.856158033	0.103017178	0.07886908	0.149658097	0.64347611	0.623868204
0.874729098	0.049680293	0.872295032	0.168387644	0.658469518	0.165157934
0.159521501	0.09178331	0.165835864	0.619710376	0.616588186	0.620693258
0.877669064	0.447839035	0.43303796	0.170505807	0.59100663	0.558338177
0.882595093	0.027325746	0.876652928	0.175342162	0.695186078	0.171041241
0.427216481	0.877865676	0.45063447	0.59290432	0.17052166	0.626534839
0.028070264	0.882130873	0.028402789	0.694879258	0.175535588	0.695944948
0.438540535	0.445023828	0.87770465	0.591026128	0.561660101	0.170806698
0.11152998	0.865186539	0.855008048	0.5922049	0.156214915	0.155243533
0.415673783	0.877464674	0.470037155	0.536126755	0.1705831	0.575462997
2.76727E-06	3.00804E-06	2.90954E-06	0.698898939	0.698985262	0.69953611
0.0852084	0.86878605	0.081868041	0.663140092	0.162434593	0.675279666
0.435518967	0.877382262	0.454285438	0.576631891	0.170549159	0.6099768
0.422136108	0.877539512	0.459296573	0.554585931	0.170532091	0.590399099
0.874090248	0.873974996	0.873363221	0.188817413	0.189236766	0.188732606
0.877134741	0.450274901	0.426845158	0.170584084	0.626432982	0.593277682
0.877387067	0.448091319	0.435873685	0.170576748	0.575744333	0.542810342
0.111537724	0.864595895	0.856233809	0.592177507	0.156300861	0.155310348
0.87734886	0.458991784	0.425610936	0.170566462	0.575596094	0.539532721
0.320606837	0.332174446	0.825109698	0.614811624	0.586449169	0.118503053
0.054220204	0.881416842	0.054580893	0.69019367	0.175388456	0.690051372
0.877410656	0.461651921	0.42219965	0.170577842	0.609530736	0.573124694
0.880984697	0.014149944	0.014315631	0.175179914	0.696350236	0.697130807
0.863946996	0.856287567	0.116668402	0.155746719	0.155903041	0.590241669
0.877089562	0.461842009	0.415274248	0.170668283	0.626247541	0.589675041
0.859871163	0.847166826	0.147441734	0.152859203	0.150665972	0.562570853
0.054639785	0.054204699	0.881854507	0.690107991	0.69013334	0.175411015
0.074161793	0.855547601	0.091179775	0.625868632	0.149218635	0.645815444
0.873120168	0.875955188	0.0759301	0.165139441	0.168656884	0.650537813
0.154031469	0.85869735	0.845986657	0.56089358	0.151916885	0.151042244
0.425510309	0.877405693	0.464224721	0.573547314	0.170588386	0.609891665
0.48082844	0.405703356	0.877440927	0.575035904	0.532606348	0.17056262
0.102263718	0.841660519	0.083379279	0.605964848	0.134771573	0.631442619
0.074137471	0.856285905	0.091137008	0.62598134	0.149278961	0.645749145
0.877755298	0.878078293	0.877216257	0.171042407	0.170965081	0.170575649
0.054348423	0.051417737	0.056804802	0.654048743	0.654313766	0.65439552
0.075073007	0.077785774	0.854608637	0.650308246	0.629125243	0.14862891
0.842469985	0.137292715	0.860528818	0.148770639	0.566045177	0.154241035
0.475692757	0.414126717	0.877541466	0.608296745	0.568762678	0.170584022
0.481007705	0.410410105	0.877883405	0.559336014	0.517655812	0.170480359
0.100679876	0.082065662	0.868820824	0.666945223	0.655334712	0.162740697
0.877796706	0.459699213	0.429734444	0.170756377	0.559760965	0.52446358
0.877556779	0.448828208	0.439654714	0.170750412	0.559699652	0.527746223
0.087986714	0.866878646	0.86572068	0.619259913	0.159334396	0.161949069
0.863636711	0.856542977	0.11663734	0.155733721	0.155956143	0.590285282
0.027322737	0.875917861	0.883164483	0.695126374	0.170534089	0.175420111
0.080084312	0.869258315	0.081892649	0.663488721	0.162384773	0.675783567
0.437078639	0.446346246	0.877358264	0.575743148	0.546079052	0.170601689
0.047211332	0.871270452	0.874178053	0.657099834	0.164642196	0.168118268
0.459466142	0.429529853	0.877345969	0.55971142	0.524379305	0.170628333
0.054283138	0.876356658	0.883548819	0.690664657	0.170999727	0.175379093
0.8773899	0.459052611	0.425610179	0.170620745	0.575756687	0.539658559
0.041123964	0.040750028	0.881390823	0.692384523	0.692732555	0.175455757
0.081155645	0.079344175	0.869117172	0.67412504	0.662183128	0.162532705
0.054228401	0.881154168	0.054621122	0.690672669	0.175272428	0.690259195
0.425345932	0.877293276	0.464269607	0.573545315	0.170625652	0.609768814
0.411765211	0.877479409	0.470372509	0.551176107	0.170681164	0.590165759
0.855627517	0.06906226	0.071385245	0.149175892	0.649582353	0.629530546
0.43585603	0.877254635	0.448053433	0.542698527	0.17052456	0.575581956
0.877454424	0.470287836	0.419672634	0.170839442	0.559706525	0.521065308
0.054222785	0.881276437	0.054626946	0.691016139	0.175458187	0.690169838
0.447997002	0.435913317	0.877214771	0.575483628	0.542730818	0.170594584
0.438510487	0.438505804	0.877042002	0.626400268	0.596328571	0.170155618
0.071757177	0.855702793	0.079728099	0.627654519	0.14935686	0.647748161
0.041041697	0.041388288	0.04151895	0.692155934	0.692690769	0.692276352
0.855645249	0.079796453	0.071581787	0.149625055	0.647761109	0.627684241
0.864580034	0.854854162	0.107753422	0.156624114	0.15452971	0.593996396
0.040883087	0.881013362	0.041072968	0.692895782	0.175169907	0.692440996
0.425560186	0.877312538	0.459085957	0.539557481	0.170553284	0.575618421
0.013748926	0.014264543	0.014386807	0.696988275	0.697348125	0.696907215
0.860959153	0.84622458	0.147399745	0.153279552	0.150986777	0.562692027
0.865607113	0.076968257	0.867848204	0.161266208	0.623240188	0.160075326
0.099778824	0.841656344	0.092890015	0.604361295	0.134874195	0.629583579
0.134393674	0.825211766	0.142316536	0.576480575	0.119004895	0.605329656
0.874687458	0.076010812	0.871174539	0.168702304	0.650364686	0.164551132
0.862541804	0.864596354	0.863563874	0.219088987	0.219602561	0.219367909
0.876904409	0.884182961	0.054278012	0.170865112	0.176011515	0.690549244
0.877028495	0.473257154	0.403883261	0.170371018	0.625890557	0.585978639
0.877336091	0.436908437	0.444542776	0.17046838	0.59179156	0.562260114
0.060172918	0.042844294	0.077197123	0.675285083	0.674900894	0.676618859
0.092782141	0.099562039	0.84169351	0.62962622	0.604570944	0.13489863
0.872554574	0.874226318	0.075962747	0.165035582	0.168467879	0.650511042
0.078154777	0.081027284	0.868625684	0.676305812	0.665666933	0.162441895
0.083851661	0.869269334	0.099917131	0.655202115	0.162705217	0.667583435
0.071659987	0.855931186	0.079708491	0.627461192	0.149367039	0.647812514
0.825053877	0.145937782	0.128328001	0.118788173	0.603454294	0.574520617
0.111523657	0.863869378	0.855074209	0.592140493	0.156123032	0.155223389
0.092014847	0.079760552	0.869033802	0.670187879	0.657606331	0.162623963
0.469726103	0.411524235	0.877171008	0.590825206	0.551519943	0.170461527
0.883238517	0.01371073	0.875856282	0.175376653	0.697607157	0.170684419
0.415518768	0.877584548	0.462092464	0.589774497	0.170591106	0.626206503
0.473381653	0.403992017	0.877262636	0.625956816	0.586111081	0.170683252
0.401439241	0.877218977	0.480762212	0.548802172	0.170116064	0.590704556
0.211249607	0.826515854	0.213456018	0.58309395	0.119232902	0.613314294
0.855161617	0.107854816	0.864191381	0.15444045	0.593930352	0.156557388
0.412082883	0.87784859	0.470391181	0.55148353	0.170703519	0.590532678
0.079088407	0.856243098	0.102993297	0.623772238	0.149903499	0.643246812
0.429914522	0.878214292	0.459931172	0.524317169	0.170859783	0.559886454
0.141852388	0.860112508	0.844635636	0.564476902	0.152889466	0.149327264
0.067778144	0.067656317	0.067980465	0.636296087	0.636478546	0.636767494
0.09925525	0.841282464	0.102967723	0.602610254	0.135148895	0.627698994
0.028500259	0.028148776	0.882810205	0.694821264	0.695392795	0.175428497
0.08302605	0.869001561	0.093460157	0.655787778	0.162700647	0.668500893
0.877301273	0.473109116	0.410242839	0.170585603	0.608833521	0.569236461
0.868965534	0.077689423	0.081343748	0.162461376	0.678411518	0.66576428
0.154035704	0.85947734	0.846577413	0.56087379	0.152159342	0.151387056
0.083267751	0.083779631	0.083717619	0.632418003	0.632142944	0.632520724
0.404097411	0.877462157	0.473476253	0.58603077	0.170564342	0.625891362
0.130505423	0.862582865	0.85658229	0.586459989	0.154659898	0.156734522
0.841693399	0.083393306	0.102254496	0.134784322	0.631089506	0.605976358
0.108037668	0.864609432	0.854622881	0.593673531	0.156644475	0.154494416
0.855075513	0.107725604	0.864708556	0.154592303	0.593938508	0.156588603
0.086220773	0.076226274	0.86911716	0.672137452	0.660428287	0.162628775
0.873189442	0.872102629	0.873525916	0.188709844	0.18860797	0.188375673
0.141752921	0.860784569	0.84601743	0.564507667	0.15378092	0.15006522
0.413057495	0.877444349	0.475865368	0.568260311	0.17057366	0.608116434
0.877385506	0.480740069	0.401413036	0.170240584	0.590185681	0.548030568
0.127342525	0.827556417	0.145356258	0.574597094	0.119343645	0.603527153
0.169737108	0.091050531	0.179824987	0.612601711	0.616466057	0.617351653
0.847053993	0.153949192	0.859764005	0.151825558	0.560903083	0.152462682
0.877246097	0.461916314	0.415357287	0.170525534	0.626155329	0.589735307
0.027418432	0.076942383	0.076682217	0.678623492	0.680191741	0.67857689
0.014120507	0.88108939	0.014421039	0.69714359	0.175195943	0.697412541
0.877311883	0.480571252	0.40562843	0.170567612	0.575165017	0.532834043
0.432853343	0.877453591	0.448008583	0.558432767	0.170574473	0.591530957
0.844190282	0.133702288	0.862053434	0.14813102	0.567819068	0.155024205
0.866492634	0.095572237	0.866786471	0.162517883	0.61762815	0.159062364
0.126882209	0.825367101	0.144675958	0.574795414	0.11912183	0.603747046
0.078830617	0.855550124	0.102982656	0.623701408	0.149717564	0.643386267
0.070919794	0.065460303	0.084718968	0.669608155	0.670155542	0.670745589
0.88277795	0.054260389	0.875834345	0.17503812	0.69035403	0.17048602
0.123176621	0.863336438	0.855567391	0.5884142	0.155230898	0.156508828
0.842050543	0.125043882	0.103337698	0.135183626	0.623879632	0.598421215
0.123188705	0.863447516	0.85617948	0.588460894	0.155587505	0.156628724
0.877843141	0.462219737	0.415649951	0.17066233	0.626214019	0.589690091
0.867893966	0.865718866	0.087803664	0.159540535	0.16174335	0.619675336
0.077049007	0.867765555	0.865686356	0.623142475	0.159968501	0.16193499
0.081755467	0.079672598	0.869276953	0.673668612	0.661893487	0.162545376
0.085744937	0.077257622	0.868971071	0.673127654	0.661082189	0.162439929
0.125160058	0.103086716	0.841909421	0.623624039	0.598714954	0.135230851
0.876598559	0.882500436	0.013706054	0.170630077	0.174829433	0.69727729
0.877253404	0.480597466	0.401370283	0.170099882	0.589943853	0.548331259
0.877372676	0.461613804	0.422167868	0.170574495	0.60950623	0.573136521
0.841610937	0.083376192	0.102234546	0.134713255	0.631076216	0.60576483
0.87768227	0.470341821	0.419859206	0.170767734	0.559669362	0.521005463
0.869299296	0.091968877	0.079181847	0.162658948	0.672447838	0.658762243
0.859362923	0.846998747	0.154007627	0.1522392	0.151378291	0.560777269
0.091358824	0.074510028	0.855902796	0.645591434	0.62576666	0.149376429
0.877376874	0.461984283	0.415419546	0.170569524	0.626140432	0.589703309
0.041027719	0.041360761	0.041584245	0.692333074	0.692224389	0.692559551
0.123175862	0.863335488	0.855550433	0.588418492	0.155225225	0.156504263
0.876188455	0.883479358	0.040850418	0.170959175	0.17572518	0.692898233
0.06790358	0.079332334	0.855850222	0.652109419	0.632242076	0.148990986
0.1040495	0.866339514	0.867139508	0.615056064	0.158545197	0.163060971
0.883969819	0.013707127	0.876650192	0.175577228	0.697362541	0.171554481
0.091233222	0.074517248	0.855293596	0.645409384	0.625639176	0.149224113
0.244229591	0.825304263	0.238317872	0.58488963	0.118505691	0.613286147
0.141786513	0.860673458	0.844671076	0.564569613	0.153285572	0.149470188
0.823423544	0.823345429	0.823646971	0.298183317	0.29863926	0.297911133
0.040913132	0.880962653	0.041007933	0.692907719	0.175218396	0.692384827
0.047481921	0.041783681	0.072788791	0.677686154	0.677873895	0.68048114
0.866754756	0.866697753	0.095439797	0.159497688	0.1622939	0.61756576
0.874176555	0.874098769	0.873351091	0.188994149	0.188961311	0.18846345
0.108125139	0.865019392	0.855074383	0.593565751	0.156732018	0.15450492
0.869123764	0.083372257	0.074924547	0.162569204	0.672464746	0.660346545
0.825145341	0.242357705	0.238717364	0.11902358	0.605954475	0.580055128
0.095479478	0.866645356	0.866365864	0.617218855	0.158938282	0.162338945
0.487432422	0.401406179	0.877347873	0.608092739	0.565035229	0.170506802
0.074287298	0.855652265	0.091212288	0.625891857	0.149267231	0.645636112
0.87727891	0.480450604	0.405705231	0.170573366	0.575164436	0.532823848
0.847257581	0.154000215	0.858822234	0.150961715	0.560784386	0.151561085
0.825030243	0.187434652	0.186387496	0.11809553	0.611140609	0.582152511
0.413554536	0.877277137	0.475412336	0.568986594	0.170568441	0.608447979
0.877373522	0.451238601	0.432024969	0.170557715	0.610117677	0.576614921
0.874261042	0.87395055	0.873234556	0.188809641	0.1891737	0.188707242
0.845612035	0.141806929	0.860195391	0.149917171	0.564521723	0.153636098
0.027510849	0.028378699	0.027887454	0.694971479	0.694913037	0.695328152
0.319732937	0.825767561	0.309127329	0.582987165	0.11873861	0.612001855
0.877553722	0.480887431	0.401428523	0.170287534	0.590131717	0.547741287
0.842014611	0.125081357	0.10355014	0.135207742	0.623885951	0.598312925
0.867092688	0.866346675	0.095406257	0.159391864	0.16246218	0.617514309
0.103983042	0.86672075	0.866755946	0.61528677	0.158970024	0.162863221
0.877722628	0.48491567	0.393059057	0.170729481	0.625234434	0.582621831
0.862378122	0.843499427	0.13376897	0.155230311	0.14808538	0.567709557
0.448071857	0.435982578	0.877354683	0.575487226	0.542777862	0.170572708
0.013706963	0.875849457	0.883960418	0.697388808	0.170552663	0.175447667
0.047213355	0.870542057	0.873638553	0.65705315	0.164627155	0.168164434
0.877453412	0.462022923	0.415457641	0.17050131	0.626158922	0.58975205
0.883482193	5.49603E-06	0.87538272	0.175164866	0.699506847	0.170109885
0.465676501	0.424195045	0.877433249	0.607842625	0.571173617	0.170514635
0.087980058	0.867556506	0.86571638	0.619218064	0.159444836	0.162172117
0.872798389	0.874432671	0.047229561	0.165132711	0.168303038	0.657030177
0.413731678	0.8774111	0.475049925	0.56860092	0.170557772	0.608433279
0.462131281	0.415559518	0.877664226	0.626072199	0.589820518	0.170572299
0.087158865	0.078693884	0.868961245	0.672083196	0.660806879	0.1625503
0.461719038	0.415159378	0.876850967	0.626139679	0.5897335	0.170664815
0.446340533	0.877339137	0.437065934	0.546057822	0.170613659	0.575696363
0.028290282	0.027776481	0.881864024	0.694559135	0.694819607	0.17516522
0.505394667	0.53095367	0.877840974	0.562490698	0.533101754	0.170988253
0.013752591	0.014374921	0.014331483	0.696860784	0.697397047	0.697303438
0.077071073	0.867701569	0.865780894	0.623122242	0.159958477	0.16185149
0.877309155	0.438903341	0.444417719	0.170567298	0.608854604	0.578616963
0.881046049	0.027759802	0.027482449	0.175363621	0.694835547	0.695336289
0.415493906	0.877527307	0.4620601	0.589559568	0.170651504	0.626213978
0.09548523	0.867037783	0.866365088	0.617439278	0.159261971	0.162443923
0.86381342	0.855492172	0.116678742	0.155890215	0.155644914	0.590379505
0.872059239	0.874987032	0.046651098	0.165063765	0.168939009	0.659005952
0.846215649	0.141827329	0.861766693	0.149958481	0.564547711	0.153907233
0.847318548	0.846134897	0.846754248	0.257257901	0.256814949	0.257146943
0.86684739	0.095663261	0.867075261	0.162533072	0.61739751	0.159252897
0.134478033	0.125905958	0.827217102	0.605888424	0.576724732	0.119402942
0.065243018	0.871924123	0.875559911	0.652758927	0.165012219	0.169425153
0.863246147	0.844381282	0.133774703	0.15542583	0.148471149	0.567845034
0.041131732	0.040826827	0.881928251	0.691702099	0.692800987	0.175555102
0.027969213	0.027473284	0.881694279	0.694571159	0.694607633	0.175310376
0.872448268	0.87371843	0.075980749	0.165241841	0.168596045	0.650525802
0.884604131	0.013707608	0.876700727	0.17595727	0.697376194	0.171071039
0.877193972	0.448647031	0.439477786	0.170439818	0.559865949	0.527619266
0.469927778	0.415608534	0.87736539	0.575361628	0.536098664	0.170514538
0.874379283	0.049818056	0.872738673	0.168002754	0.658988933	0.165401509
0.87732389	0.451075566	0.432411469	0.170503925	0.608594059	0.575174831
0.074254638	0.855892472	0.091138729	0.625865875	0.14949096	0.645856923
0.825409931	0.145946449	0.128989727	0.118624156	0.603292322	0.57439739
0.410272336	0.877616909	0.480875144	0.517692978	0.170670422	0.559333413
0.878434964	0.878045885	0.877268827	0.17102316	0.170930575	0.170673794
0.43849418	0.877019124	0.438498973	0.59658685	0.170218747	0.626538029
0.448804051	0.439596365	0.877493609	0.559676702	0.527799404	0.170546857
0.425534011	0.87741937	0.464176329	0.573574228	0.170575261	0.609847005
0.053873742	0.051430389	0.057231328	0.654316502	0.654089099	0.654084107
0.450550235	0.427127974	0.877692634	0.626360783	0.59316945	0.17069008
0.861817661	0.846679343	0.14741439	0.153247467	0.150850208	0.562714015
0.869177956	0.091891114	0.078444003	0.162580747	0.672917462	0.659817637
0.446285853	0.877235115	0.437017932	0.546061987	0.170582361	0.575725963
0.856159614	0.123053764	0.864104667	0.156562666	0.588431184	0.155639403
0.461887879	0.415327116	0.877187705	0.626296107	0.589593969	0.170729785
0.877689686	0.459076294	0.422238071	0.170493165	0.59090153	0.555350863
0.877674097	0.450542083	0.427117185	0.170770315	0.626489758	0.593049691
0.445217907	0.87707249	0.43775795	0.562091593	0.170366221	0.591810319
0.825903935	0.281902542	0.305708835	0.118672037	0.613400824	0.584773034
0.027331522	0.875810237	0.883856783	0.69534253	0.170265664	0.175269992
0.876944383	0.884067449	5.49629E-06	0.171354842	0.175656768	0.699293149
0.841769743	0.113634671	0.100552002	0.135236351	0.625982227	0.600371119
0.154025488	0.859382736	0.846818127	0.560972258	0.152379561	0.151757572
0.419862682	0.877711444	0.470356168	0.521006735	0.170758565	0.559483631
0.846827143	0.847251617	0.847893586	0.257218148	0.257228122	0.257528624
0.438581328	0.438576619	0.87718377	0.62657163	0.596364843	0.170281594
0.0614452	0.042129529	0.077501056	0.675362162	0.675276725	0.677477938
5.49427E-06	0.874909468	0.883699124	0.699300277	0.169703669	0.175652514
0.841725552	0.092754286	0.09984969	0.134876166	0.629419722	0.604427042
0.103145296	0.099284249	0.841551319	0.627810928	0.602737141	0.135012636
0.079098422	0.855873778	0.102960114	0.623592765	0.149731731	0.64331205
0.062494589	0.062491488	0.062385363	0.63877342	0.638610618	0.638672533
0.864325583	0.862701446	0.863569684	0.219414519	0.218430392	0.219235048
0.08633996	0.077412163	0.868880819	0.672947079	0.660840409	0.162528451
0.080863506	0.078569324	0.868818588	0.674171	0.662218736	0.162501418
0.825847561	0.822929967	0.826926775	0.29905166	0.298494817	0.298931927
0.875994401	0.884222051	0.054273964	0.170741498	0.175920952	0.690499606
0.845477164	0.141836614	0.860744579	0.150204515	0.564541268	0.153854183
0.873945824	0.050140243	0.872176678	0.167789009	0.658664192	0.164973197
0.480497644	0.401195895	0.877019833	0.58996133	0.548198285	0.170088841
0.877373806	0.439425721	0.44378536	0.170570548	0.608413683	0.578253143
0.877424866	0.480564463	0.405652017	0.170593206	0.57535265	0.532955097
0.825765375	0.285270575	0.290508604	0.118810517	0.612208289	0.585908398
0.103676459	0.841715743	0.125141316	0.598046493	0.135229546	0.623221009
0.132595466	0.824986425	0.138621667	0.576618156	0.118778926	0.605336875
0.877318051	0.461698264	0.422028167	0.170553622	0.609142796	0.572910595
0.877217419	0.473357449	0.403970933	0.170476642	0.625909751	0.585978796
0.877359738	0.473375589	0.410028655	0.170604958	0.608771837	0.56908697
0.841629232	0.103031205	0.099279052	0.134941618	0.627911821	0.602908359
0.075368028	0.076798634	0.856139226	0.649647175	0.629583945	0.149203099
0.147476187	0.86030853	0.845757356	0.562726814	0.152803099	0.150459219
0.410259531	0.877538405	0.480811852	0.517672729	0.17074991	0.559294245
0.884546685	0.027324618	0.874701323	0.175958585	0.695161807	0.17064009
0.874299639	0.055323244	0.871740215	0.16814659	0.654756085	0.164583939
0.129240737	0.825930267	0.145969546	0.57441346	0.118863768	0.603582619
0.473514121	0.404128211	0.877530891	0.625749763	0.586208598	0.170536197
0.484777736	0.392909108	0.877436472	0.625467523	0.582373143	0.170776118
0.075474527	0.076831683	0.854795858	0.649673151	0.629603553	0.149154581
0.85482687	0.108014725	0.864914107	0.154803315	0.59384758	0.157177244
0.877472156	0.459559904	0.429559229	0.17086066	0.559887919	0.524358075
0.876823212	0.480423891	0.401146834	0.170194875	0.590242255	0.54814884
0.866336914	0.095593938	0.867320799	0.162531005	0.617340382	0.159215505
0.130460328	0.862858764	0.85745295	0.586386802	0.154828872	0.156913601
0.847390277	0.846563443	0.847463245	0.256908516	0.256591143	0.256636508
0.876900223	0.877167718	0.877531057	0.170631723	0.170551815	0.170692509
0.079809336	0.869236928	0.081646007	0.663235677	0.162386811	0.675902505
0.401422082	0.876925451	0.480538814	0.547975605	0.170400998	0.590003534
0.071642369	0.855229214	0.079637451	0.627617861	0.149091815	0.647872207
0.863140021	0.856567117	0.123122574	0.155284197	0.156487763	0.588598156
0.066869376	0.052064782	0.080395182	0.672950285	0.672907409	0.674406124
0.214846572	0.213367451	0.826060444	0.607597101	0.580520379	0.118875175
0.027331475	0.875541476	0.884070053	0.695403774	0.170855857	0.176067421
0.047143374	0.871149739	0.875804123	0.65677008	0.164129142	0.168446792
0.868959262	0.098425798	0.081599537	0.162794155	0.667487849	0.65576151
0.841635326	0.103060742	0.099218651	0.134941827	0.627910656	0.602908465
0.054281261	0.876315998	0.882701255	0.690638309	0.171004482	0.175392161
0.02733072	0.875676021	0.883389859	0.695327583	0.170233353	0.175262651
0.87713997	0.484626999	0.392763993	0.170479549	0.625283758	0.582605533
0.877005061	0.484560651	0.392696428	0.170479347	0.625241721	0.582663227
0.877223702	0.448577183	0.439578228	0.170666441	0.559832439	0.527536256
0.866100458	0.866778963	0.104026494	0.159042331	0.162806443	0.615359553
0.445643164	0.877530843	0.437867325	0.562639969	0.170367794	0.591798737
0.448415676	0.877337438	0.444892833	0.578597099	0.170604525	0.608839404
0.090869801	0.078224079	0.869250184	0.672686006	0.658171601	0.162578705
0.429682519	0.877718262	0.459675521	0.524252992	0.17090061	0.559846127
0.047203113	0.871886603	0.874932449	0.657089474	0.165139083	0.168632613
0.475141043	0.414751471	0.877250556	0.608338297	0.568738599	0.170566711
0.87735543	0.439458319	0.44448324	0.170562323	0.609375743	0.579289899
0.090814128	0.078018472	0.869440407	0.673578266	0.659083392	0.16262793
0.883536406	0.054281313	0.875715038	0.175540099	0.690632695	0.170364165
0.448770549	0.439549036	0.877399761	0.55967217	0.527810101	0.170585511
0.059682079	0.043001513	0.076998747	0.674815275	0.675045835	0.676504818
0.841514469	0.092736875	0.099879444	0.134897374	0.629350006	0.603923157
0.470112833	0.419481357	0.877076562	0.559638797	0.521056968	0.170556868
0.071371354	0.854580763	0.068766994	0.629466013	0.148531564	0.649716432
0.087986067	0.867494943	0.865726839	0.619208213	0.15943793	0.162153476
0.100155876	0.84183981	0.114033874	0.600720553	0.135035778	0.625917988
0.213514567	0.212794606	0.826035477	0.607334447	0.578397851	0.118628961
0.867065825	0.866265082	0.095417465	0.159420266	0.162501643	0.617383586
0.060008434	0.06001506	0.059972891	0.640113164	0.640279145	0.640250817
0.871728687	0.875482342	0.046501858	0.165021615	0.168800325	0.658970744
0.047228993	0.870782378	0.874227957	0.656660032	0.164110083	0.168443027
0.437770706	0.445407832	0.877675014	0.593031397	0.56343079	0.170760964
0.435189534	0.877365415	0.455219956	0.576191936	0.170556176	0.609816634
0.844428941	0.137308604	0.862360288	0.149438239	0.566351336	0.154980035
0.877333022	0.483985408	0.399508342	0.170570353	0.608760513	0.566073278
0.071744409	0.855698138	0.079652219	0.627588987	0.14922759	0.647663234
0.040866218	0.881675746	0.041156254	0.69277311	0.175238794	0.692809247
0.422112592	0.877398456	0.459226587	0.555231491	0.170390906	0.59104592
0.04085529	0.880951508	0.041122711	0.69289254	0.175133942	0.692439829
0.425593297	0.877279762	0.459024495	0.539526809	0.170605083	0.575587025
0.102265262	0.841613146	0.083355679	0.605937759	0.134761237	0.631426063
0.86889309	0.098855389	0.082932839	0.162798587	0.664921871	0.653490587
0.880549689	0.027561298	0.027290407	0.175359873	0.694828229	0.695118293
0.877098851	0.473302089	0.403907687	0.17055727	0.625945599	0.586058152
0.865000272	0.854618083	0.111440541	0.155741829	0.154254446	0.591913746
0.048684168	0.044919221	0.052169384	0.656019216	0.656360835	0.656272088
0.061016824	0.042265503	0.077450659	0.675608059	0.675142937	0.677442782
0.445444382	0.449267219	0.877347771	0.608474641	0.578268869	0.170600903
0.11668183	0.864386108	0.855756621	0.590359399	0.155667942	0.155910494
0.845838379	0.147394481	0.86067648	0.150685418	0.562761438	0.153003555
0.048945077	0.045156067	0.053095068	0.655554807	0.656369263	0.655968358
0.047301844	0.046967776	0.052097684	0.657304366	0.6583735	0.658308315
0.014374459	0.88144311	0.014241741	0.697424487	0.175248714	0.696591874
0.844291368	0.137279977	0.862222784	0.149053764	0.566381025	0.154672656
0.079168819	0.855877005	0.102963756	0.623637877	0.14968356	0.643300972
0.878063709	0.473775063	0.404400809	0.170457921	0.625879625	0.586120637
0.480867942	0.41022597	0.877567605	0.559453445	0.51749157	0.17071052
0.087994234	0.866824177	0.865589084	0.619511746	0.159489223	0.162141993
0.081648616	0.866757264	0.865710516	0.621194272	0.159283799	0.161814975
0.464850022	0.424371361	0.877392864	0.608083182	0.571489336	0.170513941
0.041109588	0.041254015	0.041606461	0.692653607	0.693077662	0.692594987
0.469849602	0.415739171	0.877370141	0.57536235	0.536096425	0.170516592
0.083520954	0.076015316	0.855144139	0.648415667	0.627633355	0.148700566
0.075042792	0.07488796	0.075213992	0.634191416	0.634534204	0.634658546
0.480655805	0.405889775	0.877403348	0.575180316	0.532646725	0.170564573
0.048754366	0.041042945	0.073416856	0.677544915	0.677635821	0.679582851
0.147498874	0.860629536	0.844994188	0.562740502	0.152488373	0.150185977
0.448150601	0.435874731	0.877344272	0.575465662	0.542560851	0.170636452
0.822715605	0.823491253	0.823972629	0.298093634	0.298690537	0.298818992
0.09548523	0.867037783	0.866365088	0.617439278	0.159261971	0.162443923
0.085191566	0.076591011	0.869082124	0.673150671	0.661105659	0.16241548
0.145972868	0.126893219	0.826500325	0.603723334	0.574748421	0.119222423
0.041052701	0.041284216	0.041394968	0.692436166	0.692674204	0.692407757
0.876592264	0.882502092	0.013706044	0.170631145	0.174833951	0.697276759
0.854195936	0.111495946	0.863502555	0.155109093	0.592116614	0.156226157
0.82564039	0.137413846	0.126537109	0.11913157	0.606070029	0.57737394
0.841429847	0.11370217	0.100383738	0.1350891	0.625740726	0.600564462
0.250654384	0.826505098	0.23553612	0.584325475	0.118793361	0.611933278
0.066196143	0.053029316	0.081556527	0.672960409	0.672635036	0.673777573
0.403933284	0.87712844	0.473307096	0.586072294	0.170663105	0.625855399
0.415687676	0.87740296	0.469940094	0.536008087	0.17058301	0.575376492
0.883127996	0.040856332	0.87590646	0.175132875	0.69302141	0.170613805
0.102221924	0.841598812	0.08338717	0.606119049	0.134737195	0.63129349
0.09566134	0.866714407	0.866966175	0.617314135	0.159187327	0.162643203
0.855764024	0.06895136	0.07139414	0.149119824	0.649854585	0.629673907
0.480946441	0.410293661	0.877714021	0.559398164	0.517505242	0.17072034
0.246388572	0.826174287	0.242697713	0.584571907	0.118704647	0.611749388
0.867735315	0.865643422	0.087801153	0.159774791	0.162069529	0.619594072
0.040838372	0.875194551	0.884337324	0.692681108	0.170105895	0.175217187
0.047909742	0.871738803	0.874413657	0.658319505	0.164808544	0.168496135
0.877385358	0.439571283	0.443489578	0.170559974	0.608419982	0.578236455
0.083377362	0.102227066	0.841849676	0.631251387	0.605781123	0.134706224
0.480739663	0.401381498	0.877447485	0.589930829	0.548352431	0.170240124
0.476760407	0.412586364	0.877183714	0.609430348	0.569831061	0.170578129
0.877085041	0.884700751	5.49654E-06	0.171108834	0.175726497	0.699357182
0.881969796	0.041105176	0.040770645	0.175522376	0.692257498	0.692737977
0.103948505	0.866738514	0.866915712	0.615464497	0.158858296	0.162865776
0.856263534	0.079838464	0.071569269	0.149630322	0.647981542	0.62779769
0.875736041	0.076056483	0.871041777	0.169458018	0.6504975	0.164787949
0.48055566	0.401210454	0.87708394	0.589948499	0.548229419	0.169994023
0.074974691	0.074923855	0.075346218	0.634425147	0.634288369	0.634605031
0.074241316	0.855852154	0.091122485	0.625855143	0.149486227	0.645845161
0.082793552	0.868932519	0.09300932	0.656854232	0.16261099	0.670227317
0.099457546	0.841370714	0.102937498	0.602633804	0.135196412	0.627655749
0.014249318	0.014042172	0.881568773	0.697128434	0.697159474	0.175522955
0.867109253	0.864903973	0.077282226	0.159722368	0.161098771	0.623067519
0.866888682	0.866514005	0.10397537	0.159492091	0.16305935	0.615343352
0.091253686	0.074908236	0.855818264	0.645810349	0.625724533	0.149420748
0.87609158	0.883976936	0.013708821	0.170591879	0.175953288	0.697432568
0.459114866	0.425685485	0.877425159	0.575406887	0.539295691	0.170636063
5.49679E-06	0.875632015	0.884819987	0.699553738	0.170778761	0.176410632
0.44801035	0.432644566	0.87750748	0.591023565	0.558274951	0.170523366
0.484838824	0.392991784	0.877578374	0.625509214	0.582297492	0.170558172
0.075493179	0.076678831	0.854804905	0.649855958	0.62963751	0.148534736
0.843818786	0.133738689	0.863753756	0.148673035	0.567821964	0.155782969
0.077099075	0.867848471	0.865762843	0.623310818	0.15996529	0.161850619
0.04857688	0.871569093	0.874194488	0.658505422	0.164837318	0.168181599
0.071766172	0.070144884	0.073973808	0.6493681	0.649838615	0.649746097
0.448117329	0.432624038	0.877583616	0.590860279	0.558268343	0.170531873
0.027096824	0.075928545	0.075640437	0.679098356	0.680048316	0.67953347
0.435671791	0.877400029	0.454070346	0.576461188	0.17055043	0.609771362
0.877370061	0.461589517	0.422179141	0.170567443	0.609462665	0.573125935
0.082531337	0.869182642	0.098735617	0.654640096	0.162614624	0.66740788
0.448695875	0.439483686	0.877258563	0.559765139	0.527698382	0.170544803
0.459677906	0.429639669	0.877672397	0.559824938	0.524421181	0.170685849
0.111541041	0.864507914	0.85566357	0.592106624	0.156160474	0.155228043
0.11382137	0.099809504	0.841736478	0.626182383	0.60102245	0.135049008
0.130517738	0.862687702	0.857011151	0.586465315	0.154623936	0.156719206
0.455891193	0.435777463	0.877284432	0.608784728	0.574954954	0.170576493
0.459265392	0.425449242	0.877339876	0.575617052	0.539514136	0.170555751
0.425203191	0.877349758	0.46456096	0.572057368	0.17053006	0.608504607
0.877648738	0.480931171	0.410240406	0.170796046	0.559483208	0.517373916
0.874299272	0.055308733	0.87207493	0.168533294	0.654790146	0.165002145
0.083191246	0.869157794	0.079299795	0.664519552	0.162595462	0.677579191
0.856035176	0.116677274	0.862797185	0.155795116	0.590371484	0.155622141
0.875384272	0.065215123	0.87242622	0.169262808	0.652875857	0.164833868
0.876502264	0.882211316	0.054277979	0.171181945	0.17527269	0.690503022
0.081704338	0.86802013	0.865240233	0.621191801	0.159732298	0.16172032
0.040836052	0.875479711	0.884145673	0.692626174	0.17060366	0.175604494
0.047236111	0.870168513	0.873357269	0.65680659	0.164277581	0.168429787
0.027327072	0.875485445	0.882945874	0.695248364	0.170302763	0.175187455
0.425559964	0.877312402	0.459085953	0.539557422	0.170553288	0.575618499
4.94272E-06	4.82709E-06	0.880989041	0.699131887	0.699388854	0.175282643
0.877655102	0.473574876	0.404191729	0.170673045	0.625846162	0.586155588
0.843852871	0.133737411	0.86369684	0.148686925	0.567821631	0.155801096
0.054247047	0.881567975	0.054676093	0.691071757	0.175515006	0.690118996
0.048210377	0.041947013	0.073790356	0.677527177	0.677999302	0.680222559
0.065243852	0.871151985	0.874827378	0.652415281	0.164574781	0.168604663
0.872718514	0.87391135	0.075958536	0.164909091	0.168345852	0.650554238
0.154061819	0.858139406	0.845323352	0.560906406	0.151755069	0.151041561
0.102288596	0.841662463	0.083368055	0.605976236	0.134787575	0.631428402
0.455029218	0.436435159	0.877281121	0.609840978	0.576067707	0.170551188
0.44787607	0.432462618	0.877182377	0.590928078	0.558128917	0.170575613
0.47535674	0.414132651	0.877480563	0.607918263	0.568365441	0.170598798
0.141818214	0.861492625	0.844162629	0.564646761	0.153219633	0.149323983
5.49755E-06	0.87676784	0.884569744	0.699484149	0.170783295	0.175732276
0.87721976	0.480588974	0.401350447	0.170089196	0.589932212	0.5483176
0.425534642	0.877420358	0.464176352	0.573577366	0.170575297	0.609860544
0.422305074	0.877471817	0.459045547	0.554634692	0.170559622	0.59048275
0.113804569	0.100223002	0.841665876	0.626007362	0.600713604	0.135057758
0.060045607	0.042737224	0.076902229	0.675399031	0.674891248	0.676703628
5.49502E-06	0.873922894	0.881998674	0.699353705	0.169877889	0.175600815
0.843663443	0.137306314	0.861365921	0.148862289	0.566242904	0.154599701
0.405889928	0.87739991	0.48062226	0.532720045	0.170545476	0.575181726
0.432848628	0.877482258	0.447984823	0.558439577	0.170590884	0.59153141
0.877369246	0.461613061	0.422158575	0.17057638	0.609516487	0.573134801
0.863045352	0.864170843	0.862944432	0.219035551	0.219083518	0.219127227
0.883280916	0.027324316	0.874985312	0.175135786	0.695164466	0.169807969
0.856061828	0.079770328	0.071614735	0.149333332	0.648240577	0.627290812
0.877461856	0.448860891	0.439526972	0.170619006	0.559668054	0.52774434
0.436998271	0.446325201	0.877251366	0.575589092	0.546004706	0.170639932
0.866726892	0.087886854	0.867839222	0.162073214	0.619339225	0.159685955
0.437080326	0.446384115	0.87739698	0.5757495	0.546187965	0.170625491
0.448848437	0.439669698	0.877592721	0.559662686	0.527798963	0.170648206
0.419829745	0.877527098	0.470201079	0.521020928	0.170577337	0.559696183
0.877284058	0.473389212	0.404006147	0.170412676	0.625890896	0.58608939
0.32208721	0.347887127	0.824869468	0.612935639	0.585367424	0.118619738
0.476034961	0.413664366	0.877437188	0.608620175	0.569077704	0.170590802
0.125184042	0.103246766	0.841421719	0.623869397	0.598749341	0.135338699
0.048943907	0.045430837	0.053607034	0.656267343	0.6561904	0.656030945
0.040836274	0.875672032	0.88394028	0.692631905	0.170640525	0.17564378
0.439745478	0.877789119	0.44895841	0.527810434	0.170858763	0.559731454
0.826911634	0.190482533	0.19545931	0.119096761	0.609097803	0.579922107
0.09273322	0.099683788	0.841462991	0.629559679	0.60426385	0.134884194
0.100379516	0.841618237	0.113908856	0.600766519	0.135030164	0.62580122
0.868875136	0.098710283	0.082341244	0.162819542	0.667436499	0.655488723
0.448445605	0.877334604	0.444876731	0.57859477	0.170605188	0.608839944
0.079028435	0.85581158	0.102988055	0.623745256	0.14955568	0.643295808
0.877386144	0.480740025	0.401414041	0.170240865	0.590185464	0.548030634
0.080234311	0.084017513	0.86886905	0.675592626	0.663575828	0.162668809
0.132988043	0.826952351	0.138432262	0.576566751	0.119609534	0.605719571
0.863735649	0.862406528	0.863562727	0.219955582	0.219200342	0.219283311
0.877375181	0.46987348	0.415489322	0.170566947	0.575496428	0.536189593
0.473580235	0.404186624	0.877656233	0.625864293	0.586152889	0.170697371
0.062549639	0.062416177	0.062434664	0.638705669	0.638533649	0.638543684
0.077183658	0.8679025	0.86506015	0.623264653	0.160008219	0.161456862
0.028553338	0.027899005	0.882436552	0.695101604	0.695353183	0.175506857
0.074844759	0.078116234	0.855598627	0.650163446	0.629718296	0.149392899
0.130460337	0.863014131	0.857064029	0.586398923	0.154884118	0.156952804
0.863669307	0.85629451	0.11666715	0.155743324	0.155900422	0.590270864
0.877355282	0.451160438	0.432329289	0.170503795	0.608594783	0.575206929
0.071434641	0.856169833	0.06883579	0.629534909	0.149269968	0.650015883
0.123211238	0.862956809	0.857068483	0.588462459	0.15494195	0.156196889
0.877146126	0.458926904	0.421832757	0.17017151	0.590670151	0.554708426
0.841948607	0.103050735	0.099184713	0.134930138	0.627904466	0.602502927
0.855553899	0.068910805	0.071460506	0.148966272	0.649867939	0.629198079
0.84188858	0.125002054	0.103341068	0.135157621	0.623673295	0.598467703
0.87496184	0.065197539	0.871373992	0.168769615	0.652968347	0.164556202
0.445593608	0.876493143	0.437070378	0.562960478	0.169970038	0.591811756
0.062462198	0.062521197	0.062392467	0.638103597	0.638320976	0.638547676
0.822644941	0.823257458	0.823434005	0.298007429	0.298717467	0.298849709
0.859789145	0.846021572	0.1540304	0.152480455	0.151584709	0.560989524
0.063618102	0.059925666	0.065484871	0.651954903	0.65201492	0.652004177
0.872850232	0.87386166	0.055293058	0.164590935	0.168452287	0.654937239
0.079723078	0.869218373	0.081636758	0.663108905	0.162395551	0.675916437
0.063483174	0.059927298	0.065470294	0.651943486	0.652021952	0.651596319
0.100285039	0.841802923	0.114062154	0.600719775	0.135107072	0.625887264
0.048649367	0.040974381	0.073221068	0.677557051	0.677621459	0.679599643
0.876279658	0.883256078	0.04085411	0.171082825	0.175449663	0.692987879
0.866354986	0.081701626	0.867601601	0.161964275	0.621246486	0.159724743
0.462864923	0.877652616	0.448520753	0.531479364	0.170766417	0.560243521
0.062477609	0.062467146	0.062390421	0.638567865	0.638737209	0.6384904
0.091424352	0.074601609	0.855701932	0.645777486	0.625752573	0.149469881
0.393148137	0.877900846	0.485002787	0.582482207	0.170665859	0.625145426
0.884280134	0.027324352	0.875301118	0.175697268	0.695154342	0.170467248
0.422137922	0.877532765	0.459293783	0.554583931	0.170534453	0.590401077
0.842098074	0.1250104	0.103508171	0.135209701	0.623757425	0.598218241
0.42553459	0.877420261	0.464176352	0.573577046	0.170575293	0.60985915
0.84171942	0.09269546	0.099829812	0.134836896	0.629416808	0.604008126
0.066590128	0.052556849	0.081212549	0.673119437	0.67235553	0.673902545
0.86439219	0.856547809	0.116676678	0.155763956	0.15580893	0.590287845
0.856250267	0.123067759	0.864037702	0.156652659	0.588468404	0.155920986
0.072701582	0.065822568	0.087209325	0.670485047	0.669933452	0.670799997
0.133711299	0.126055977	0.824669051	0.605052979	0.577271564	0.118768215
0.429635846	0.877603658	0.45961358	0.524351551	0.170704735	0.559861663
0.438184096	0.445081744	0.8775505	0.590915992	0.561210506	0.170631053
0.866043555	0.081428558	0.867706474	0.161386801	0.621661913	0.159770475
0.877056508	0.480670145	0.409920894	0.170529488	0.559512044	0.517455209
0.14181397	0.861153806	0.845384256	0.564567912	0.153221013	0.149464056
0.846503798	0.141825856	0.86230534	0.150092896	0.564584582	0.153824323
0.125858552	0.123348402	0.20165881	0.617535204	0.619308213	0.617853111
0.869123594	0.092096667	0.078372562	0.162623012	0.671854476	0.658730137
0.435911098	0.877459522	0.448210298	0.542790082	0.170592562	0.575720565
0.867436267	0.865911642	0.08780267	0.159406677	0.161909546	0.619514748
0.07721009	0.869160156	0.085629136	0.661261446	0.162585986	0.673574338
0.435894957	0.877353254	0.448115686	0.542778948	0.170574461	0.575651195
0.866083647	0.087851007	0.867490658	0.162338751	0.619231194	0.159742661
0.844758155	0.141830937	0.860339734	0.149732928	0.564592502	0.153410851
0.877195501	0.448647058	0.439479295	0.170439459	0.559865846	0.527619087
0.464947743	0.877602748	0.449398314	0.531429741	0.170685007	0.560231885
0.875736512	0.076056473	0.871040744	0.169458274	0.650497573	0.164788018
0.425457548	0.877295463	0.459160473	0.539668394	0.17057506	0.575682349
0.856049409	0.079900841	0.071594652	0.149644109	0.647827838	0.627833821
0.846275411	0.846492499	0.846362295	0.256737951	0.256989398	0.256738651
0.881303542	0.027604821	0.027448755	0.175610058	0.694818901	0.695071731
0.068007603	0.079277584	0.855953038	0.652133541	0.632283611	0.148964399
0.415404732	0.877333974	0.461956593	0.589521153	0.17067538	0.626226658
0.081713143	0.868002629	0.865256776	0.621195319	0.159693554	0.161672953
0.842109353	0.125138715	0.103530201	0.135204254	0.623725074	0.598209088
0.854951733	0.107778236	0.864507559	0.154739282	0.593767523	0.156705798
0.062493025	0.062504669	0.062384398	0.638763839	0.638623044	0.638661112
0.862160924	0.864884	0.863694056	0.21896293	0.219154479	0.219369908
0.054626462	0.054239338	0.881952018	0.69009545	0.690114614	0.175439898
0.877474091	0.448865411	0.439536853	0.170677227	0.559680487	0.527746346
0.014004404	0.014023469	0.88126478	0.696980735	0.697252439	0.175174073
0.060017109	0.060014822	0.059990231	0.640117102	0.640287272	0.640249639
0.866610331	0.087763118	0.867220594	0.162222244	0.619646835	0.159751919
0.041038628	0.041352759	0.041508543	0.692313815	0.692420056	0.692413709
0.43584836	0.877262361	0.448072837	0.542715727	0.170525961	0.575621213
0.855508839	0.11154234	0.864918657	0.155560711	0.592255358	0.156597503
0.067736122	0.079125072	0.855377484	0.652047032	0.631941563	0.149010442
0.413150787	0.877447475	0.475809129	0.568261906	0.1705752	0.608113648
0.099267121	0.841748367	0.103205806	0.602481009	0.135136643	0.627890272
0.099548562	0.082505839	0.868839404	0.667635819	0.655753656	0.162761794
0.825909425	0.145664839	0.128827246	0.119376061	0.603481916	0.574449677
0.877373378	0.44794843	0.432633506	0.170782748	0.590879647	0.558430954
0.099166756	0.841246188	0.102853717	0.602584017	0.135010246	0.627710782
0.154024776	0.85931716	0.84771083	0.560823753	0.15188099	0.151242126
0.013707455	0.875119722	0.882737418	0.697384211	0.170455422	0.17542357
0.480900442	0.401565964	0.877789563	0.590143366	0.548245347	0.170677702
0.877381816	0.439169619	0.443926208	0.170558345	0.608420346	0.578234152
0.845457139	0.141809593	0.860619722	0.14970039	0.564497987	0.153390274
0.07222297	0.066157023	0.086900203	0.670385543	0.669919961	0.670837314
0.874045874	0.872349651	0.872823082	0.188783259	0.18881942	0.188486795
0.464882767	0.424736531	0.877365438	0.607251895	0.570596137	0.170523319
0.873745855	0.076021927	0.871924049	0.169024312	0.650532861	0.165171604
0.077137348	0.867739686	0.86578592	0.623096159	0.1599555	0.16189301
0.877293436	0.473176847	0.410307983	0.170623062	0.608800933	0.569275021
0.09988028	0.841638369	0.092766805	0.604253287	0.134870995	0.629491109
0.884435497	5.49578E-06	0.876437814	0.175762739	0.699346311	0.170914481
0.883766867	0.054272347	0.875952957	0.175894402	0.69053803	0.170813684
0.103126765	0.099219417	0.841452958	0.627639822	0.60271171	0.135014866
0.856604135	0.130454686	0.863774956	0.156715242	0.586476257	0.154807906
0.877353789	0.461976883	0.415403514	0.170478266	0.626153957	0.589753382
0.846649208	0.846491937	0.84648103	0.256865629	0.256567903	0.256474088
0.865537722	0.855536423	0.107737885	0.157084176	0.155265237	0.59362414
0.107851016	0.865355552	0.855238185	0.59367371	0.157018888	0.154728474
0.069159384	0.0802392	0.855974017	0.652171475	0.632565091	0.149282778
0.047501493	0.872359647	0.874291764	0.658394213	0.164869098	0.168437207
0.841521173	0.102932605	0.099224137	0.135004107	0.627695249	0.602345472
0.877151448	0.48050477	0.401362962	0.170103687	0.589791285	0.548245365
0.074751693	0.07788567	0.854056333	0.650248089	0.629223736	0.148764189
0.877368814	0.461600866	0.422189995	0.170572435	0.609483697	0.573133395
0.454588278	0.436789379	0.877286308	0.608657026	0.574834824	0.170579927
0.427083977	0.877606008	0.450507595	0.593076643	0.170687424	0.626511933
0.410294771	0.87765759	0.48090005	0.517598006	0.170542697	0.559341868
0.841959668	0.103145619	0.099225213	0.134921729	0.627875457	0.602543672
0.392849806	0.877305762	0.484706682	0.582446099	0.170403073	0.625227334
0.885014486	0.013707398	0.877293144	0.17591644	0.697370038	0.171089023
0.841631973	0.083385958	0.102257351	0.134793658	0.631244674	0.606019217
0.041218931	0.040853863	0.88254439	0.69236441	0.692864095	0.175582728
0.875191966	0.050175767	0.872670516	0.168580088	0.659378807	0.165261586
0.080183753	0.216325102	0.218395504	0.6202898	0.622804976	0.627419404
0.459021178	0.422015402	0.877472278	0.590706398	0.555013257	0.170483631
0.863234735	0.857337281	0.130377714	0.15535639	0.15713177	0.58644083
0.87718574	0.438582135	0.4385774	0.170383359	0.626391607	0.59644902
0.87797233	0.462281481	0.415717301	0.170686761	0.62624332	0.589652579
0.87739787	0.459043303	0.425616192	0.170603674	0.57569265	0.539623995
0.86907554	0.077327662	0.080734481	0.162531366	0.677364379	0.665476533
0.267293777	0.265255592	0.826344964	0.617140772	0.589906424	0.119033262
0.027325545	0.876087489	0.882953212	0.695198317	0.170312068	0.175052303
0.061256659	0.042220564	0.077281759	0.675653324	0.675134069	0.677419242
0.84668841	0.153958266	0.859928254	0.151399971	0.560899197	0.152267286
0.014111515	0.014214182	0.881475445	0.697032432	0.697238346	0.175602293
0.862895258	0.864057536	0.863696226	0.218813913	0.218764071	0.219331456
0.438611816	0.87725469	0.438616501	0.596378728	0.170514081	0.626648989
0.881415957	4.89957E-06	4.84488E-06	0.175301371	0.699017709	0.699384317
0.067708769	0.067673065	0.067962719	0.636368475	0.636428132	0.636786253
0.165336836	0.090768319	0.168707541	0.615643299	0.615625883	0.621654903
0.464713873	0.424600563	0.877389631	0.608078202	0.571490516	0.170512743
0.877435105	0.484349938	0.39940499	0.170620042	0.607607449	0.564950245
0.425639487	0.877431987	0.459127129	0.539796321	0.170629824	0.575847446
0.855415552	0.066240334	0.079387196	0.148921735	0.652378555	0.632234525
0.874677568	0.884430608	5.49755E-06	0.170667037	0.17602136	0.699362997
0.065246146	0.870693738	0.874241435	0.652802338	0.164490304	0.168746948
