Va	Vb	Vc	Ia	Ib	Ic
0.877333775	0.437070232	0.446330704	0.170589081	0.575743301	0.546078358
0.059457473	0.064601407	0.063490945	0.652398314	0.651184249	0.651447533
0.103179867	0.099094008	0.841649366	0.627751572	0.602599296	0.134981299
0.87757905	0.4504951	0.427068812	0.170661105	0.626592985	0.593074755
0.855310777	0.064238297	0.077965722	0.148826121	0.653397288	0.632534293
0.027321253	0.876333788	0.882545921	0.695106152	0.171053434	0.175620667
0.051825236	0.053178902	0.057414672	0.654009027	0.6541677	0.653406997
0.069159993	0.051570073	0.081414833	0.673393537	0.672524506	0.67407162
0.866180067	0.095181297	0.867193076	0.162322913	0.617434009	0.159493825
0.87356534	0.873866014	0.873380399	0.188371077	0.189106414	0.188421466
0.041170721	0.040907484	0.881224857	0.692369961	0.693184698	0.175231942
0.868963373	0.083341612	0.07576251	0.162679709	0.674410041	0.661049447
0.137191061	0.861364725	0.84380675	0.566387368	0.153731743	0.148537439
0.863478067	0.856588197	0.123161045	0.15567875	0.156447556	0.588424515
0.099160551	0.841953184	0.103121248	0.602288712	0.134898236	0.627753999
0.056245717	0.044311197	0.074480682	0.674369904	0.674811946	0.675678114
0.826277362	0.147973422	0.130693786	0.11938854	0.601862342	0.574296702
0.43892863	0.438923876	0.87787891	0.626636232	0.596324702	0.170708235
0.469956	0.415682917	0.877380728	0.575536768	0.536279592	0.170602148
0.05464715	0.054790952	0.054572765	0.69054826	0.689906901	0.690290625
0.874494716	0.873442546	0.873810202	0.188831902	0.188441228	0.188300449
0.073773039	0.855432024	0.082238811	0.62789892	0.149353856	0.648280079
0.842666802	0.133810883	0.86184146	0.147401383	0.567688646	0.154406213
0.059386022	0.064527516	0.06338187	0.652006776	0.651758316	0.652117754
0.878107354	0.45989711	0.429850765	0.170838809	0.559777364	0.524459505
0.872251209	0.874170676	0.055346181	0.164833062	0.168097884	0.654717825
0.438817187	0.438812489	0.877655883	0.626669365	0.596312094	0.170766925
0.8752157	0.883868858	0.054271256	0.170745842	0.175479875	0.690440557
0.877076804	0.884268911	0.0000055	0.171078168	0.176514863	0.699625165
0.872842569	0.875592043	0.055341766	0.165624243	0.168730722	0.654762419
0.877355685	0.480733121	0.401649684	0.170467753	0.590143271	0.548446624
0.877410749	0.483570653	0.400277506	0.170551706	0.608609562	0.566005156
0.877469891	0.440965851	0.443601867	0.170617859	0.609264263	0.578678352
0.841721424	0.10299016	0.099006316	0.134990922	0.627674943	0.602606088
0.133718265	0.862479871	0.844594625	0.567788426	0.155228666	0.148231615
0.470057747	0.411896931	0.877904714	0.590512732	0.5514223	0.170533389
0.014529772	0.014624223	0.882156401	0.696877697	0.697125753	0.17575591
0.855296828	0.102840512	0.079014902	0.14934499	0.643453543	0.62350108
0.100656565	0.081808205	0.869310624	0.668967205	0.657718118	0.162626367
0.058405711	0.038132935	0.076422647	0.67947129	0.678812165	0.680191398
0.459009279	0.42198587	0.877437471	0.590784612	0.555092495	0.170455547
0.867007188	0.104050493	0.866729717	0.162687366	0.615471043	0.159138609
0.072990654	0.855300792	0.071500901	0.629391942	0.14917105	0.64954989
0.825148023	0.147464719	0.1319623	0.119030178	0.604089407	0.576035084
0.438880801	0.438876082	0.877783104	0.626684467	0.596344223	0.170647034
0.841794103	0.102958634	0.098944397	0.134985192	0.628139265	0.60272524
0.044560973	0.872583836	0.874580089	0.659195869	0.165667474	0.16841169
0.823596607	0.823746329	0.825308009	0.298601841	0.298809344	0.299378468
0.439768095	0.877678618	0.448828642	0.527489934	0.17078924	0.559971289
0.130481289	0.86300611	0.85729139	0.586612965	0.155149744	0.157283253
0.278269803	0.825828888	0.270836366	0.581840479	0.118814681	0.612571939
0.877436706	0.469885918	0.415515818	0.170592746	0.575617856	0.536336222
0.075990438	0.871783964	0.874773344	0.650551451	0.164642183	0.168558931
0.070387601	0.072042836	0.074962305	0.650109889	0.649612778	0.649620435
0.079529823	0.869034007	0.092583148	0.658361402	0.162595929	0.67002394
0.131078651	0.825708233	0.148621725	0.575221865	0.118859971	0.603967333
0.874179249	0.872638792	0.873587163	0.189060037	0.188207818	0.188249872
0.862929364	0.843150876	0.133735627	0.155355065	0.148271862	0.567749348
0.855989542	0.116712528	0.864279651	0.155780911	0.590208411	0.156053803
0.091468794	0.077806368	0.868876217	0.668268323	0.657132553	0.162644098
0.083487086	0.868876783	0.084770253	0.660390509	0.162668521	0.672957758
0.217602322	0.826499659	0.213104432	0.58007147	0.119084748	0.608345314
0.435452702	0.877404833	0.454819623	0.575869331	0.170569743	0.609214148
0.877233055	0.47032873	0.411766692	0.170387991	0.590660305	0.551626473
0.854885163	0.107587578	0.865037172	0.154939443	0.593754427	0.156929582
0.46983691	0.415730649	0.877380182	0.575477124	0.536323009	0.17054044
0.11144982	0.864668634	0.855826628	0.592134059	0.156335173	0.155507721
0.074867925	0.074912687	0.075251224	0.634454496	0.634317142	0.634425414
0.070690716	0.06515673	0.085231292	0.669932165	0.670803358	0.67187444
0.450552878	0.427127085	0.877695064	0.626617596	0.593047047	0.170508186
0.877229718	0.470318322	0.411786604	0.170386997	0.590659783	0.551626731
0.07486459	0.855724414	0.091386782	0.625982872	0.149366263	0.645543962
0.877226713	0.470306448	0.411810133	0.170386069	0.590659606	0.551627192
0.876849008	0.883575685	0.040856367	0.170884167	0.175937436	0.693070896
0.877686555	0.480929081	0.401813893	0.170804757	0.590286893	0.547959349
0.039691312	0.046718647	0.073681845	0.676659967	0.676944164	0.677081131
0.843714807	0.133777929	0.862281424	0.147769284	0.567711558	0.154911959
0.872002371	0.874266752	0.04721333	0.164828335	0.16803839	0.657090393
0.074553227	0.854938211	0.091324328	0.625810175	0.149110982	0.645466221
0.869073062	0.081118971	0.078348672	0.162563283	0.674136394	0.663011505
0.855470367	0.079652307	0.071854208	0.149209412	0.647842165	0.627894603
0.149296073	0.134393435	0.82556865	0.60389171	0.574883464	0.119381719
0.103167401	0.099200939	0.841626634	0.627701631	0.602540433	0.134993487
0.874225925	0.05542058	0.872334265	0.168720276	0.655075802	0.164840088
0.825529636	0.136976233	0.128241694	0.118596833	0.606641597	0.577314377
0.450178013	0.426752125	0.876945122	0.626578771	0.59300346	0.170507725
0.863479435	0.863574289	0.86349133	0.21903897	0.219435298	0.219001427
0.877765631	0.450589078	0.427162094	0.170577324	0.626409077	0.59326398
0.447760437	0.432431031	0.877046198	0.59082995	0.558348476	0.170130917
0.054265228	0.876223595	0.882387287	0.690392534	0.171139915	0.175406144
0.436023719	0.87744536	0.448134894	0.542691202	0.170599981	0.575493587
0.884294971	0.027326514	0.875765926	0.176176832	0.69525137	0.170630249
0.00000279	0.00000296	0.00000284	0.699319917	0.698918356	0.698498198
0.877346933	0.45900996	0.425579664	0.170578167	0.575615099	0.539612418
0.099242221	0.841752082	0.103090039	0.60242936	0.134915308	0.62766522
0.872199941	0.874922216	0.047105618	0.164824556	0.168233634	0.657036037
0.102152439	0.841519376	0.083417308	0.605479394	0.134659062	0.630742498
0.871486361	0.875559199	0.055330138	0.165108396	0.168718749	0.654858103
0.856091138	0.079460683	0.071887654	0.149264379	0.647827596	0.627208343
0.876968961	0.480764242	0.401165813	0.170264898	0.589615177	0.547572915
0.847457425	0.847136352	0.845692866	0.257396718	0.257557232	0.256740717
0.866253642	0.077168886	0.868503347	0.161431156	0.623190222	0.159852955
0.863878867	0.856510349	0.123153098	0.155760783	0.156532553	0.588421168
0.88334042	0.013706389	0.876144847	0.175410623	0.697336854	0.170860987
0.055362913	0.873025919	0.875248345	0.654710466	0.165383193	0.168858751
0.877903037	0.437501952	0.444459178	0.170921303	0.592388148	0.562808204
0.027321877	0.87692302	0.882394437	0.695094616	0.170907215	0.175559321
0.415516608	0.877363314	0.469992677	0.536189042	0.170527427	0.575439346
0.877153955	0.450283513	0.426855847	0.170583462	0.626393345	0.593256578
0.855629289	0.116707952	0.864432069	0.155901063	0.590235217	0.156219185
0.855764982	0.102843856	0.078863192	0.149590318	0.643283779	0.623696245
0.877738789	0.480971352	0.401797727	0.170768169	0.590261612	0.547986495
0.047137029	0.871273189	0.873922922	0.656966905	0.164386977	0.168069722
0.054610138	0.055032102	0.055110812	0.690513517	0.689987063	0.690086556
0.877491316	0.480530489	0.405740276	0.170596641	0.575410391	0.532977512
0.099645368	0.841780086	0.092665265	0.604307485	0.134895013	0.629752313
0.041537451	0.04112801	0.042156472	0.69299782	0.692527149	0.692514853
0.465748768	0.424329297	0.877258111	0.60842967	0.571819318	0.170559058
0.059687118	0.064272437	0.062372439	0.652158145	0.651854621	0.651922962
0.104017521	0.866187529	0.866369028	0.615317075	0.159084871	0.162909384
0.040973835	0.881706138	0.041384514	0.692481376	0.175410292	0.6920668
0.075971701	0.871685984	0.874895692	0.650567899	0.16461633	0.168611871
0.822886092	0.823055402	0.822044021	0.297962334	0.298720389	0.298241963
0.447780483	0.432473005	0.877103634	0.590850009	0.558424813	0.170186845
0.149191194	0.134019844	0.824993772	0.603424096	0.572841539	0.119059627
0.410064248	0.87733061	0.480790765	0.517488814	0.170446311	0.559465237
0.070076955	0.071551614	0.073634792	0.649691965	0.650166086	0.650158806
0.877197119	0.447820483	0.43285352	0.170269852	0.590952624	0.558564221
0.0453087	0.872169411	0.874752638	0.659057257	0.165442469	0.16854803
0.079730529	0.869185143	0.094066289	0.659158959	0.16273375	0.670614136
0.0000055	0.876167318	0.883969626	0.699274718	0.170593023	0.175529368
0.448110176	0.435967774	0.877427906	0.575766716	0.542781908	0.170562283
0.10014489	0.081482685	0.868864326	0.667624447	0.657229368	0.162588378
0.88210461	0.0000049	0.00000486	0.175440074	0.699271534	0.699249883
0.855012181	0.079442419	0.071835611	0.14910766	0.647777705	0.627411119
0.103150237	0.099173064	0.841624245	0.627697224	0.602554308	0.135011875
0.883187427	0.013708259	0.875616075	0.174993077	0.697433556	0.170439923
0.874547068	0.06524919	0.871443225	0.168426085	0.652708447	0.164605594
0.067314425	0.078216269	0.855293971	0.653713788	0.633277642	0.149348753
0.842918919	0.137210908	0.85997043	0.148558616	0.566252893	0.154235483
0.878379697	0.449271461	0.440018561	0.170702871	0.559753432	0.527733437
0.4807891	0.405915985	0.877496956	0.574762228	0.532226722	0.170539488
0.863392927	0.857025139	0.130375027	0.155074596	0.156916395	0.586468111
0.432909946	0.877986374	0.448275188	0.558398198	0.17067972	0.591550684
0.87773522	0.473618125	0.404227554	0.170542338	0.625820937	0.58609085
0.087774699	0.867283019	0.865621138	0.61984873	0.159687347	0.162189254
0.85607431	0.116696578	0.863410493	0.155370326	0.590448939	0.155258788
0.882729766	0.040845898	0.8764762	0.174830691	0.69282296	0.170780105
0.844380357	0.846455021	0.845652998	0.256670891	0.257145429	0.257025379
0.435359138	0.87730827	0.454816131	0.574122664	0.170545472	0.607880243
0.877278524	0.440463969	0.443890564	0.170629994	0.608639931	0.578046962
0.054280678	0.875165336	0.883359723	0.690589626	0.170930003	0.175494768
0.125077496	0.110181885	0.146947665	0.615377874	0.614464013	0.614364816
0.054655998	0.054302276	0.881176189	0.690044682	0.690601521	0.175308206
0.866633391	0.86660585	0.095343711	0.159319296	0.162633571	0.617858581
0.877672105	0.484894721	0.393026952	0.170737106	0.625182362	0.582604026
0.083111263	0.868898889	0.084863977	0.660013748	0.162669726	0.673578235
0.878251509	0.877303538	0.878331593	0.171121049	0.170480897	0.170797264
0.865593839	0.077133054	0.867439048	0.161511206	0.622974528	0.160357195
0.405782406	0.877348917	0.480695154	0.532734761	0.17063056	0.575050665
0.484526802	0.392662094	0.876938241	0.625253898	0.582544502	0.170643548
0.883828849	0.040850472	0.875945242	0.175745815	0.692917537	0.170724284
0.055364442	0.871726966	0.874318263	0.65487084	0.164533616	0.168365134
0.877543413	0.484820062	0.392976758	0.170607317	0.625285502	0.582578
0.48779112	0.525248257	0.876994573	0.560880261	0.53282832	0.170893264
0.847851673	0.846988539	0.84667512	0.257095777	0.257305358	0.256793415
0.875336134	0.883724846	0.054273403	0.170872963	0.175701793	0.690474175
0.88121591	0.00000489	0.00000478	0.175384946	0.699057287	0.698983003
0.054640702	0.054292222	0.881941231	0.689924173	0.690601335	0.175349276
0.881145944	0.00000483	0.00000481	0.175394546	0.699123833	0.699493555
0.841849397	0.092731001	0.099660288	0.134798739	0.629602965	0.604378738
0.079290444	0.868917686	0.088537623	0.660887843	0.162628198	0.670719283
0.824559833	0.823125455	0.82302213	0.298087955	0.298718468	0.298046625
0.445048565	0.877741251	0.438284657	0.562358809	0.170505289	0.592015044
0.46202871	0.415475477	0.877476367	0.626324435	0.589643343	0.170635005
0.41434458	0.877176913	0.474694578	0.568656758	0.170617495	0.60766055
0.045749503	0.04772438	0.053576243	0.655701573	0.656538539	0.656797474
0.855436519	0.123089222	0.864241616	0.156141437	0.588305663	0.155294475
0.856512706	0.123041368	0.862640168	0.156341553	0.588395831	0.155359174
0.43710377	0.446363693	0.877399464	0.575774163	0.546047075	0.170612952
0.863863043	0.85648552	0.123115624	0.155672291	0.156505229	0.588550865
0.079381616	0.868841664	0.088458832	0.6643301	0.162673314	0.674170518
0.066359837	0.078111802	0.855059664	0.654208487	0.633943101	0.148596434
0.865343876	0.081515011	0.866911393	0.161509241	0.621314977	0.159329556
0.102202327	0.841491928	0.083411753	0.605462791	0.134654351	0.630781362
0.88354764	0.027330552	0.875896221	0.175365449	0.695346683	0.170892195
0.825115229	0.823038139	0.825342214	0.29853589	0.298591776	0.298129211
0.00000479	0.881462073	0.00000492	0.699105374	0.175434273	0.699074532
0.866989598	0.865849225	0.077332376	0.160063068	0.161733949	0.622663781
0.04137651	0.041210819	0.042291885	0.693126376	0.692424587	0.692383513
0.450475976	0.427052347	0.877542794	0.626495693	0.593057776	0.170664647
0.130748699	0.825942705	0.149326827	0.575300909	0.118953007	0.603776894
0.874690615	0.047304807	0.871635868	0.168433254	0.656973329	0.164506288
0.102224339	0.841249946	0.083344577	0.605821742	0.134797163	0.631330267
0.881440978	0.00000495	0.00000479	0.175338889	0.699498953	0.699683345
0.447953769	0.432609924	0.877430704	0.590835837	0.558532084	0.170254595
0.095505879	0.866159846	0.866484049	0.617627917	0.159080259	0.162415145
0.877294412	0.448698794	0.439497682	0.170524006	0.55974802	0.527744016
0.13719407	0.861367511	0.843766003	0.56626835	0.153998177	0.148697655
0.841490065	0.113815267	0.100370495	0.135149996	0.625743949	0.600737448
0.877387308	0.469817083	0.415549785	0.170556704	0.575404581	0.536119904
0.027322077	0.876476925	0.88294047	0.695106765	0.170731341	0.175278615
0.866637848	0.866511262	0.09540363	0.159185666	0.162663802	0.617748837
0.82615645	0.14858033	0.130529877	0.119162336	0.605103643	0.575591663
0.415522274	0.877574858	0.462079969	0.589685978	0.170686374	0.626198588
0.841689488	0.113700089	0.100385151	0.135065815	0.62609668	0.600632343
0.459667359	0.429722332	0.877755769	0.559914938	0.524376334	0.17061595
0.153949425	0.85977755	0.847018725	0.560784068	0.152521459	0.151625483
0.869075055	0.090424127	0.076161588	0.162683754	0.671580488	0.659593245
0.072764122	0.855351579	0.081926897	0.627663861	0.149103173	0.647564784
0.86198197	0.843858173	0.133732136	0.155305651	0.148188602	0.567781494
0.103574097	0.841785667	0.125136889	0.598627337	0.135398267	0.623547161
0.103860856	0.841817095	0.125067987	0.598609482	0.135397162	0.623577619
0.866688778	0.866395515	0.095508328	0.159222341	0.162316926	0.617240794
0.305392212	0.826228873	0.295699746	0.590563698	0.118967893	0.616006439
0.866208312	0.095455688	0.867341725	0.162489669	0.617131816	0.159518095
0.877604671	0.473983208	0.484308458	0.170737492	0.561814705	0.532202208
0.070244497	0.071706971	0.074123262	0.649445782	0.649683571	0.649495639
0.882977832	0.054267692	0.87628093	0.175063218	0.690415809	0.170928719
0.058725632	0.038160997	0.076894012	0.679503385	0.678895099	0.68017793
0.148959997	0.141958631	0.096492831	0.619075167	0.616687866	0.615295757
0.87699812	0.483700332	0.469590059	0.170764583	0.561896456	0.532732248
0.866183963	0.087729299	0.867732677	0.161989626	0.619309157	0.159366712
0.855462286	0.10277692	0.078739592	0.149410082	0.643410004	0.623760211
0.866582426	0.095530636	0.8673874	0.16230396	0.617217098	0.159375135
0.429653896	0.877591188	0.45958344	0.524319032	0.17086958	0.559883275
0.877244692	0.473386733	0.41024234	0.170535331	0.609159545	0.569308082
0.070751123	0.051313846	0.08228566	0.673368006	0.672638826	0.67479412
0.027325897	0.877185065	0.884654978	0.695209272	0.171071133	0.17571289
0.102206009	0.841611783	0.083417031	0.606127131	0.134723241	0.63143797
0.855440853	0.102896685	0.078950985	0.149152057	0.643468775	0.623486523
0.856821191	0.068764703	0.072129356	0.149581494	0.650196583	0.628830174
0.841779207	0.124905905	0.103143708	0.135261062	0.623545802	0.597964043
0.874865299	0.065249426	0.871296513	0.168657404	0.652692662	0.164851393
0.878008071	0.481407008	0.401650912	0.170787574	0.589760654	0.547922467
0.041131162	0.04090665	0.881778972	0.692608169	0.693043259	0.175184376
0.866772119	0.087693898	0.867465094	0.162089194	0.619343887	0.15968367
0.081693972	0.079081165	0.868812289	0.675192039	0.663328484	0.162564126
0.480697078	0.401353071	0.877372974	0.590160115	0.548028601	0.170468707
0.091302813	0.077733255	0.869112714	0.66847741	0.657117859	0.162642549
0.078720556	0.869177856	0.093941666	0.659126822	0.162728584	0.670505393
0.866228595	0.10402871	0.866651511	0.162763449	0.615313391	0.159292179
0.866850367	0.865807375	0.08196232	0.159722256	0.161674418	0.62110709
0.480554426	0.401279016	0.877151428	0.589905001	0.547885159	0.170306625
0.059576709	0.064557604	0.062985236	0.652073824	0.65175522	0.652114499
0.859355896	0.845737944	0.15399543	0.15219888	0.151230241	0.560756019
0.881573177	0.027617331	0.0277381	0.175353161	0.694987181	0.695183979
0.054444247	0.055103611	0.054889252	0.690188591	0.690128342	0.690305197
0.871296627	0.874940467	0.075953102	0.164331729	0.168470436	0.650489913
0.405858782	0.877293937	0.480548649	0.532767423	0.170552966	0.575086604
0.868739222	0.084762687	0.076616063	0.162676894	0.672357763	0.661295242
0.866069514	0.081559784	0.867585289	0.162067665	0.621662877	0.159852597
0.877588991	0.459068882	0.422452761	0.170345275	0.590912505	0.555048824
0.866133947	0.081519673	0.867274472	0.161543608	0.621537877	0.159428363
0.059462581	0.064811116	0.06339875	0.652153524	0.651576131	0.651956111
0.825362967	0.148328046	0.130330544	0.119211871	0.603172125	0.575729786
0.090880639	0.079194372	0.869266654	0.668348278	0.657115331	0.16265062
0.466070785	0.423911771	0.877281382	0.608494238	0.571867813	0.17055912
0.02823267	0.028029011	0.881767395	0.694678692	0.694962508	0.175443094
0.40591739	0.877344248	0.480603289	0.532755249	0.170553992	0.575083579
0.444679921	0.877030998	0.437943405	0.561682785	0.170252888	0.591153085
0.075960934	0.871927771	0.875027793	0.650529416	0.164502837	0.168467894
0.051941564	0.053664259	0.058302362	0.654313366	0.654315941	0.654399636
0.480593981	0.401314253	0.877225191	0.590271571	0.547920951	0.170470537
0.278146403	0.281768144	0.826090643	0.610882275	0.58313269	0.119081835
0.448032628	0.432754268	0.87763779	0.590949939	0.558460468	0.170273186
0.825605746	0.148776514	0.132329355	0.118901725	0.604525842	0.57591102
0.856860649	0.123031881	0.864085462	0.156503578	0.588445528	0.155457937
0.099668459	0.841717539	0.092685831	0.604495267	0.134894925	0.629760583
0.047129058	0.87143965	0.874533834	0.656981225	0.164393959	0.168071203
0.255530656	0.268953331	0.825954201	0.612647691	0.583088337	0.118625065
0.070673679	0.051805512	0.0831232	0.673492766	0.672539517	0.674882483
0.872668124	0.87436838	0.075947469	0.164500116	0.168345463	0.650436713
0.86669238	0.087780827	0.867449752	0.162252333	0.620002538	0.159421864
0.860003373	0.845978482	0.147449318	0.153070517	0.150705386	0.562535024
0.141791545	0.860479119	0.844372146	0.564484642	0.15325264	0.149270349
0.068838392	0.07129806	0.855502567	0.650090909	0.629323395	0.149067624
0.84653296	0.153967593	0.858638566	0.150903357	0.560896827	0.151580672
0.871532282	0.875365138	0.065180376	0.164613213	0.168925286	0.652696201
0.067651939	0.067634476	0.067915135	0.636333877	0.63630134	0.636673043
0.446224435	0.877369192	0.444704672	0.576491326	0.170548341	0.606939602
0.415452511	0.877212801	0.469950067	0.536022102	0.170519814	0.57530749
0.335366312	0.825852563	0.325398117	0.581647075	0.118869074	0.61246483
0.092674595	0.099631203	0.841258618	0.629507276	0.604479379	0.134945056
0.480759042	0.405886216	0.877473438	0.574765375	0.532341621	0.170576155
0.045164855	0.048148483	0.051699637	0.657168179	0.658370805	0.659116387
0.877320486	0.484723138	0.392847432	0.170599757	0.625302054	0.582586538
0.864516708	0.863401432	0.863968251	0.219546028	0.219263183	0.219504608
0.87721664	0.473632425	0.40998103	0.170540537	0.609216404	0.569338143
0.871650681	0.874207477	0.048155395	0.165108239	0.16813063	0.6586557
0.469867455	0.411457957	0.877266189	0.590586487	0.552219265	0.170175843
0.054274807	0.875937312	0.883415272	0.690515115	0.17082427	0.17520695
0.484637625	0.392775446	0.877161948	0.625217962	0.582633772	0.170678071
0.877403119	0.462000892	0.415428803	0.170484527	0.626099711	0.589823872
0.866346785	0.866796632	0.104155384	0.159198217	0.163025149	0.615630409
0.092778624	0.099693469	0.84148803	0.629564355	0.604442995	0.134913277
0.881512791	0.041134351	0.040870575	0.175368535	0.692839082	0.692835935
0.48072695	0.401441162	0.877483676	0.590001766	0.548167561	0.170749446
0.877707956	0.884091338	0.040854628	0.170946301	0.175467196	0.693007682
0.868989036	0.080197722	0.077217762	0.162543118	0.674717573	0.663099683
0.857372693	0.130482468	0.862662092	0.156736156	0.586552917	0.154585493
0.877185254	0.459486317	0.42933617	0.170466605	0.559805502	0.52442572
0.864295757	0.85372698	0.107681164	0.156455363	0.154061439	0.593753109
0.437094231	0.446338	0.877364314	0.575743281	0.546039276	0.170600649
0.877376627	0.448091212	0.435858647	0.1706249	0.575748933	0.542887072
0.429648874	0.877495092	0.459495894	0.524318446	0.170861379	0.559848096
0.863592037	0.844286009	0.133707767	0.155124453	0.147897907	0.567843401
0.080246145	0.869031244	0.09272257	0.658381596	0.162579441	0.670087347
0.882222328	0.054358895	0.054274671	0.175355005	0.68982156	0.690265488
0.092733263	0.099642012	0.841351506	0.629490052	0.604544146	0.13495178
0.00000277	0.00000288	0.00000282	0.699133435	0.699494978	0.698742748
0.884087499	0.013709696	0.87638907	0.176013842	0.697570408	0.170848773
0.099238063	0.841957429	0.102983286	0.602398583	0.134873439	0.627720792
0.425668188	0.87743603	0.459168184	0.539397959	0.17056353	0.575458772
0.067550453	0.067714618	0.067757178	0.636371248	0.636628971	0.636762484
0.092726079	0.099576645	0.841313005	0.629518121	0.604445977	0.134853913
0.875811871	0.883690695	0.0000055	0.170771366	0.175592828	0.699381875
0.859793936	0.846100087	0.147443451	0.1531105	0.150752572	0.562531763
0.877473788	0.450726678	0.432323659	0.170562589	0.609591383	0.576219474
0.882369564	0.041033382	0.040875938	0.175733663	0.692357015	0.692949717
0.054255687	0.881603973	0.054650879	0.69049921	0.175341909	0.689979951
0.855433916	0.06890643	0.071793323	0.148990973	0.649973283	0.62938679
0.826522202	0.148208923	0.131638594	0.11913673	0.60485852	0.57561428
0.450476472	0.427052869	0.877543811	0.62649571	0.593057783	0.17066482
0.438761793	0.877554504	0.438766494	0.596391693	0.170875553	0.626487576
0.41556847	0.877415813	0.469959532	0.536202653	0.170569935	0.575464871
0.054600848	0.054271868	0.881738732	0.689841788	0.69030806	0.175589101
0.013705955	0.876485892	0.883596468	0.697231267	0.170876841	0.175598884
0.058606865	0.038206219	0.076836388	0.67962214	0.678874488	0.68021073
0.45900499	0.421990371	0.87743729	0.590913859	0.555021775	0.170307656
0.414315324	0.877440182	0.475604873	0.566362127	0.170641741	0.605602051
0.877497558	0.439721951	0.444989499	0.170622077	0.609545039	0.579032137
0.42006899	0.878179565	0.470611114	0.520839365	0.170867146	0.55976777
0.855242755	0.102874736	0.079009744	0.149121935	0.643439236	0.623563487
0.103415472	0.841791322	0.125019957	0.598642558	0.135421022	0.623563372
0.08301232	0.080327898	0.868837309	0.675963893	0.663679853	0.162607235
0.877329861	0.451009917	0.432012237	0.170487043	0.608747354	0.57526046
0.447820766	0.432529012	0.877209272	0.590783072	0.55844948	0.170227254
0.422443563	0.877996228	0.459172976	0.555249924	0.170545091	0.591180529
0.085782679	0.869135328	0.08232619	0.66472716	0.162345147	0.677172054
0.00000549	0.876670369	0.883202039	0.699009333	0.171012059	0.175574647
0.843180729	0.133722139	0.861614229	0.147530103	0.567810929	0.154533636
0.841843869	0.102952523	0.09905967	0.13498828	0.627737432	0.602589935
0.107626767	0.864509468	0.855202308	0.593832567	0.157039954	0.154973168
0.841732531	0.092703608	0.099691025	0.134791521	0.629630066	0.604229376
0.864158637	0.85567941	0.116634065	0.155665441	0.155660376	0.590341103
0.877880567	0.877129084	0.877069078	0.171267059	0.170510535	0.170764348
0.876170739	0.882468302	0.040860261	0.170532406	0.175146809	0.693128436
0.841753869	0.092670366	0.099692122	0.134773775	0.629593635	0.604260546
0.437084166	0.446338634	0.877354277	0.575723822	0.546007789	0.170627456
0.041500158	0.882056846	0.041496555	0.69255888	0.175482649	0.69212362
0.841111988	0.083333323	0.102219815	0.134843045	0.63121453	0.605943558
0.876780921	0.884285118	0.0000055	0.171085889	0.176541984	0.699631197
0.480616284	0.401328922	0.877265404	0.589948331	0.547922093	0.170356336
0.855177625	0.079436404	0.071843555	0.149105613	0.64780178	0.627395968
0.841736239	0.103031317	0.099040188	0.134993763	0.627681585	0.602614766
0.864346264	0.855864551	0.116635998	0.155522575	0.155536422	0.590347229
0.438288274	0.444332911	0.877113077	0.591870036	0.561747997	0.170447199
0.860128906	0.844687544	0.137200123	0.154362486	0.149161811	0.566291407
0.877348768	0.440467259	0.444174307	0.170618521	0.609870679	0.579581155
0.054681601	0.055038337	0.05485122	0.690193812	0.690219303	0.690252389
0.448161315	0.435879069	0.877403458	0.5757153	0.542770388	0.170563684
0.054273616	0.881543796	0.054675811	0.690611822	0.175362591	0.690005483
0.858514062	0.845299055	0.153971656	0.151501933	0.150918116	0.560799127
0.438765224	0.438760561	0.877552081	0.626612107	0.596333349	0.170691334
0.825882719	0.217463687	0.224637508	0.118732055	0.611224898	0.583653037
0.446145191	0.877316919	0.443953299	0.576563925	0.170578133	0.607315283
0.873659375	0.873167569	0.871835562	0.188747285	0.188816106	0.188494091
0.825937093	0.237097694	0.247435946	0.118985628	0.611968135	0.581796637
0.425530783	0.877235855	0.459097075	0.539476221	0.170501042	0.575600257
0.141783238	0.862231904	0.846630339	0.564547465	0.154179215	0.150201142
0.446144061	0.8776651	0.437502421	0.562705496	0.170714753	0.592405731
0.864909582	0.855335368	0.111462073	0.156123884	0.155188975	0.59231212
0.044549738	0.871474395	0.874095814	0.659340361	0.164843521	0.167957307
0.495470509	0.515850873	0.877982262	0.562460727	0.533509456	0.17062679
0.081544809	0.078929477	0.86890417	0.67520846	0.663111854	0.16255164
0.825625596	0.274879961	0.284995677	0.118333976	0.610985806	0.582247451
0.437106789	0.446369209	0.877408027	0.575775127	0.546051896	0.170610332
0.411615625	0.877543486	0.470010157	0.551595181	0.17045113	0.590530929
0.881425388	0.00000492	0.00000482	0.175525743	0.698900633	0.699272681
0.55941477	0.876985106	0.565838748	0.538558747	0.170429695	0.566118445
0.040861373	0.87517669	0.883746351	0.693136378	0.170725577	0.175689414
0.878104675	0.459852614	0.429887399	0.170415579	0.559789949	0.524418238
0.84389522	0.137132071	0.861625407	0.148849905	0.566223333	0.154336039
0.883140252	0.0000055	0.876206325	0.175379905	0.699342766	0.170971602
0.862246405	0.843255904	0.133710455	0.155023068	0.147745337	0.567697873
0.45500664	0.43588693	0.877399777	0.611028995	0.577432675	0.170589328
0.878031214	0.470457821	0.420085603	0.170700938	0.55973248	0.521065318
0.877489692	0.450971676	0.432050791	0.170540806	0.60936933	0.576049646
0.081852395	0.869263798	0.09988032	0.656585926	0.162651142	0.669321176
0.877485137	0.480620407	0.405655251	0.170569922	0.575396169	0.532902851
0.869106695	0.097576524	0.081378691	0.162757913	0.667711706	0.654232242
0.876307099	0.883701963	0.027319063	0.170569073	0.175816728	0.695045413
0.862293044	0.863372608	0.863288718	0.21915388	0.219122791	0.219500791
0.069503109	0.065494479	0.084827766	0.670468361	0.670690367	0.672848652
0.845130112	0.141797519	0.860346764	0.149655369	0.564522885	0.153462153
0.062503843	0.062469137	0.062421947	0.638263289	0.638265266	0.638504041
0.854737785	0.107515463	0.864568872	0.154865991	0.593922821	0.156998749
0.877325503	0.437067962	0.446325533	0.17059223	0.575754958	0.546071661
0.421719675	0.877086037	0.458994954	0.554915808	0.170044569	0.590277143
0.099105664	0.841825675	0.103197627	0.602347874	0.134899413	0.627669386
0.027500991	0.881936006	0.027828735	0.694940809	0.175100334	0.695163192
0.101861721	0.126563095	0.169323157	0.616995978	0.622121391	0.620208816
0.480768612	0.401473509	0.877557356	0.590035308	0.548257934	0.170416257
0.459010213	0.421991708	0.8774431	0.590785146	0.555092289	0.170457112
0.208282678	0.826090203	0.212961085	0.5806598	0.119363619	0.609402152
0.882898693	0.027327229	0.876514068	0.175582862	0.695232103	0.171066721
0.00000482	0.88237838	0.00000484	0.699278146	0.175324616	0.699259396
0.055672219	0.045066106	0.075060311	0.674387142	0.674654256	0.67568407
0.841317538	0.102947771	0.099024599	0.134987669	0.627669435	0.602738231
0.434996965	0.877389198	0.454909796	0.574037422	0.170555408	0.6076759
0.866765865	0.095625308	0.866913702	0.162318228	0.617697911	0.159325282
0.843774879	0.1337782	0.862195399	0.147639084	0.567828685	0.154601355
0.87170455	0.874791445	0.046840462	0.16476027	0.16825523	0.658081683
0.070146333	0.071867046	0.074319179	0.64968195	0.649606188	0.649456732
0.857246577	0.130485623	0.862614672	0.156593397	0.586481387	0.154363731
0.876550786	0.884166704	0.013708373	0.170892165	0.175919947	0.697419816
0.877528101	0.450468785	0.427044702	0.170693268	0.626494491	0.593027045
0.404224176	0.877709021	0.473596455	0.586191792	0.170703694	0.625716912
0.054815962	0.055143413	0.054754282	0.690399764	0.690548842	0.690567666
0.882695587	0.027507627	0.027367588	0.175459999	0.694902526	0.694794766
0.088290323	0.080130867	0.868765442	0.672413441	0.660277643	0.162684275
0.865635375	0.081503366	0.867167274	0.161505605	0.621401107	0.159322976
0.405864511	0.877369666	0.480677244	0.532736361	0.170622058	0.575021355
0.825520355	0.136831566	0.128112009	0.118597127	0.606637181	0.577287114
0.480700538	0.405663101	0.877341562	0.575273189	0.532770236	0.170517779
0.111390623	0.86533177	0.855929598	0.592266944	0.156296449	0.155519491
0.081530301	0.856057499	0.068574608	0.633278445	0.14907431	0.654606176
0.874371089	0.049775353	0.872268326	0.16827821	0.658815793	0.165009459
0.099209772	0.84176914	0.103076998	0.602465795	0.134906126	0.627652349
0.427152255	0.877742089	0.450575218	0.593066597	0.170814005	0.626454964
0.47024878	0.411724457	0.877897338	0.590570841	0.551619038	0.170379156
0.866967201	0.866117875	0.08174693	0.159249109	0.161893398	0.621197821
0.419807342	0.877545143	0.470256329	0.520796657	0.170895383	0.559752884
0.86659586	0.866653852	0.104468068	0.159131662	0.162812983	0.615226435
0.87216382	0.875848986	0.065177666	0.165081847	0.169403406	0.652727785
0.013708088	0.876444621	0.88372437	0.697339481	0.170905266	0.175752824
0.438356829	0.438352087	0.876735091	0.626733776	0.596313341	0.170469029
0.85407397	0.065652757	0.079197649	0.148677374	0.652474986	0.632068034
0.877485556	0.480503542	0.405824764	0.170591697	0.575397019	0.532974551
0.448128009	0.435921809	0.877392737	0.575578971	0.542618637	0.170577058
0.450461492	0.427035832	0.87751187	0.62648377	0.59308006	0.170655374
0.859075251	0.846269928	0.153947065	0.152335689	0.151468248	0.560925581
0.872815641	0.875404603	0.046914748	0.165174793	0.168357718	0.658411831
0.826625723	0.201883519	0.195022454	0.11886492	0.61044167	0.578251034
0.0142244	0.881098302	0.014531965	0.697209013	0.17535164	0.697675712
0.856586447	0.13038831	0.862320281	0.156236734	0.586382191	0.154345989
0.125106074	0.112511483	0.1460193	0.616399196	0.614472131	0.615696048
0.00000484	0.00000485	0.881742909	0.699379882	0.699830465	0.175324898
0.469865871	0.415737907	0.877393652	0.57542363	0.536261387	0.170586631
0.047155595	0.871544528	0.87433168	0.656828104	0.164567195	0.1681786
0.087612986	0.868586272	0.085121085	0.664345564	0.16257826	0.677174028
0.864592054	0.855053752	0.111385036	0.155767076	0.154686984	0.591944936
0.872602986	0.874258208	0.05534057	0.165290635	0.16855914	0.654700647
0.863356483	0.856949084	0.130341951	0.154638326	0.156810358	0.58644428
0.092250037	0.079350835	0.869406188	0.668129776	0.657080038	0.162653693
0.881384001	0.00000488	0.00000486	0.175379382	0.699239085	0.699697614
0.868845609	0.097664775	0.080780514	0.162779273	0.666146945	0.654062253
0.876854687	0.480591526	0.409790523	0.17040296	0.55934104	0.51763699
0.10443358	0.86681906	0.866795427	0.615039663	0.15918633	0.162914462
0.276484018	0.279323759	0.826068507	0.610929797	0.583040905	0.119046536
0.454608234	0.435944512	0.877423645	0.610500216	0.57650369	0.170559997
0.877288917	0.483831174	0.399912427	0.170532166	0.608403921	0.565793239
0.871611541	0.875858515	0.065173344	0.165071749	0.169386328	0.652708973
0.070294897	0.071769309	0.07426297	0.650181727	0.649654308	0.649421165
0.877578659	0.480932274	0.410171696	0.170902298	0.559588437	0.517362163
0.877222325	0.450316663	0.426891217	0.170420108	0.626416492	0.593224408
0.027500948	0.881918775	0.027825488	0.694938948	0.175105748	0.695154291
0.868898916	0.081001587	0.077781286	0.162637316	0.672427876	0.661633421
0.080689012	0.856033936	0.104059093	0.623558419	0.1495293	0.643735749
0.826230998	0.23054192	0.23808678	0.11880462	0.609357731	0.580428725
0.045745399	0.048072831	0.054361097	0.655534332	0.65641347	0.655440011
0.435903776	0.877321607	0.448078231	0.542885369	0.170513103	0.575824865
0.871946998	0.874144999	0.047866875	0.165123592	0.168140257	0.658668987
0.877349862	0.437078228	0.446339223	0.170589025	0.575756559	0.546080316
0.459065075	0.425715719	0.877362815	0.575490387	0.539369085	0.170572347
0.393071346	0.877741894	0.484923084	0.582669844	0.170839419	0.625246825
0.875473596	0.075996948	0.871304627	0.168839637	0.650443636	0.164371149
0.845376277	0.141741182	0.860823623	0.150012016	0.564513452	0.153761182
0.876851081	0.450130804	0.426705287	0.170661291	0.626580602	0.5930387
0.877610958	0.448839483	0.439686108	0.170724019	0.559813431	0.527695713
0.42239774	0.878099995	0.459311468	0.555312537	0.170549563	0.591199976
0.865103867	0.855754738	0.111447904	0.156241751	0.155443487	0.592209359
0.877295362	0.448042814	0.435860102	0.170597285	0.575685772	0.542806278
0.423805636	0.877372011	0.465147912	0.572709589	0.170573518	0.609451176
0.864955948	0.854581648	0.107677343	0.156403619	0.154057339	0.593809419
0.87779611	0.447986639	0.433320186	0.170654413	0.590923442	0.557925425
0.404174202	0.877628768	0.473565493	0.586220267	0.170788199	0.625865318
0.065207124	0.871083106	0.873790151	0.652774995	0.164547579	0.168607484
0.868711557	0.076304627	0.079673497	0.162581155	0.676065525	0.664271027
0.877253708	0.450331955	0.426907341	0.1704875	0.62640344	0.593190389
0.072992425	0.855306903	0.071498862	0.629437529	0.149103021	0.649530725
0.111370179	0.864719317	0.855566259	0.59203994	0.156241473	0.155215241
0.422227192	0.877864846	0.459290226	0.555169489	0.170343743	0.590441456
0.459045452	0.425680696	0.877362455	0.57585652	0.539658575	0.170585079
0.854526806	0.107506675	0.865282777	0.154927203	0.593905356	0.157101529
0.130401322	0.863020034	0.857530948	0.586352287	0.155137166	0.157458091
0.081663845	0.078626395	0.868895979	0.675887486	0.663936411	0.162582684
0.877854349	0.877496729	0.878807363	0.170704823	0.17076998	0.170975519
0.0797843	0.071494776	0.855153073	0.647707008	0.62778509	0.149164713
0.059593524	0.064366737	0.062842368	0.651899945	0.65188552	0.652252317
0.068844931	0.071291398	0.85556286	0.6501026	0.629390873	0.149046454
0.143089316	0.826099229	0.148968566	0.576203821	0.119266585	0.605658743
0.425655784	0.877323735	0.459087385	0.539464006	0.170504795	0.575592989
0.41554508	0.877623394	0.462105402	0.589655297	0.17076685	0.626162765
0.014327395	0.881087074	0.014153786	0.697480782	0.175520821	0.696673666
0.092720846	0.099596036	0.841602399	0.629577467	0.60457294	0.134958397
0.070216216	0.071466716	0.073729522	0.649691658	0.650197652	0.650619723
0.080887913	0.084357615	0.86896606	0.679623156	0.666593752	0.162501378
0.065218576	0.872335882	0.873799499	0.652790527	0.164669732	0.168272071
0.862870024	0.862763036	0.863497625	0.218254218	0.218782243	0.219428493
0.855856888	0.066577812	0.078948332	0.148836851	0.6521221	0.631703988
0.877257709	0.438618411	0.4386136	0.170318339	0.626408921	0.596528614
0.869159271	0.098443976	0.079811605	0.162730201	0.669966155	0.657275021
0.276819173	0.825821441	0.26858836	0.582357843	0.118790223	0.612651896
0.874165307	0.047316497	0.87103062	0.16842097	0.656999486	0.164510939
0.882248373	0.027716013	0.02742715	0.175557085	0.694588109	0.694781666
0.448154277	0.435901426	0.877417263	0.575761555	0.542802525	0.170564938
0.041106835	0.040928976	0.880760891	0.692550987	0.693130036	0.17500424
0.466122348	0.424458903	0.877339718	0.608556035	0.571977895	0.170558626
0.111447745	0.864139541	0.855423899	0.592104981	0.15583826	0.155072409
0.054270758	0.877162149	0.882683431	0.690439471	0.171465683	0.175481195
0.081794595	0.867086833	0.866278608	0.621093215	0.159744595	0.161657585
0.87752309	0.462057216	0.415492838	0.170714805	0.626247772	0.589613409
0.825607627	0.149149235	0.133717683	0.118979804	0.60466462	0.575548692
0.077065447	0.86767188	0.864982785	0.62303215	0.160048988	0.160934201
0.509979985	0.50680201	0.877284588	0.560564266	0.531441518	0.170683772
0.470025456	0.415642692	0.877387813	0.575403833	0.536208898	0.170551353
0.450526026	0.427094309	0.877635202	0.626589288	0.593091412	0.170614673
0.04141115	0.041191011	0.042263891	0.693122958	0.692452738	0.692391783
0.877686198	0.47031757	0.419885234	0.170739525	0.559639664	0.520957202
0.884039453	0.013709789	0.875731601	0.176041065	0.697573128	0.170860372
0.847336223	0.846972003	0.846528768	0.257041326	0.257419005	0.256736304
0.862309618	0.842639708	0.133733353	0.154721437	0.147467402	0.5676972
0.845926758	0.847137007	0.846198008	0.256747144	0.257079314	0.257099666
0.871049282	0.873872979	0.047122172	0.16484168	0.168191097	0.657067633
0.103409113	0.841562733	0.125141217	0.598313542	0.1351699	0.623486275
0.868781391	0.084430966	0.07637627	0.162672606	0.672708031	0.661533587
0.82548832	0.263525303	0.275258332	0.118705739	0.610920088	0.582992393
0.855634245	0.065488967	0.079201058	0.148628085	0.65242629	0.631822549
0.877477287	0.480630832	0.405667665	0.170543021	0.57506677	0.532720925
0.138464097	0.130889668	0.82614576	0.606092751	0.577440571	0.119386056
0.447597005	0.877313433	0.444277639	0.577245461	0.17056502	0.607503774
0.153940004	0.860611097	0.847381503	0.560907379	0.152845142	0.151991577
0.422141971	0.877495669	0.458981136	0.555328712	0.170430489	0.591122548
0.41548001	0.877494805	0.462042151	0.5898332	0.170514043	0.626052919
0.459062653	0.425724256	0.877363531	0.575490257	0.539369151	0.170572132
0.876809365	0.883573354	0.040856391	0.17088407	0.17594023	0.693071096
0.469865788	0.415737936	0.877393534	0.575423666	0.53626134	0.170586663
0.842913735	0.133825855	0.861407193	0.147380016	0.567696614	0.154405126
0.111460951	0.864116779	0.855253742	0.592059794	0.155846582	0.15508692
0.875512337	0.065231083	0.871320602	0.168678554	0.652795426	0.164278242
0.446473114	0.877347698	0.445471648	0.577482252	0.170566901	0.607712712
0.414074173	0.87745171	0.475743486	0.566206399	0.170654513	0.605514451
0.00000485	0.00000485	0.881350946	0.699323179	0.699232495	0.175078232
0.859794995	0.846100592	0.147439576	0.153136646	0.150784305	0.562530823
0.107695532	0.864177513	0.853756246	0.59383713	0.156861677	0.15445317
0.041226487	0.882678521	0.041527454	0.692732161	0.175836087	0.692334083
0.841801335	0.113834501	0.100441832	0.135160155	0.626207339	0.600829557
0.8854557	0.027326539	0.877648945	0.17574681	0.695200352	0.171301593
0.84571999	0.846054032	0.847279523	0.257459203	0.256719637	0.257802437
0.01440819	0.881133279	0.014465709	0.69717503	0.175236802	0.697678662
0.87751667	0.448108322	0.432881309	0.170537657	0.590754402	0.557804464
0.401077356	0.876644909	0.480328081	0.548291764	0.17002288	0.590097013
0.469940016	0.415657723	0.877326819	0.575353375	0.536160378	0.170551175
0.844270648	0.133788877	0.86238585	0.147814594	0.567820607	0.15498719
0.027323052	0.875801361	0.883530301	0.695149891	0.170808856	0.175505698
0.462009714	0.415443526	0.877426246	0.626341908	0.589650704	0.170591864
0.087695723	0.868567853	0.0851174	0.664251929	0.162586835	0.677104617
0.878056215	0.459806391	0.429891918	0.170533236	0.559667133	0.524599
0.083407069	0.102165504	0.841549518	0.630886898	0.605745681	0.134729777
0.11139127	0.864929069	0.855822665	0.592267843	0.156289547	0.155504248
0.092661487	0.099570708	0.841410944	0.629562424	0.604451124	0.134827788
0.862348533	0.843638894	0.133704971	0.155227198	0.148095395	0.567845424
0.842938812	0.13378057	0.861610239	0.14736526	0.567789948	0.154394275
0.130386711	0.863597334	0.857371924	0.58623465	0.154986245	0.157378092
0.861132811	0.843776704	0.137211227	0.153828384	0.14821661	0.566262636
0.20573606	0.826560665	0.210967748	0.580054564	0.11914775	0.607174684
0.866407125	0.095574449	0.866860267	0.16236035	0.617575725	0.159341269
0.082053788	0.856076031	0.068781263	0.631776579	0.149045894	0.652779971
0.469865754	0.415738038	0.877393549	0.575423661	0.53626135	0.170586666
0.876744053	0.877192674	0.876834154	0.170429058	0.170668795	0.170403536
0.874663444	0.076027192	0.870534328	0.168710771	0.650562631	0.164580486
0.866801641	0.087784971	0.867439473	0.162220672	0.619959151	0.159435171
0.43589236	0.877270008	0.448044952	0.542844036	0.170551727	0.575750578
0.099897537	0.081364416	0.869225478	0.669230587	0.657510015	0.162741282
0.877483021	0.473489741	0.410242246	0.17059757	0.609292259	0.56949653
0.872754484	0.876031145	0.075948968	0.16477271	0.169263322	0.650545239
0.448496095	0.439297119	0.876861421	0.559830245	0.527627773	0.170489167
0.877076871	0.47576355	0.477485109	0.170780965	0.563046129	0.53411488
0.877685557	0.484897798	0.393038217	0.170761012	0.625190593	0.582600909
0.06252814	0.062481134	0.062464028	0.638398573	0.638430835	0.638539483
0.877287758	0.437124867	0.444239408	0.170371151	0.591453936	0.561925109
0.877732942	0.885007634	0.013707267	0.170957965	0.175818929	0.697390583
0.04124987	0.883094178	0.041892311	0.692808933	0.175674584	0.69259635
0.864175759	0.8545994	0.107657987	0.156329207	0.154189918	0.59388565
0.450685913	0.427262913	0.877963215	0.626529191	0.593104087	0.170622667
0.875907396	0.883345595	0.0000055	0.170611414	0.175229312	0.699305462
0.875864428	0.883328558	0.0000055	0.170510143	0.175227735	0.699264382
0.054272002	0.881570415	0.05464953	0.690409299	0.17534479	0.690005791
0.415724956	0.877381714	0.469845876	0.536130229	0.170523324	0.575445621
0.054592679	0.055296352	0.054942998	0.690411921	0.690068782	0.69039141
0.877404427	0.450741485	0.43245542	0.170560092	0.609764488	0.576354413
0.027303042	0.881673355	0.027661796	0.695335638	0.175104426	0.694420828
0.469910526	0.415649161	0.87739223	0.575436016	0.536279802	0.170561021
0.410293442	0.877934666	0.481150624	0.517573956	0.170520448	0.559340793
0.066219649	0.078888547	0.854464382	0.653822131	0.634235712	0.148930818
0.841697729	0.113745253	0.100458583	0.135065967	0.625693118	0.60044677
0.883729781	0.054273422	0.876454397	0.175028153	0.690496569	0.170777001
0.883850191	0.054272551	0.876520354	0.17502093	0.690486373	0.170811794
0.12311564	0.863377129	0.857348843	0.58835442	0.155189781	0.156392086
0.073056138	0.856071751	0.082262508	0.627832858	0.149383268	0.647602297
0.480735376	0.401422671	0.877472806	0.590028503	0.548234185	0.170533538
0.883935665	0.027324332	0.87687122	0.175753559	0.695164055	0.17145323
0.877387338	0.469817125	0.415549641	0.170556696	0.575404563	0.536119921
0.403464545	0.877368788	0.48510481	0.564687484	0.170541641	0.607336556
0.027478906	0.881384353	0.027641739	0.695132629	0.175026817	0.694701072
0.130365373	0.863596605	0.857941057	0.586460411	0.154690252	0.157174181
0.855627024	0.068665036	0.072050308	0.148937496	0.650173834	0.629500549
0.823402853	0.823740915	0.824750181	0.298139489	0.298789252	0.298825592
0.883064629	0.054273608	0.876447203	0.175028927	0.69048773	0.170933672
0.843788817	0.137216004	0.861024659	0.148731238	0.566248992	0.154142538
0.056688389	0.044809105	0.075516416	0.67563741	0.674590355	0.676175205
0.881280595	0.054645667	0.054282763	0.175110837	0.690009873	0.690289157
0.863888343	0.863110891	0.863842229	0.21953011	0.219199944	0.219609507
0.432746889	0.877741062	0.448157816	0.558277107	0.170849854	0.591370936
0.059374902	0.064128266	0.063364738	0.652179925	0.651565923	0.651808619
0.87574181	0.883749826	0.05427659	0.170888251	0.175670824	0.690523194
0.882008293	0.027560719	0.027443494	0.175481425	0.694351783	0.694809489
0.077522967	0.86882419	0.087397361	0.663917144	0.162661587	0.674562046
0.439022489	0.878075844	0.439027213	0.596295961	0.171210037	0.62671017
0.410351868	0.877701334	0.480883185	0.517485228	0.170502168	0.559445514
0.060013661	0.060017751	0.059991931	0.639433363	0.640124806	0.639901583
0.459482331	0.429528182	0.877368538	0.559820343	0.524444848	0.170617334
0.444699577	0.877362627	0.438488661	0.561806544	0.170391857	0.591253327
0.401598504	0.877518228	0.480674881	0.548218552	0.170388847	0.589945857
0.079625146	0.071586772	0.855816546	0.64786754	0.627749272	0.149038
0.00000482	0.00000489	0.881493846	0.699328784	0.699105609	0.175029234
0.878190699	0.481184616	0.410529649	0.170952975	0.559600386	0.517360955
0.825665198	0.275248604	0.275890413	0.118621292	0.610037005	0.583159583
0.060084447	0.059994026	0.059899769	0.6399707	0.64059059	0.639925369
0.485131911	0.393277198	0.878157967	0.625277998	0.5825091	0.170578525
0.435853149	0.877363772	0.454383649	0.576172956	0.170574189	0.609561188
0.014001172	0.014071966	0.882287763	0.697210071	0.696746073	0.175381572
0.131400177	0.826133379	0.149903201	0.576271032	0.118922008	0.604163989
0.107741234	0.86552029	0.854968369	0.593978043	0.157127762	0.154946681
0.874349968	0.065235745	0.87115056	0.168205451	0.65274331	0.164420929
0.067561045	0.067727576	0.067841036	0.636297777	0.636575136	0.636771406
0.878195687	0.877383953	0.878620057	0.170835876	0.170567864	0.171054723
0.077204998	0.080710722	0.868998143	0.678452628	0.665940497	0.162492373
0.844920812	0.137223421	0.861538978	0.148836451	0.566265571	0.154249121
0.444591594	0.877365753	0.438547847	0.56181088	0.170410068	0.591289806
0.877606832	0.470358311	0.419753818	0.170809195	0.559661423	0.520963217
0.413897952	0.877393789	0.475681544	0.566035553	0.170676454	0.60548428
0.103077021	0.078866611	0.855825955	0.643064641	0.623588168	0.149741839
0.10315231	0.099108367	0.841692982	0.627710043	0.602601507	0.13500499
0.866984238	0.104017028	0.866348788	0.162833264	0.615259887	0.1591416
0.088004362	0.867261122	0.865787912	0.619196466	0.159739916	0.161989733
0.845480039	0.141798593	0.860422852	0.149647997	0.564536641	0.153460073
0.040663022	0.046448644	0.074528257	0.677667198	0.677315481	0.680135484
0.02801956	0.02758294	0.028291929	0.695444198	0.694633548	0.695246041
0.881958536	0.00000485	0.00000484	0.17539797	0.699200842	0.699347278
0.103016533	0.078884482	0.855951776	0.643235771	0.623615006	0.149657917
0.103518899	0.841852641	0.125180535	0.598637152	0.13529026	0.623516852
0.841773785	0.113745702	0.100313321	0.135135302	0.626205738	0.600751429
0.100231092	0.133340796	0.175656011	0.617666363	0.621117257	0.62172433
0.458839628	0.421807054	0.877086119	0.590943408	0.555033958	0.170315459
0.014521335	0.881354845	0.014625234	0.697349715	0.175490304	0.697144906
0.092956974	0.080034759	0.869413559	0.66805693	0.657014598	0.162661566
0.855346793	0.10283755	0.079126899	0.149358709	0.643459928	0.623498162
0.439571606	0.877390612	0.448746301	0.527658655	0.170545023	0.559747305
0.843848263	0.846435052	0.845361964	0.256593333	0.257196846	0.256921906
0.857086554	0.123141473	0.863711598	0.156476208	0.588500726	0.155486973
