Vam	Vbm	Vcm	Iam	Ibm	Icm
0.087999358	0.867434872	0.86573779	0.619194831	0.159436132	0.162138889
0.864645699	0.854637114	0.111427699	0.155810272	0.154351408	0.591921767
0.08197334	0.855022432	0.066841929	0.631411006	0.148983293	0.653084879
0.084471166	0.076645758	0.855435056	0.647247916	0.627985316	0.148921557
0.863260275	0.863328845	0.863804218	0.219074115	0.218730049	0.219202602
0.419999341	0.877902683	0.470413269	0.520923006	0.170971869	0.559693321
0.877359997	0.479351151	0.502871829	0.170190304	0.560349823	0.531792118
0.480926193	0.410268951	0.877673029	0.55940323	0.5174662	0.170756163
0.093285348	0.306996048	0.257803688	0.622360049	0.627862284	0.623885454
0.87275032	0.87422496	0.075968081	0.164726012	0.168164364	0.650564678
0.88139437	4.8973E-06	4.77303E-06	0.175241329	0.698891075	0.699421845
0.027955378	0.882025961	0.028187622	0.695226449	0.175439665	0.695712916
0.445452158	0.449262453	0.877348838	0.608474745	0.578269185	0.170600669
0.87745527	0.877966198	0.877297899	0.171046534	0.171023469	0.170665127
0.875052383	0.882319416	0.013707367	0.170314693	0.174381738	0.697340814
0.825574052	0.183375961	0.190760329	0.118795512	0.609793591	0.579734825
0.841909933	0.103133378	0.099066672	0.134870285	0.627842079	0.602535014
0.845101963	0.141828935	0.860853034	0.149961289	0.564521823	0.15393553
0.013768629	0.014809847	0.014580699	0.697029456	0.697292973	0.696833337
0.877292088	0.447842733	0.432683695	0.170314647	0.590860418	0.558303925
0.877584782	0.470297262	0.419806268	0.170898932	0.559713857	0.521015657
0.081699456	0.867507231	0.866046489	0.621290624	0.159366994	0.161875381
0.108082726	0.865173294	0.85451696	0.593513352	0.15647046	0.154669778
0.459096836	0.422085662	0.877622577	0.59072316	0.55507289	0.170542215
0.469805887	0.415771732	0.877393005	0.575327834	0.536075375	0.170549542
0.876892706	0.883376669	0.040845826	0.170994652	0.175802263	0.692810643
0.874374658	0.882129019	0.040862022	0.170106559	0.174553801	0.693119484
0.067727765	0.079052398	0.855085167	0.651930199	0.632095582	0.149044684
0.863499261	0.856573063	0.123119286	0.155298869	0.156390322	0.588499348
0.864207386	0.864091101	0.863097464	0.219056947	0.219046408	0.219077644
0.160902464	0.09117328	0.16524172	0.617905079	0.61644916	0.621948735
5.49755E-06	0.877572762	0.884919078	0.69949676	0.170766936	0.175888866
0.865515833	0.081459814	0.867407604	0.161376883	0.621478436	0.15968653
0.866756139	0.104344765	0.866607975	0.162373959	0.615366183	0.15913221
0.87278854	0.874101915	0.047191375	0.165712936	0.168826051	0.656949783
2.74562E-06	3.1381E-06	3.08052E-06	0.699247256	0.69915842	0.699407804
0.877672273	0.480900974	0.41029867	0.170763196	0.55947367	0.51736924
0.869220224	0.092495088	0.080043284	0.162662675	0.672274233	0.658644408
0.854911015	0.111532872	0.864311912	0.155620995	0.591955551	0.156613067
0.07244344	0.069889094	0.07429221	0.649622675	0.64981848	0.649877018
0.877344583	0.484089231	0.399392201	0.170582085	0.608764561	0.566081918
0.844921441	0.147395409	0.860785301	0.150467751	0.562685389	0.152900302
0.077114664	0.867740322	0.865647249	0.623179818	0.15999662	0.161925382
0.448029454	0.432669532	0.877556129	0.591088841	0.558299471	0.170660993
0.048858362	0.045594881	0.053723043	0.656206417	0.655960305	0.655830113
0.866989864	0.104382769	0.866732857	0.16296552	0.615195169	0.159232137
0.872890637	0.875316652	0.047193535	0.165776935	0.168865627	0.656904267
0.862655387	0.842572278	0.133742189	0.155297235	0.148181555	0.56765424
0.071685205	0.855827831	0.079693791	0.627464329	0.149404786	0.647757724
0.476108555	0.413277775	0.877599712	0.608058432	0.568518785	0.170584411
0.210933488	0.208783976	0.825570158	0.609822065	0.582704987	0.118723173
0.133775646	0.861543926	0.843077342	0.567755685	0.154588434	0.147600903
0.13148417	0.125460673	0.098459509	0.610217481	0.610089492	0.614543456
0.125985168	0.826174483	0.144159799	0.575090715	0.11923868	0.603547043
0.054862982	0.054478073	0.054896706	0.689748623	0.690307235	0.690064436
0.476275997	0.413346461	0.87752058	0.608151506	0.568610305	0.170579531
0.327878662	0.825616486	0.318268354	0.583581648	0.118504139	0.615239247
0.445773344	0.448314498	0.877358117	0.608554004	0.578254599	0.170561381
0.863574361	0.856189524	0.123047137	0.155177714	0.155938511	0.588330023
0.877330473	0.461512578	0.422193797	0.170563127	0.609363079	0.573071385
0.426570817	0.876581127	0.449996084	0.593089215	0.170372313	0.626510647
0.863781202	0.856473671	0.123058184	0.155469119	0.156257315	0.588349269
0.107926165	0.86510545	0.854520337	0.59363354	0.156597676	0.15472711
0.855377576	0.103071211	0.078886051	0.149713309	0.643338716	0.623806033
0.01370401	0.875424657	0.883297596	0.69721758	0.169987994	0.175335131
0.332617395	0.825685169	0.325494583	0.587065672	0.118508744	0.614917623
0.876334212	0.076050015	0.873160965	0.169621451	0.650547549	0.164933804
0.881317065	4.89504E-06	4.78261E-06	0.175261113	0.698865004	0.699374007
0.438861497	0.438856897	0.877743809	0.626590939	0.596519092	0.170753714
0.860118525	0.846923989	0.153990054	0.152522186	0.151666548	0.560877563
0.448120297	0.436003436	0.87740471	0.575573432	0.542812071	0.170588088
0.874163999	0.055322325	0.871584907	0.167842932	0.654815513	0.164353845
0.083540326	0.076051207	0.855313704	0.648592919	0.627619925	0.149132401
0.401567438	0.877696036	0.481141933	0.548304257	0.170629529	0.590279432
0.099639242	0.08206581	0.868831765	0.666577344	0.655242394	0.162726071
0.877323368	0.439064965	0.444326625	0.17056064	0.609053978	0.578813898
0.081759281	0.86893386	0.092860477	0.656724074	0.162636329	0.670513204
0.863420662	0.844610819	0.133781095	0.15543983	0.148438224	0.56782716
0.123224209	0.862231375	0.855357114	0.588436446	0.154743838	0.156089714
0.877235074	0.492637655	0.492322982	0.170586947	0.561240237	0.532160874
0.877750932	0.448034889	0.432902776	0.170734297	0.591254743	0.558625928
0.462090898	0.415525018	0.877589278	0.626262679	0.589605998	0.17068187
0.855951492	0.06560285	0.078367089	0.148974022	0.652539306	0.632903509
0.869084026	0.092203812	0.079370416	0.162666846	0.672947101	0.65943779
0.439722364	0.877742785	0.448950843	0.527807804	0.170821622	0.559723914
0.841598216	0.092765598	0.099866012	0.134869615	0.629510297	0.604512035
0.113775361	0.100117001	0.841790875	0.626121142	0.600890601	0.135078403
0.87776275	0.484949598	0.39306327	0.170601775	0.625314399	0.582661857
0.877707574	0.448893033	0.439739721	0.170749022	0.55971179	0.527758217
0.865364567	0.081365209	0.867360865	0.161418465	0.621447114	0.159818497
0.459137439	0.42566819	0.877427429	0.575413226	0.53929639	0.170620778
0.096717669	0.328592978	0.274334515	0.622459778	0.625711828	0.622913377
0.877438708	0.459054622	0.42566072	0.17060095	0.575797662	0.539674048
0.072304418	0.065820331	0.086470492	0.67042883	0.67002058	0.670716176
0.825840251	0.21288307	0.220791839	0.118905879	0.608262791	0.580430336
0.415582213	0.877382178	0.470104459	0.535922538	0.170561688	0.575236007
0.103891423	0.866785634	0.866912797	0.615148083	0.159354936	0.162999483
0.864363332	0.855350059	0.111396426	0.155975758	0.154955013	0.592240691
0.874230696	0.05045652	0.871905851	0.168280112	0.658585014	0.165082008
0.08642089	0.077196835	0.86922521	0.672728175	0.660586133	0.162533146
0.084125351	0.869137547	0.099623693	0.654457747	0.162595271	0.667841197
0.855548945	0.079873425	0.071542601	0.149312317	0.647747589	0.627762233
0.415579545	0.877438986	0.470073248	0.536143608	0.170584315	0.575466422
0.147480314	0.860364704	0.845186005	0.562724958	0.152795988	0.15045915
0.446310523	0.877283712	0.437041117	0.546079189	0.170575782	0.575734069
2.77228E-06	3.07421E-06	2.95075E-06	0.698943459	0.699244871	0.699322743
0.060014223	0.060022068	0.060037516	0.640101372	0.640200693	0.640018755
0.054575748	0.054244619	0.882103948	0.689816555	0.690313634	0.175455734
0.01370744	0.875694106	0.882827939	0.697426253	0.170388819	0.175072644
0.411931449	0.877370926	0.470106899	0.551387179	0.170151517	0.589986664
0.068758999	0.079396114	0.855071336	0.651992664	0.63227683	0.148909628
0.146833586	0.130427075	0.825856989	0.604089887	0.575614604	0.11936469
0.028264575	0.88200223	0.028283062	0.695017885	0.175470181	0.695761735
0.102243747	0.841564826	0.083363077	0.606010631	0.134841722	0.631185388
0.862049235	0.844345529	0.133809306	0.155459406	0.148623107	0.567724872
0.824508215	0.189717344	0.18427128	0.118728184	0.611608255	0.582000492
0.425384761	0.877508964	0.464613209	0.573316312	0.17057644	0.609792567
0.484842334	0.392978946	0.87757088	0.625399015	0.582373339	0.17050094
0.100376645	0.841621081	0.113917451	0.600769575	0.135028249	0.625807876
0.083302192	0.083792687	0.08377415	0.632295469	0.632185945	0.632448833
0.137149103	0.862045717	0.844180667	0.566149979	0.154550655	0.149151593
0.16712344	0.090502583	0.1618057	0.619532754	0.615915879	0.620114331
0.439684384	0.877665555	0.448880725	0.527592798	0.17062172	0.559870751
0.092919964	0.317041344	0.26908401	0.622552886	0.626091388	0.623112183
0.448010375	0.432644612	0.877507558	0.591023562	0.55827495	0.170523338
0.863921021	0.85665552	0.123097682	0.155270336	0.156501404	0.588662756
0.154017157	0.859708901	0.846558558	0.56090779	0.151925635	0.151029876
0.872589072	0.874878456	0.075954211	0.165330604	0.168627646	0.650592777
0.065249485	0.871105064	0.87503927	0.652438721	0.164673265	0.168711942
0.425534705	0.877420382	0.464176354	0.573577379	0.170575298	0.609860551
0.864810653	0.854807332	0.111382833	0.155942254	0.15491718	0.59220559
0.040847996	0.874307209	0.882059343	0.692903294	0.170171824	0.1750622
0.863746979	0.85540212	0.116736066	0.155491517	0.155404704	0.590267179
4.87031E-06	4.92472E-06	0.881039418	0.69911066	0.699544493	0.175156279
0.862757341	0.845257492	0.137098566	0.154791611	0.149224861	0.5662195
0.415643622	0.877474645	0.470062063	0.536108753	0.170576268	0.575463225
0.867248521	0.865381637	0.081545287	0.159796391	0.161673935	0.621387039
0.063197363	0.060038359	0.065208552	0.65206975	0.651861735	0.651503326
0.438885082	0.877800766	0.438889612	0.596531424	0.170406134	0.626557209
0.071757177	0.855702793	0.079728099	0.627654519	0.14935686	0.647748161
0.84548482	0.141837682	0.861160028	0.149745472	0.564575413	0.153422027
0.877428859	0.877011465	0.877601989	0.17043355	0.170477448	0.170684855
0.425745444	0.877475912	0.464161079	0.573370551	0.170576741	0.609824554
0.825944229	0.281451321	0.302940916	0.118685916	0.614886616	0.585273325
0.862857485	0.862602374	0.863567128	0.219419235	0.21840058	0.219276123
0.410291133	0.877653494	0.480899407	0.517598155	0.170544189	0.559341941
0.877307901	0.480604373	0.405594606	0.170568488	0.575139776	0.532802719
0.071299043	0.06563238	0.085275743	0.669651995	0.670119133	0.670565588
0.063618102	0.059925666	0.065484871	0.651954903	0.65201492	0.652004177
0.846683085	0.846998057	0.846800431	0.257058203	0.256708976	0.257082146
0.874486659	0.055307193	0.871983578	0.16847182	0.6547304	0.164881004
0.415465807	0.877471884	0.462033156	0.589630648	0.170554325	0.626330766
0.863684138	0.857371194	0.130371196	0.155337279	0.157264209	0.586521443
0.856166437	0.116657802	0.863298549	0.15557372	0.590353745	0.155453845
0.448411288	0.877337702	0.444895138	0.578597365	0.170604458	0.608839428
0.844845272	0.133726745	0.862211668	0.1483986	0.567689474	0.15516932
0.87719524	0.492807485	0.499209122	0.170396401	0.560381974	0.531525311
0.446331633	0.877314726	0.43705165	0.546089029	0.170594524	0.575723851
4.79478E-06	0.881007636	4.86347E-06	0.699389185	0.175028272	0.699202871
0.882350852	0.054272382	0.875203863	0.174572643	0.69046839	0.170441742
0.867950013	0.104438236	0.867015399	0.162925725	0.615245839	0.159174225
0.873686209	0.050125734	0.872405919	0.167988756	0.658771527	0.165451903
0.867347884	0.865985998	0.087794849	0.159433704	0.162085117	0.61956616
0.867446889	0.865908687	0.087802198	0.159413922	0.161897644	0.619515648
0.484778881	0.392910511	0.877438994	0.625466834	0.582372723	0.170768385
0.825872383	0.281778502	0.305393328	0.118681755	0.613796431	0.584901096
0.054212296	0.881866435	0.054577927	0.690140856	0.175334285	0.690372712
0.843076772	0.137247401	0.862046011	0.147954709	0.566116351	0.153827384
0.876348511	0.883963342	0.054274593	0.170762422	0.175907027	0.690507384
0.877596921	0.459591977	0.429653419	0.170698356	0.559849142	0.52429921
0.203597466	0.20061863	0.825676803	0.610056444	0.582242912	0.118583644
0.047465742	0.041799076	0.072804761	0.677719093	0.677841712	0.680481824
0.877675522	0.450542796	0.427117897	0.170770948	0.626489829	0.593050173
0.100017066	0.081660174	0.868978766	0.668606097	0.657142674	0.162833887
0.825827325	0.225059298	0.227029679	0.119110299	0.608919927	0.582854518
0.04096203	0.041485755	0.041288823	0.692476958	0.693115717	0.69264228
4.86318E-06	4.94356E-06	0.881061924	0.699189733	0.699489366	0.175138703
0.825225255	0.822941784	0.826262809	0.299106552	0.298509456	0.299089438
0.12245193	0.126199	0.200282605	0.617923347	0.619345158	0.619085875
0.448010366	0.432644668	0.877507585	0.591023398	0.558275076	0.170523365
0.877678586	0.484903779	0.393024858	0.17055164	0.625247336	0.582633093
0.075016073	0.074926362	0.075421183	0.634390885	0.634332564	0.634531134
0.883065214	0.054266208	0.875241281	0.175086844	0.690411998	0.170526901
0.877421079	0.469903231	0.415527485	0.170528275	0.575553112	0.536251611
0.080390111	0.211736923	0.209031506	0.62009875	0.620914243	0.622995687
0.480900424	0.401565956	0.877789528	0.590143368	0.548245346	0.170677708
0.028022014	0.027657624	0.881838698	0.694540809	0.694916098	0.175396003
0.877511534	0.480859239	0.410185571	0.170677913	0.559409736	0.517382433
0.083441656	0.083644831	0.084031873	0.632380787	0.632093487	0.632466268
0.845641405	0.147380851	0.860830311	0.150981451	0.562775911	0.153469168
0.027326522	0.875336358	0.883252266	0.695235675	0.170074744	0.175263124
0.842085855	0.125235764	0.103362724	0.135180025	0.623522402	0.598080322
0.05460672	0.054750395	0.055116957	0.689913345	0.690745033	0.690904433
0.845838379	0.147394481	0.86067648	0.150685418	0.562761438	0.153003555
0.46985648	0.415687362	0.877347448	0.575354654	0.53606491	0.170559616
0.079704738	0.869241077	0.081631699	0.663320173	0.162384293	0.675874725
0.075531735	0.075815515	0.854253801	0.649512576	0.629811352	0.148727495
0.100217284	0.84173169	0.113751812	0.600595392	0.135013696	0.62567095
0.867559429	0.865812369	0.081585822	0.159804136	0.161723713	0.621312414
0.081669649	0.079457466	0.869188476	0.673555447	0.661747278	0.162584623
0.415572241	0.877677824	0.462132743	0.589550929	0.170726963	0.62626252
0.083008197	0.869260794	0.079064796	0.664608697	0.162630052	0.677624878
0.485966459	0.402837225	0.877354042	0.608129072	0.565065957	0.170508217
0.881076533	0.014383523	0.01408656	0.175423415	0.696586064	0.697290542
0.46202511	0.415464221	0.877462321	0.626070319	0.589751368	0.17063353
0.063298918	0.059853457	0.064978112	0.651918443	0.652019121	0.651637817
0.873052147	0.874761801	0.055266227	0.164886292	0.16900555	0.65492273
0.027482607	0.028624698	0.028033271	0.694985299	0.694949885	0.695294699
0.392722267	0.877001786	0.484533478	0.582374389	0.170403412	0.625101616
0.41388101	0.87733831	0.474855154	0.569195315	0.170494837	0.60873639
0.014392747	0.881460908	0.014278088	0.697557585	0.175275795	0.696635364
0.214003444	0.826452616	0.216667972	0.584273703	0.119281329	0.612595853
0.081997871	0.855444012	0.067607612	0.632027894	0.148863157	0.653172749
0.126476368	0.122493904	0.201115731	0.617988533	0.619348844	0.618912307
0.822852387	0.82332349	0.824409225	0.298474133	0.298748475	0.298962627
0.062474003	0.062487729	0.062413273	0.63854199	0.638736462	0.63847193
0.040836638	0.875206614	0.884031718	0.692644881	0.170167402	0.175253379
0.040828269	0.874803028	0.882777796	0.692550838	0.169882881	0.175169348
0.147445415	0.859878632	0.845037897	0.562783383	0.152764192	0.150379155
0.877304521	0.461948269	0.415383415	0.170445498	0.626140872	0.589755412
0.147447143	0.860067362	0.845476602	0.562652074	0.152792029	0.150387295
0.48464483	0.392799304	0.877191824	0.625509482	0.582295643	0.170555777
0.480789681	0.410150051	0.877395202	0.559268325	0.517599248	0.170549559
0.072552004	0.065719222	0.086846694	0.670261311	0.670044278	0.671061881
0.014332437	0.881200006	0.014550475	0.697100852	0.175125994	0.697440864
0.083553249	0.07608305	0.855409829	0.648621745	0.627621951	0.149364953
0.147484085	0.860409323	0.844917182	0.562722901	0.15275291	0.150428619
0.103230369	0.099199239	0.841454332	0.627605494	0.602571465	0.135013768
0.141781299	0.860357113	0.844220867	0.564673194	0.152971113	0.149024379
0.055117453	0.051164576	0.057805284	0.653997641	0.654410838	0.655027029
0.014233965	0.881706234	0.01404422	0.697393436	0.175124156	0.697119979
0.855564119	0.06901167	0.071360651	0.148997368	0.649714925	0.629476575
0.874108799	0.04979753	0.871650169	0.168376629	0.658520244	0.165070455
0.873703594	0.055308324	0.872432335	0.168307026	0.654743319	0.164708847
0.847240853	0.846595912	0.846959032	0.2570585	0.256707291	0.257144408
0.882371029	0.027325472	0.876405706	0.175472523	0.695210437	0.171290507
0.855235927	0.108077111	0.865641533	0.154951765	0.59389832	0.157195644
0.054287467	0.876673252	0.88281038	0.690742197	0.170896693	0.175096526
0.462048448	0.415478248	0.877500166	0.626026649	0.589812893	0.17058341
0.072376112	0.070042399	0.074527038	0.649556472	0.649968998	0.649466802
0.454450815	0.436769475	0.877226448	0.609426598	0.575595256	0.170568712
0.130468406	0.86309165	0.85692506	0.58640999	0.154888329	0.156945428
0.093642998	0.337580068	0.28832712	0.622570832	0.626264189	0.622003005
0.013978782	0.881503602	0.014308546	0.697344722	0.175186239	0.696644565
0.845446532	0.141806592	0.859992952	0.150160871	0.564564211	0.153824207
0.861222167	0.844875911	0.141791971	0.153128174	0.149213799	0.564537104
0.401516084	0.877197264	0.480671092	0.547933076	0.170121205	0.58952864
0.455081932	0.436076455	0.877319727	0.610003924	0.576426263	0.170577897
0.07167636	0.855110927	0.079631043	0.627671854	0.14878963	0.647744292
0.470293906	0.419779255	0.877557475	0.559558558	0.520986223	0.170611675
0.446357269	0.877367452	0.437076393	0.546075387	0.170621358	0.575726871
0.824921222	0.247819338	0.248809242	0.118708151	0.605900666	0.58079034
2.75369E-06	3.14031E-06	3.05247E-06	0.699035171	0.699111073	0.699558966
0.875479996	0.05534141	0.871027296	0.168500985	0.654874384	0.163972969
0.485011317	0.39316607	0.877923855	0.625485913	0.5824145	0.17083775
0.078731574	0.86917022	0.087036241	0.66103765	0.162563497	0.673629559
0.126260994	0.122179693	0.200409659	0.617117162	0.619659681	0.618313638
0.419876569	0.877646706	0.470273347	0.521016837	0.170736658	0.559682425
0.84500333	0.141796182	0.860646537	0.149676641	0.564516563	0.153363969
0.855971122	0.111530668	0.865421854	0.15558431	0.592243848	0.156697704
0.859525331	0.846480072	0.153984147	0.15239237	0.151506563	0.561047462
0.445682111	0.877467955	0.437867329	0.562604057	0.170394062	0.591842363
0.076050032	0.871723193	0.874741472	0.650500149	0.164520089	0.168598617
0.455493512	0.43574505	0.877228111	0.609493708	0.575660791	0.17056634
0.86439219	0.856547809	0.116676678	0.155763956	0.15580893	0.590287845
0.435523976	0.877340659	0.454165354	0.576673144	0.170552362	0.610030945
0.825627497	0.138315948	0.128364466	0.119076545	0.60566852	0.57679787
0.86896579	0.098696286	0.082223926	0.162835004	0.666802552	0.654400428
0.864714297	0.855845401	0.111436258	0.156154314	0.155028233	0.592130712
0.841948607	0.103050735	0.099184713	0.134930138	0.627904466	0.602502927
0.87480842	0.065207839	0.871758786	0.168712491	0.652871729	0.164568332
0.103467359	0.841780821	0.12506714	0.597847704	0.135328709	0.623287554
0.081097398	0.078617886	0.868873071	0.674278119	0.662233226	0.162502157
0.448183011	0.436024076	0.877524175	0.575529385	0.542656571	0.170614824
0.874044383	0.872260346	0.872788721	0.188766982	0.188799972	0.188489169
0.060032543	0.060016843	0.059993928	0.640055194	0.640169155	0.640224179
0.047380426	0.046451902	0.052936129	0.657923928	0.658075059	0.657483552
0.014111515	0.014214182	0.881475445	0.697032432	0.697238346	0.175602293
0.133823291	0.861559049	0.842794263	0.567666334	0.154491973	0.14730393
0.881504596	4.94889E-06	4.84087E-06	0.175191806	0.69928169	0.699116724
0.867554726	0.866781898	0.08781466	0.15953389	0.16214633	0.619571696
0.842972447	0.137252323	0.860189746	0.148346991	0.566216424	0.153952377
0.874336796	0.873594437	0.874097549	0.188641782	0.188971834	0.188876627
0.44632432	0.877310768	0.437054461	0.546087774	0.170588608	0.575741646
0.111528931	0.864548581	0.855785361	0.592122136	0.156124432	0.155231693
0.055286272	0.871349188	0.874435885	0.654967111	0.164159716	0.168236388
4.98994E-06	4.87913E-06	0.88140785	0.699190577	0.699331802	0.175413082
0.415654321	0.877437858	0.469968659	0.536157583	0.170586808	0.575460087
0.244229591	0.825304263	0.238317872	0.58488963	0.118505691	0.613286147
0.108042964	0.865276838	0.854720923	0.593624313	0.156680462	0.154494197
0.060052854	0.060019621	0.060003525	0.640067382	0.640141284	0.640236053
0.071878564	0.066199529	0.086637471	0.670517134	0.669942619	0.670787813
0.411622723	0.877356555	0.470324174	0.551178997	0.170290146	0.589838407
0.841599327	0.083357106	0.10226326	0.134750612	0.631033643	0.605838357
0.317292148	0.825755251	0.306841413	0.582231628	0.118736524	0.612289004
0.449613459	0.877305251	0.443691822	0.579177398	0.170597302	0.609237999
0.867841905	0.865213215	0.081535852	0.1597929	0.16189922	0.621273331
0.470531619	0.419863289	0.877893448	0.559673439	0.521049421	0.170774792
0.474623574	0.415184095	0.877336455	0.608465333	0.568860759	0.170564189
0.412141577	0.877565788	0.470023539	0.551849575	0.170639199	0.59072433
0.425746871	0.877475831	0.464619846	0.572972819	0.170575258	0.609533225
0.083432188	0.102227925	0.84187817	0.631230881	0.605744323	0.134701969
0.877553468	0.450482197	0.42705657	0.170556377	0.626410764	0.593218843
0.125187496	0.103064205	0.841644327	0.623628927	0.598577206	0.135166429
0.047228314	0.871998309	0.875604804	0.656804442	0.164836891	0.169114511
0.855285233	0.091353369	0.074128242	0.149288747	0.645701709	0.62583939
0.432629578	0.877563426	0.448340636	0.558634295	0.170615251	0.591555597
0.480506767	0.40596389	0.877373919	0.574975767	0.532574282	0.17054364
0.873107327	0.875882024	0.047244358	0.165270137	0.169184075	0.656998705
0.040836274	0.875672032	0.88394028	0.692631905	0.170640525	0.17564378
0.877822634	0.448017745	0.433038878	0.170600379	0.59120809	0.558634585
0.459119153	0.425673032	0.877421694	0.575424579	0.539296713	0.170638034
0.059711277	0.04316783	0.077219736	0.674741133	0.675133761	0.676686673
0.846377632	0.147362428	0.860265122	0.151250372	0.562751957	0.15346174
0.060020367	0.060009322	0.05997737	0.640209998	0.640455514	0.64019271
0.486640261	0.401731963	0.877433425	0.607631017	0.564728295	0.17045746
0.867663784	0.86608614	0.081594169	0.159874558	0.161727931	0.621388275
0.871171322	0.87426349	0.055337347	0.164416436	0.168085203	0.654863035
0.869125398	0.079635596	0.077292862	0.16257206	0.674883121	0.662477305
0.861000488	0.844625825	0.141703375	0.15396007	0.149894471	0.564606279
0.877374917	0.448089135	0.435864674	0.170572549	0.575753751	0.542808065
0.438496148	0.877023047	0.438500947	0.596571328	0.170236778	0.626530593
0.88154891	4.88056E-06	4.85004E-06	0.175194273	0.699402907	0.699086758
0.048210476	0.045304421	0.052807128	0.656146602	0.656169054	0.656212845
0.054019264	0.051179047	0.0569479	0.654165425	0.654015007	0.654055519
0.415505683	0.87740261	0.470122978	0.536060745	0.170579697	0.575418124
0.872042182	0.874535135	0.075974605	0.164791621	0.168222119	0.650549149
0.438192417	0.438187601	0.876405736	0.626586565	0.596239055	0.170436997
0.445415778	0.448826036	0.877322787	0.608518707	0.578261047	0.170609097
0.84160208	0.083364973	0.102236846	0.134726991	0.631060638	0.605782213
0.856450318	0.123100435	0.863543228	0.156274573	0.588440349	0.155321683
0.048322252	0.041774642	0.073690342	0.677441965	0.677933923	0.679925611
0.083360679	0.86916762	0.098938544	0.654620618	0.16261275	0.667411639
0.877298076	0.490424129	0.497849705	0.170657962	0.561425587	0.533157181
0.867121687	0.087869384	0.86711556	0.161767188	0.61948942	0.159543398
0.824058914	0.822650927	0.823589213	0.298849625	0.2986385	0.298540554
0.87747805	0.448833645	0.439567963	0.170562881	0.55965788	0.527741388
0.841683497	0.083334628	0.102260875	0.13475229	0.631293179	0.605850235
0.877636238	0.470335646	0.419819108	0.170768705	0.559679637	0.520995099
0.014392504	0.014436497	0.880995064	0.696790741	0.697230816	0.175154433
0.102267501	0.841663165	0.083379312	0.605974634	0.134773327	0.631437658
0.884514895	0.027328419	0.876706563	0.17599502	0.695224686	0.170767109
0.82579795	0.196565072	0.204428149	0.118809268	0.61345288	0.58441562
0.054722376	0.05450502	0.054736648	0.690334909	0.69018322	0.690799258
0.425571995	0.877411806	0.464206895	0.573552232	0.17058724	0.609893966
0.42556905	0.877406669	0.459147018	0.53975473	0.17061916	0.575795544
0.878032018	0.47376155	0.404382153	0.170376373	0.625958397	0.586068054
0.013770043	0.014617661	0.014434478	0.697344971	0.696666836	0.696855961
0.824490451	0.823316461	0.824283166	0.298270168	0.298638832	0.297992497
0.884427993	0.013706805	0.876800932	0.175665286	0.697371578	0.17128645
0.078713297	0.855487349	0.102972822	0.62376759	0.149421492	0.643298228
0.85549198	0.103253868	0.078875043	0.149713757	0.64336247	0.623817682
0.078919375	0.85543376	0.102963966	0.623743376	0.149382154	0.643312304
0.078420858	0.86880304	0.085870022	0.66057524	0.162558425	0.673457528
0.165336836	0.090768319	0.168707541	0.615643299	0.615625883	0.621654903
0.855280959	0.091352519	0.074418338	0.14903304	0.645734704	0.6257651
0.877441589	0.462086624	0.421593894	0.170558145	0.608166542	0.571780299
0.877687642	0.448067371	0.43288186	0.170732867	0.590968542	0.558172109
0.875038931	0.065209688	0.871873281	0.168977611	0.652919672	0.164735291
0.444705069	0.87747503	0.43862089	0.561937013	0.170679353	0.591671308
0.868883173	0.080664902	0.078475852	0.162527545	0.675120359	0.662547816
0.083451646	0.083759353	0.084090286	0.632326066	0.632035853	0.632497647
0.054595452	0.054229501	0.881771567	0.689970364	0.690526556	0.17548555
0.444741683	0.87747262	0.438391294	0.561945056	0.170648647	0.591681256
0.875936486	0.882569759	0.040861901	0.17011764	0.174605975	0.693118158
0.855174504	0.091434806	0.074397846	0.149169093	0.645683954	0.625560068
0.081776004	0.867028963	0.865105291	0.621031201	0.159297993	0.161561235
0.878289801	0.470624267	0.420172839	0.170937578	0.559709004	0.520864752
0.405805616	0.877322962	0.480570401	0.532996959	0.170526851	0.575366853
0.448891823	0.877329476	0.444335911	0.579452053	0.170597927	0.609547491
0.877306875	0.473081957	0.410277202	0.170586607	0.608835466	0.569240029
0.843861807	0.133706559	0.862349483	0.148229573	0.567858869	0.155380672
4.87458E-06	0.880854036	4.87857E-06	0.699300306	0.17507487	0.699214182
0.856191886	0.065944718	0.079215929	0.14921403	0.653024353	0.63188615
0.120046781	0.120619722	0.190667899	0.617494858	0.619266773	0.618536057
0.104014591	0.866758486	0.866880969	0.615434629	0.158829214	0.162872421
0.054211598	0.881192893	0.054580906	0.690321809	0.175406418	0.690083254
0.103059829	0.099228653	0.841538943	0.627757318	0.60257691	0.13503102
0.401450566	0.877306667	0.487145147	0.564682816	0.170544629	0.607742428
0.86410835	0.85505751	0.116731262	0.155339951	0.155274296	0.590292304
0.078206885	0.868982756	0.085690309	0.660793384	0.162506635	0.673532264
0.877458442	0.877354762	0.87759993	0.170631626	0.170523509	0.17067833
0.869177956	0.091891114	0.078444003	0.162580747	0.672917462	0.659817637
0.469955171	0.411470099	0.877325705	0.590503122	0.551566573	0.170795417
0.122981241	0.121515897	0.099039272	0.612279251	0.611720015	0.613850858
0.855351008	0.068921232	0.071405522	0.149170685	0.649634371	0.629330096
0.87278152	0.874026478	0.047193321	0.165747143	0.168843324	0.656945977
0.062555119	0.062418402	0.062454401	0.638643208	0.638427382	0.638526522
0.841602007	0.113548785	0.100588193	0.135194705	0.625704172	0.600445509
0.12321675	0.862905407	0.856530565	0.588445711	0.154864539	0.156150235
0.412478365	0.877793272	0.469970616	0.551552907	0.17070436	0.590580403
0.842081814	0.125053379	0.103469924	0.135147981	0.623883663	0.598415556
0.43841913	0.876868962	0.438423855	0.596542185	0.170003477	0.626487974
0.014293651	0.014236565	0.881441697	0.696724671	0.697327267	0.175204072
0.88121279	0.041056707	0.04078694	0.175128888	0.691859889	0.692784592
0.419987931	0.877778819	0.470310266	0.521045205	0.170541682	0.559720678
0.47572748	0.413853147	0.877444004	0.607919813	0.568343968	0.170588446
0.434163608	0.877380649	0.455689305	0.576253669	0.170608985	0.609968047
0.438267726	0.445028432	0.877533098	0.590925731	0.561211485	0.17062911
0.099742106	0.841651693	0.092848047	0.60420474	0.134875294	0.629571522
0.859942235	0.847019794	0.147448529	0.152958058	0.150750364	0.562569938
0.426826477	0.877092579	0.450251564	0.592997663	0.170413977	0.626586194
0.419829745	0.877527098	0.470201079	0.521020928	0.170577337	0.559696183
0.863810022	0.855388922	0.116736943	0.155230573	0.155183952	0.59028939
0.86603601	0.081396235	0.86765912	0.161378468	0.621745378	0.159751774
0.147419325	0.859726931	0.845190276	0.562755833	0.152754073	0.150314092
0.877344762	0.484079418	0.399409891	0.170582628	0.608761822	0.566081662
0.087274306	0.07904105	0.868915813	0.671772142	0.660602067	0.162572602
0.877379909	0.459014055	0.425627135	0.170572722	0.575618949	0.53957111
0.877684514	0.459695777	0.429635627	0.170690287	0.55983423	0.524296549
0.040913132	0.880962653	0.041007933	0.692907719	0.175218396	0.692384827
0.074276462	0.85565486	0.091197529	0.625901362	0.149259564	0.645638106
0.875474153	0.076037406	0.871537983	0.169421193	0.650452594	0.164678326
0.141782957	0.860681117	0.846648136	0.564495015	0.153314496	0.149643954
0.841629232	0.103031205	0.099279052	0.134941618	0.627911821	0.602908359
0.825471223	0.199110208	0.212808432	0.118745121	0.611440553	0.584865384
0.082594791	0.869000151	0.09300998	0.656153089	0.162648593	0.668807887
0.063291813	0.060025546	0.06543351	0.652076179	0.65197107	0.65129836
0.882483139	0.040851901	0.874950424	0.175125203	0.692934615	0.170530331
0.470009453	0.41168296	0.877609274	0.590666419	0.55149979	0.17079323
0.841902616	0.103075869	0.099117176	0.134874492	0.627853174	0.602522819
0.867452121	0.865901155	0.087804108	0.159418256	0.161888382	0.619514124
0.842152335	0.125222356	0.103436888	0.135180332	0.623579946	0.598112968
0.843864525	0.13729579	0.861709385	0.148852303	0.566311487	0.154580516
0.876502264	0.882211316	0.054277979	0.171181945	0.17527269	0.690503022
0.845079755	0.137276947	0.861645504	0.149086415	0.566235663	0.154543849
0.877724246	0.484916413	0.393059948	0.170729097	0.625234267	0.582621893
0.041124106	0.040747053	0.881389709	0.692385815	0.692729326	0.175454249
0.102242339	0.841650409	0.083363105	0.606024698	0.134821127	0.631294061
0.125101201	0.103038054	0.841837477	0.623597701	0.598635474	0.135295233
0.881003622	0.014146105	0.014331415	0.175198236	0.696268205	0.697306584
4.81875E-06	0.881348026	4.90297E-06	0.699551529	0.175123102	0.699227283
0.877195501	0.448647058	0.439479295	0.170439459	0.559865846	0.527619087
0.846210201	0.147367475	0.861014872	0.150742347	0.562837579	0.153067053
0.072223852	0.065855392	0.086830647	0.670370322	0.669917007	0.67084436
0.141754121	0.860589202	0.845664064	0.564489953	0.153072102	0.149451587
0.43586729	0.87733084	0.448116685	0.542768254	0.170544781	0.57565429
0.134725042	0.125844039	0.826557545	0.604098236	0.576382449	0.119006687
0.873944196	0.047087628	0.871094643	0.167942779	0.657007506	0.164903194
0.062509093	0.062470027	0.062383163	0.638770507	0.638625409	0.638656098
0.874014908	0.873692936	0.873339167	0.188991422	0.188962529	0.188451415
0.868969169	0.08017463	0.076663559	0.162520561	0.674352762	0.66356841
0.871259705	0.875341674	0.047278545	0.164958978	0.168846586	0.65699553
0.095420426	0.866876316	0.86630456	0.617431314	0.159193342	0.162465514
0.459172152	0.425642717	0.877461835	0.575438479	0.539345181	0.170564816
4.84087E-06	0.88154842	4.92669E-06	0.69907529	0.175110034	0.699360023
0.425849751	0.877468317	0.463936386	0.573471367	0.170586201	0.609877487
0.054237462	0.881326854	0.05463788	0.69105945	0.175496872	0.690141229
0.458862318	0.421907755	0.877205655	0.590859066	0.554860552	0.170383723
0.877201635	0.438590085	0.43858535	0.170377276	0.626389353	0.596457776
0.047190579	0.046901081	0.053210648	0.657554376	0.658643029	0.657836251
0.469995392	0.415659664	0.877441332	0.575306352	0.536032571	0.170547929
0.841552683	0.113786624	0.100194095	0.135054827	0.625691838	0.600562897
0.063154996	0.059910908	0.0650051	0.652075146	0.651885141	0.651551152
0.094154142	0.296456335	0.247227475	0.622131238	0.621326057	0.621312456
0.448665705	0.439486204	0.877221999	0.559742636	0.527680761	0.170415783
0.392793237	0.877188712	0.484646713	0.582443155	0.170408924	0.625235498
0.877794525	0.450600813	0.427179046	0.170885526	0.626483543	0.593034329
0.459173573	0.425656659	0.877433612	0.575450436	0.539305455	0.170628416
0.053442313	0.05151549	0.056731645	0.654096986	0.654196794	0.654173003
0.877630169	0.448830051	0.439722839	0.170718883	0.559847949	0.527720317
0.131490523	0.126007475	0.098406959	0.610041247	0.610098741	0.614502833
0.113766624	0.100000261	0.841843859	0.626134669	0.600905399	0.135074555
0.135635474	0.126080974	0.827858581	0.605530169	0.576639012	0.119286586
0.093122975	0.081108061	0.869219156	0.668086954	0.655470917	0.162680198
0.873766726	0.047151452	0.87240141	0.168294126	0.656834429	0.165431668
0.448713734	0.877375092	0.444716569	0.578696481	0.170590881	0.608850076
0.860795606	0.845063367	0.137065837	0.154030465	0.148847496	0.566272466
0.874142843	0.055327042	0.87205716	0.168119043	0.654755796	0.164551497
0.871835715	0.875378934	0.047291545	0.165181141	0.169090174	0.656964227
0.864580034	0.854854162	0.107753422	0.156624114	0.15452971	0.593996396
0.873645154	0.873267317	0.873645227	0.188643624	0.188620443	0.188456046
5.49452E-06	0.875283016	0.885534335	0.699426756	0.169879368	0.175709698
0.420011676	0.878059262	0.47053992	0.52107762	0.170658994	0.559512953
0.450484496	0.427057942	0.877557128	0.626451249	0.593118113	0.170565032
0.330745426	0.335516019	0.824706991	0.61662072	0.589849446	0.118629144
0.076112225	0.869286094	0.083869242	0.661303297	0.162501268	0.673568792
0.028203517	0.882323899	0.028119274	0.694918976	0.175559958	0.695828504
0.412624544	0.877472657	0.47629059	0.5683199	0.170607636	0.608182627
0.864577797	0.85633188	0.123049757	0.155275854	0.156071863	0.58830369
4.84861E-06	0.881243477	4.87173E-06	0.699194094	0.175399827	0.69892863
0.84171214	0.113813951	0.100171455	0.135062897	0.625702465	0.600558912
0.422135459	0.877534862	0.459296134	0.554584222	0.1705336	0.590400629
0.047481921	0.041783681	0.072788791	0.677686154	0.677873895	0.68048114
0.448027514	0.432629805	0.877506763	0.591144707	0.558149323	0.170642393
0.08164813	0.867028083	0.864796011	0.621078225	0.159644346	0.161634334
0.86460442	0.854947781	0.111399215	0.155849743	0.154822111	0.592240467
0.875698671	0.076051079	0.871227409	0.169021889	0.650486689	0.16423433
0.869093226	0.079882761	0.077743943	0.162550581	0.67504015	0.662533564
0.855447357	0.068918301	0.071428796	0.148934051	0.649794016	0.62945221
0.141737275	0.861145675	0.845916278	0.564572284	0.154056589	0.150307481
0.42492493	0.877352891	0.46503391	0.572222586	0.17057792	0.608769662
0.084343575	0.075823867	0.855465242	0.647534891	0.628200514	0.148880543
0.87738467	0.484226988	0.399505923	0.170605924	0.60789882	0.565267807
0.401693292	0.877727316	0.481094383	0.54832019	0.170610935	0.590298495
0.077552828	0.869173674	0.085887559	0.661297077	0.162582543	0.673578734
0.869184011	0.092157258	0.079028799	0.16268343	0.672737769	0.659088938
0.877053496	0.469770947	0.411402428	0.170075552	0.590414713	0.551617469
0.076749045	0.080184877	0.868932532	0.675374697	0.664790325	0.16244172
0.877701051	0.448075395	0.432898251	0.170723742	0.590978163	0.558181267
0.133982776	0.125824655	0.824880962	0.604921652	0.5771566	0.118812436
0.126375761	0.825657502	0.144498575	0.57510661	0.118524455	0.603837444
0.877285949	0.469853507	0.411547598	0.170166519	0.590482349	0.551687015
0.081804216	0.867038924	0.865167036	0.621059441	0.15927465	0.161549055
0.08014196	0.207229048	0.20533773	0.620417961	0.620933421	0.624553683
0.877346725	0.480909401	0.401224954	0.170376477	0.590133845	0.547924157
0.884434278	0.027325224	0.875105029	0.175184232	0.695167261	0.169921883
0.072846091	0.069894067	0.074796746	0.64896629	0.649944242	0.649233476
0.071815677	0.856012891	0.079717871	0.627464508	0.149349922	0.64783752
0.076066393	0.871162674	0.875225435	0.650484359	0.164532701	0.168659887
0.855137326	0.065615538	0.078756029	0.14869511	0.653145149	0.63282971
0.874421127	0.874184612	0.873783868	0.188838465	0.189275231	0.188751767
0.075456727	0.075901943	0.854505935	0.649514086	0.629866157	0.149004852
0.309472503	0.826281235	0.309354618	0.585597241	0.118531888	0.612528335
0.405889928	0.87739991	0.48062226	0.532720045	0.170545476	0.575181726
0.084239331	0.869148998	0.099771108	0.654392088	0.162629239	0.667808942
0.074263431	0.855943454	0.091210111	0.625628245	0.14941864	0.645820717
0.027055444	0.07565118	0.075414549	0.679070986	0.679886606	0.679478848
0.027489245	0.028250318	0.027963115	0.695268077	0.694939269	0.695219611
0.863387644	0.855482673	0.11673676	0.155191823	0.155121334	0.590331404
0.4358961	0.877364253	0.448129474	0.542823958	0.17058316	0.575786351
0.864033019	0.856954619	0.130414173	0.154822681	0.156760706	0.586509058
0.867045439	0.087940917	0.866423797	0.162379693	0.619629573	0.159479374
0.867943626	0.104296784	0.866965184	0.162911167	0.615090074	0.159194888
0.040837208	0.875622211	0.883985878	0.692649778	0.170662982	0.175653024
0.877713576	0.48491159	0.393053973	0.170731475	0.625234538	0.58262199
0.040863407	0.874376633	0.882122004	0.693204557	0.170487462	0.174510108
0.083911818	0.868801516	0.094123159	0.655518366	0.162778304	0.668478543
0.432776059	0.877366581	0.44808867	0.557958492	0.170417786	0.59032642
0.213037353	0.826454332	0.216043358	0.584221377	0.119277159	0.612605837
0.861901915	0.864710371	0.863622673	0.219108931	0.219821557	0.219369659
4.79363E-06	0.881315353	4.91795E-06	0.699090582	0.175365945	0.699072875
0.091420104	0.074553878	0.855697874	0.645731676	0.625715773	0.149478833
0.137137946	0.862566717	0.843925856	0.566161617	0.154393222	0.148973368
0.08047628	0.202062661	0.200540763	0.620130271	0.621148593	0.623903218
0.05403821	0.051544205	0.057660957	0.654229314	0.65401968	0.65405646
0.449412373	0.877288312	0.44365592	0.579409528	0.170603407	0.609476475
0.438956004	0.877942695	0.438960536	0.596487163	0.170418978	0.626582874
0.866810578	0.867058439	0.095451108	0.159547867	0.162583939	0.617447707
0.074241316	0.855852154	0.091122485	0.625855143	0.149486227	0.645845161
0.869903204	0.873467428	0.065215973	0.164168737	0.168417494	0.652706284
0.053534378	0.051440844	0.056739183	0.654276719	0.654102011	0.654081962
0.872237586	0.874120122	0.06519804	0.164652532	0.168150189	0.652735806
0.429573624	0.877456423	0.45953009	0.524224328	0.170577807	0.559938944
0.103084247	0.09910205	0.841496534	0.62762391	0.602517206	0.135015989
0.871512833	0.875232522	0.065201746	0.165257472	0.168889549	0.652730194
0.877383429	0.469914374	0.415396832	0.170539496	0.575555205	0.536233833
0.855708311	0.107956153	0.864422182	0.154886093	0.59373596	0.156631092
0.825758154	0.134873259	0.12873038	0.119149224	0.605762146	0.577240368
0.092612166	0.099695289	0.841576387	0.629564557	0.604397428	0.13491339
0.415491604	0.87751764	0.462053356	0.589753372	0.17057179	0.626137912
0.392568312	0.876707917	0.484393068	0.582319424	0.170666438	0.625393807
0.091254428	0.07472998	0.855935865	0.645863331	0.625855128	0.149301777
0.060024062	0.060011269	0.059999116	0.640092439	0.640333613	0.640238275
0.876935972	0.87691012	0.877435207	0.170758013	0.170569165	0.170602121
0.083395622	0.102226559	0.841807673	0.631143818	0.606065299	0.134716866
0.027331	0.875303997	0.884019868	0.695391624	0.170728719	0.175880633
0.11674277	0.864062814	0.856133827	0.590395487	0.155719176	0.155987661
0.072222649	0.069906712	0.073911576	0.649591496	0.649828942	0.649680071
0.87777739	0.459114548	0.422295104	0.170440231	0.590874513	0.555385961
0.426371275	0.877398538	0.463990014	0.572569002	0.17058052	0.609147365
0.083523204	0.076062107	0.855038358	0.648407817	0.627646884	0.148606814
0.047754697	0.042649027	0.07414959	0.678095681	0.677579791	0.68040577
0.461876251	0.41531593	0.877164907	0.626052541	0.589801533	0.170565331
0.060031017	0.060023307	0.059988544	0.640124122	0.640100926	0.640214228
0.43576584	0.877353178	0.453814478	0.576712674	0.170545814	0.610080153
0.470399726	0.419764815	0.877648008	0.559580483	0.52106948	0.170593514
0.427102932	0.877652701	0.450534902	0.593098381	0.170584047	0.626604068
0.067783803	0.067658738	0.067981707	0.636366343	0.636540628	0.636714808
0.881791209	0.041161321	0.040802343	0.175027124	0.692449121	0.693068832
0.875867651	0.883745099	0.013707048	0.170410531	0.175595399	0.697350068
0.822565639	0.823234162	0.822177729	0.298249836	0.298610664	0.298412829
0.877313663	0.43713229	0.444232469	0.170349506	0.592000538	0.56233868
0.877899705	0.470418152	0.419992851	0.170837176	0.559760349	0.520910638
0.856039551	0.079780362	0.071591616	0.149301058	0.648132029	0.627453147
0.055335009	0.871816582	0.875201975	0.654534312	0.164675346	0.168965294
0.054278641	0.875601104	0.883045823	0.690553522	0.170739852	0.175243416
0.137267307	0.861361016	0.845387552	0.566167766	0.154447199	0.149231997
0.027330838	0.875948705	0.8844065	0.695323716	0.170334958	0.175294759
0.200844227	0.826001412	0.213717234	0.583581804	0.119123252	0.61065408
0.206958362	0.209702959	0.824759334	0.606311897	0.577907433	0.118684818
0.082632518	0.855233151	0.067789488	0.631831774	0.148829165	0.653071978
0.085513402	0.868400449	0.082816508	0.664104757	0.162530651	0.675413487
0.090506795	0.301868593	0.257875109	0.62271895	0.626792912	0.621212954
0.448806048	0.439610817	0.877508247	0.559619893	0.527800766	0.170555056
0.510139679	0.528388783	0.877686349	0.560605234	0.532022631	0.170965463
0.422164166	0.877363139	0.45912706	0.555185179	0.170428622	0.590948301
0.130505543	0.863082664	0.857121403	0.586414761	0.154881041	0.157002009
0.438649417	0.438644804	0.877319667	0.626596608	0.596514929	0.170734585
0.047143374	0.871149739	0.875804123	0.65677008	0.164129142	0.168446792
0.823160802	0.823523296	0.825313088	0.299126272	0.298698322	0.298729271
0.067695195	0.06765831	0.067951353	0.636500817	0.636437488	0.636831322
0.877610952	0.459622448	0.429633748	0.170857055	0.559897496	0.52435771
0.855635059	0.069048858	0.071344042	0.149137142	0.649698976	0.629469436
0.872830672	0.874911353	0.055285023	0.165194285	0.168827615	0.654841346
0.881519731	0.013951549	0.01413681	0.175489257	0.697018427	0.697324582
0.327672747	0.346675886	0.825954318	0.613562497	0.58248053	0.118725301
0.855578629	0.079895812	0.071545129	0.149307409	0.64773858	0.627757411
0.041125974	0.040852263	0.882018571	0.691748791	0.692895167	0.175611965
0.855356384	0.06890358	0.071447124	0.148960076	0.649725897	0.62930115
0.027900135	0.882174097	0.028432339	0.694973452	0.175541452	0.695851931
0.864707504	0.854173813	0.111391895	0.156170399	0.155076292	0.592182367
0.877835849	0.473661167	0.40428706	0.17063379	0.625840723	0.586173298
0.88174187	0.054604023	0.054135934	0.17535435	0.68991212	0.69047207
0.083419603	0.083766037	0.083920421	0.632101088	0.63212055	0.632460288
0.100826426	0.082892718	0.868831618	0.66757086	0.655709508	0.16276153
0.129316676	0.826128031	0.145582813	0.574483199	0.11944008	0.603413402
0.882813213	0.054267401	0.875082101	0.175092423	0.690429619	0.170531268
0.824615404	0.234044777	0.247060084	0.118978043	0.606980223	0.581070353
0.855510767	0.103027196	0.078887431	0.149580584	0.643468519	0.623674046
0.061152613	0.042256119	0.07713465	0.675170144	0.675366466	0.677379385
0.103906099	0.866661028	0.866991935	0.615139191	0.159303044	0.162979996
0.43259016	0.877305107	0.448072077	0.558625931	0.170560103	0.591556615
0.134529974	0.124594953	0.825629848	0.605871697	0.577248099	0.118232641
0.484688457	0.392852063	0.877287541	0.625247632	0.582501688	0.170338093
0.05482769	0.054658122	0.055285442	0.690412994	0.690279335	0.690148742
0.445735477	0.877001151	0.437295864	0.562361762	0.170480529	0.591647773
0.074251612	0.855824142	0.091168136	0.625767725	0.149296598	0.645826998
0.067319871	0.079166577	0.855528253	0.652138286	0.632907254	0.148984251
4.925E-06	4.89702E-06	0.881291622	0.699308148	0.699443012	0.175273481
0.470029549	0.411696375	0.877625688	0.590684725	0.551514278	0.17079486
0.480931284	0.410237084	0.877648351	0.5594128	0.517467056	0.170769147
0.250451255	0.252430556	0.825857401	0.617570166	0.58764217	0.118726906
0.877304771	0.437056678	0.446315799	0.170599112	0.575730808	0.546089105
0.476839506	0.412831671	0.877521483	0.608209519	0.568666796	0.170579638
0.855415552	0.066240334	0.079387196	0.148921735	0.652378555	0.632234525
0.877740395	0.470308027	0.419956199	0.170821868	0.559763525	0.520889847
0.865039067	0.077068663	0.86773637	0.161198128	0.623089814	0.160068501
0.862520323	0.846148582	0.141695672	0.153921296	0.149955686	0.564543782
0.874490876	0.065211965	0.871731491	0.168719286	0.652865459	0.164581313
0.104049061	0.866351063	0.867247434	0.615275562	0.158916925	0.162802294
0.855966641	0.111520191	0.86452809	0.155267556	0.592153199	0.156128448
0.062431732	0.062522729	0.062378932	0.638229654	0.638394226	0.638471376
0.076051112	0.870903514	0.874618861	0.650592657	0.164498387	0.168586403
0.465450781	0.877493327	0.449631895	0.531184605	0.170691052	0.56034846
0.076269241	0.869224109	0.083971881	0.661300711	0.162499396	0.673570032
0.877266096	0.447857649	0.432638264	0.170413162	0.590883965	0.558315276
0.103462701	0.841994166	0.125199342	0.598165003	0.135275875	0.62349269
0.082625617	0.869135286	0.098884953	0.654658673	0.162559458	0.667722596
0.845477164	0.141836614	0.860744579	0.150204515	0.564541268	0.153854183
0.078355429	0.868963689	0.08606973	0.661038727	0.162482346	0.673522965
0.401943255	0.877353988	0.487080317	0.564029222	0.170553016	0.606913205
0.125854093	0.82546603	0.144365967	0.575092516	0.11859404	0.603888366
0.048687277	0.045004475	0.052197075	0.656041175	0.656361571	0.656322232
0.411622934	0.87719321	0.470269095	0.551729594	0.170305932	0.590519319
0.047447965	0.046234034	0.052357855	0.65784126	0.658168403	0.657416595
0.02741366	0.076854475	0.076693039	0.678670007	0.680105523	0.67852001
0.412178372	0.877172835	0.469518706	0.551682625	0.170589542	0.590487728
0.469810678	0.411529657	0.877260295	0.590840367	0.551542376	0.170298216
0.082043605	0.855096015	0.067317091	0.631364465	0.149077928	0.653087558
0.048130344	0.045715899	0.053407864	0.656137246	0.656151382	0.656234806
0.882817856	0.054269608	0.876189233	0.175081864	0.690451574	0.170519008
0.43586017	0.877291705	0.448067099	0.542723014	0.170513556	0.575624848
0.041123272	0.040764384	0.881376465	0.692369719	0.692743581	0.175468334
0.013709473	0.876019894	0.884126431	0.697483783	0.170829174	0.176070825
0.081613284	0.86894376	0.091664939	0.656861728	0.162623661	0.669883732
0.846597242	0.147357563	0.861407832	0.151275519	0.562785314	0.153488093
0.877583428	0.437517467	0.443961871	0.170431472	0.590863661	0.561290275
0.881732693	0.014502153	0.014158876	0.175499763	0.697693971	0.697722915
0.862987016	0.862697755	0.863500985	0.219402066	0.218476904	0.21930354
0.865137567	0.856080129	0.111440326	0.156477218	0.155009721	0.592022148
0.87510892	0.882435111	0.040859938	0.170127651	0.174632566	0.693097526
0.137159346	0.861240671	0.843904091	0.566200384	0.1538191	0.148182416
0.856175248	0.11666015	0.863285278	0.155580694	0.590355493	0.155463269
0.8774028	0.459058028	0.425601986	0.17061577	0.57578674	0.539671306
5.49553E-06	0.875458668	0.883701605	0.69915499	0.17051879	0.175316821
0.426816051	0.877073051	0.450242617	0.593084989	0.170367251	0.626487276
0.054556977	0.051269126	0.05725233	0.653740307	0.654339781	0.654071589
0.881751037	0.013996202	0.014144317	0.175471172	0.697100605	0.697371437
0.877739938	0.470303766	0.419959882	0.170832846	0.559747771	0.520885402
0.841629522	0.083348511	0.102232217	0.134792551	0.631030884	0.605954471
0.875736748	0.076046596	0.872290361	0.16917144	0.65052598	0.16514688
