Va	Vb	Vc	Ia	Ib	Ic
0.877359568	0.459130002	0.42214516	0.170397097	0.590590146	0.554770741
0.846016823	0.147485304	0.8593789	0.150280278	0.5627816	0.152413443
0.87165116	0.874467616	0.046820896	0.164791112	0.168294034	0.657993728
0.86689621	0.866532548	0.081771519	0.159616197	0.161928313	0.621154912
0.401608097	0.877520912	0.480681159	0.548212662	0.170402663	0.589926642
0.85532729	0.064255048	0.077943238	0.148797639	0.653397958	0.632607549
0.246806442	0.24581337	0.825726914	0.608594184	0.58168715	0.119080069
0.08772428	0.079248005	0.868626343	0.672870001	0.661847676	0.162777984
0.881660683	0.041295756	0.040871476	0.175502467	0.69271425	0.692945633
0.862961662	0.862658033	0.863650417	0.218307349	0.218828519	0.219416532
0.070079477	0.051540698	0.082315442	0.673330571	0.672552648	0.674019696
0.425649738	0.877322602	0.459088281	0.539463774	0.170503864	0.575593123
0.871110047	0.874546542	0.075956981	0.164406503	0.168140056	0.65037369
0.054734956	0.054912783	0.054924068	0.690355469	0.690447609	0.690776081
0.569775219	0.877216876	0.553641705	0.537274001	0.170478248	0.565566647
0.499711113	0.516909409	0.877598058	0.559541305	0.530338181	0.170684379
0.092736249	0.099612972	0.84140888	0.629511318	0.604544641	0.134949807
0.129026807	0.29877526	0.20198708	0.621264765	0.622473412	0.622406957
0.083442018	0.102218399	0.841804809	0.6312081	0.605839556	0.134720802
0.062486909	0.06248006	0.062460491	0.638259067	0.638418444	0.638523136
0.881280641	0.041243954	0.040992907	0.175501529	0.69244898	0.693015198
0.099218617	0.841767291	0.103046632	0.6024291	0.134912134	0.62763514
0.130078566	0.110768231	0.150286564	0.615336708	0.613722549	0.615700089
0.067550453	0.067714618	0.067757178	0.636371248	0.636628971	0.636762484
0.413898371	0.87739452	0.475682394	0.566035987	0.170676302	0.605484133
0.045173947	0.872088626	0.874386714	0.659012526	0.165312757	0.168182908
0.866186772	0.087725635	0.867697061	0.161979383	0.619307871	0.159353289
0.826154828	0.148575065	0.130572068	0.119162579	0.605106017	0.575591768
0.861358487	0.844842274	0.137197297	0.153979724	0.148618676	0.566207633
0.469865788	0.415737936	0.877393534	0.575423666	0.53626134	0.170586663
0.866939721	0.865261075	0.081836657	0.159264388	0.161528781	0.621339988
0.88148733	0.00000493	0.0000048	0.175534021	0.698984389	0.699222211
0.05944545	0.064087967	0.063021768	0.652108832	0.651407075	0.651193181
0.429477661	0.877291746	0.45946284	0.524400885	0.170587062	0.559737696
0.875435152	0.076007961	0.871494468	0.168840651	0.650488045	0.164519513
0.87463348	0.051285777	0.872327042	0.168336258	0.659071241	0.165074002
0.877687145	0.480929385	0.401814102	0.170804528	0.590286742	0.547959623
0.884257855	0.0137094	0.876407803	0.176056658	0.697552055	0.170866714
0.413764362	0.877393188	0.475710555	0.566000786	0.170680005	0.605538237
0.102199313	0.841624686	0.083450834	0.606183878	0.134769737	0.631195167
0.422236954	0.878272789	0.459681912	0.555084866	0.170349277	0.59046185
0.873698341	0.065234445	0.870741572	0.168696391	0.652749874	0.164590992
0.455004456	0.435888223	0.877399771	0.61102931	0.577432473	0.170589311
0.855758837	0.079448237	0.071847341	0.149342535	0.647756525	0.62720012
0.876836754	0.882588919	0.013706061	0.170595571	0.175493546	0.697285098
0.123108487	0.864000599	0.856168356	0.58855113	0.155755801	0.156751891
0.877410506	0.448721125	0.439603066	0.170672865	0.559984351	0.527622815
0.864178161	0.863571963	0.863800284	0.219583302	0.219518481	0.219456401
0.473495136	0.404106051	0.877489698	0.625952246	0.586159461	0.170576076
0.875699724	0.883158258	0.027327063	0.170680987	0.175780005	0.695269781
0.877576302	0.450492239	0.427069526	0.170694388	0.626492839	0.593027766
0.496779445	0.512110668	0.877521667	0.560632316	0.531692714	0.17063451
0.070584277	0.051259093	0.08267779	0.673560314	0.67262848	0.674868769
0.469978413	0.415626342	0.877325864	0.575366942	0.536174291	0.170551158
0.877390017	0.46978456	0.415604336	0.170561301	0.575410185	0.536136833
0.429704095	0.877697264	0.459639604	0.524430326	0.170745947	0.559765663
0.102923863	0.078843058	0.855348766	0.643635478	0.623691834	0.149262865
0.876969577	0.480764479	0.401166145	0.170264929	0.589615006	0.547573205
0.059628975	0.063943474	0.062271202	0.652111879	0.651787825	0.652080458
0.147428823	0.859635846	0.845339586	0.562746317	0.152508909	0.150365587
0.877526866	0.462059011	0.415494833	0.170714163	0.626247722	0.589613368
0.873689364	0.873687984	0.872895361	0.188585004	0.18897563	0.188521403
0.450503365	0.427076031	0.877594065	0.626538054	0.593069293	0.170697582
0.862156692	0.855444739	0.12315716	0.155155408	0.156111688	0.588489992
0.149741554	0.133565091	0.826416685	0.603324232	0.575346272	0.119368559
0.070351934	0.051642737	0.083159076	0.672896846	0.672399119	0.674354834
0.00000485	0.00000479	0.882059277	0.699236591	0.699543621	0.175341372
0.856617735	0.102824147	0.078849221	0.149490914	0.643437563	0.623690461
0.085502287	0.869072459	0.082509498	0.665413295	0.162540773	0.677395241
0.855733094	0.068876246	0.071625735	0.148895009	0.649742824	0.629167798
0.822499423	0.823810451	0.82434495	0.298615116	0.298953855	0.299940253
0.078665712	0.86901094	0.088058336	0.660222046	0.162604599	0.670626411
0.4463493	0.877365528	0.437083461	0.546047268	0.170615688	0.575750718
0.131681801	0.826162374	0.149161338	0.576036579	0.118969131	0.603546391
0.874328361	0.065239803	0.87110486	0.168659692	0.652768634	0.164662254
0.866592964	0.095478176	0.867293054	0.16229993	0.617183099	0.159379888
0.411689029	0.877696072	0.470091917	0.551432652	0.170593241	0.590579311
0.85516103	0.102889779	0.078911268	0.149125009	0.643444269	0.623564186
0.103065622	0.099157249	0.841549335	0.627710279	0.602591356	0.13496012
0.099678522	0.841867057	0.092659681	0.604435883	0.134885721	0.629759258
0.883023637	0.0000055	0.876262523	0.175482695	0.699365927	0.17120791
0.139293211	0.130871481	0.825098183	0.604176035	0.57694494	0.118797745
0.079292074	0.082264268	0.8687928	0.677799446	0.665529992	0.162593494
0.486066657	0.527491321	0.877964177	0.560768194	0.532368445	0.17059713
0.079235671	0.869042195	0.092625774	0.658411096	0.162589871	0.670003639
0.864052464	0.856660581	0.123141593	0.15576897	0.156537418	0.588505984
0.883122636	0.054280239	0.875940495	0.175050098	0.690590785	0.170763806
0.877639527	0.448800951	0.43975081	0.170658133	0.559982526	0.527588169
0.484921699	0.393057076	0.877728998	0.62514585	0.582581161	0.170793322
0.825142766	0.135701659	0.128977378	0.118687202	0.605885716	0.576592723
0.856381289	0.116701663	0.864400685	0.155841878	0.590331784	0.156032045
0.885094501	0.01370788	0.877678558	0.175746549	0.697448195	0.170962357
0.047133602	0.871863434	0.873747966	0.656843373	0.164528137	0.167755719
0.864509948	0.856010925	0.116640436	0.155775144	0.155672603	0.590363701
0.054312016	0.881797253	0.054614943	0.690981788	0.175528928	0.690431825
0.444152972	0.877721862	0.439121498	0.562086658	0.170508872	0.591463939
0.856511755	0.123126028	0.863181268	0.156092745	0.588476937	0.154924342
0.054303405	0.881712191	0.054613285	0.690717869	0.175494544	0.690329575
0.45905825	0.422125236	0.877615051	0.590855952	0.555016904	0.170567254
0.877883758	0.877242882	0.877993828	0.170997825	0.170697015	0.171036267
0.103229456	0.078905806	0.856406787	0.643766004	0.623435972	0.149645326
0.873901396	0.055344624	0.872398358	0.168065578	0.65489452	0.164514783
0.099815444	0.081295328	0.868851284	0.667663611	0.657282917	0.162596038
0.41027532	0.877857531	0.481097052	0.51758565	0.170495736	0.559337917
0.415577411	0.877288488	0.469880249	0.536021372	0.170501259	0.575270998
0.884542718	0.040849228	0.875464066	0.175632724	0.692896432	0.170564313
0.404339685	0.877941794	0.473714496	0.586235058	0.170758805	0.625861268
0.401606	0.877596059	0.480732904	0.548226	0.170460655	0.589948496
0.877295362	0.448042814	0.435860102	0.170597285	0.575685772	0.542806278
0.102913267	0.841963585	0.12496901	0.598600739	0.135210516	0.623694219
0.867312729	0.865290816	0.077621242	0.15968007	0.161201189	0.622828033
0.040828968	0.046844396	0.075190127	0.677465046	0.677857334	0.680592935
0.102022071	0.132539953	0.176895836	0.617526932	0.621404621	0.621656988
0.841657404	0.124702019	0.103667082	0.135303031	0.623071054	0.598039251
0.427133504	0.877706098	0.450557895	0.593066331	0.170814429	0.626461078
0.865730449	0.087709148	0.866803147	0.161862284	0.619341909	0.159304009
0.099686329	0.841619903	0.092683887	0.604567917	0.134859113	0.629777901
0.401605928	0.877595167	0.480732393	0.54822588	0.170460633	0.589948662
0.877351909	0.437068667	0.44635135	0.170600276	0.57571929	0.546076261
0.86416356	0.855522699	0.111454422	0.156231585	0.15543664	0.592228158
0.825607111	0.276363232	0.279251726	0.11832214	0.610771669	0.584409417
0.103859717	0.866556973	0.866423756	0.615347306	0.159022324	0.162820046
0.866574551	0.866058273	0.10424938	0.159044454	0.162353917	0.615128387
0.444308817	0.876945157	0.438255269	0.561716981	0.170231867	0.591254456
0.855643576	0.065391451	0.079151783	0.148707799	0.652450254	0.631748556
0.871866407	0.873532366	0.047580329	0.165233892	0.168257153	0.658644874
0.877524214	0.459605531	0.42955313	0.170536285	0.559639393	0.524586249
0.435940839	0.877417589	0.44814802	0.542727717	0.170578302	0.575629747
0.843663685	0.133799964	0.862438269	0.147898923	0.567762338	0.155075559
0.040997235	0.881470855	0.041466851	0.69282099	0.17534524	0.692184962
0.401706703	0.878096151	0.481123564	0.548029881	0.170730995	0.589733465
0.825937093	0.237097694	0.247435946	0.118985628	0.611968135	0.581796637
0.855618089	0.065423496	0.079251208	0.148850431	0.652605612	0.631414228
0.438605664	0.438600876	0.877232636	0.626787589	0.596298761	0.170458693
0.153923775	0.860573844	0.847137272	0.560901465	0.152816744	0.151981621
0.877616251	0.438797566	0.438792832	0.170799612	0.626580121	0.596425098
0.462026238	0.415466558	0.87746541	0.626306731	0.589648584	0.170584039
0.841590449	0.083403749	0.102205596	0.134841501	0.630920571	0.606147226
0.82628985	0.191230333	0.187718217	0.118957393	0.611847848	0.581666176
0.826536961	0.262766256	0.282047527	0.118761411	0.612650233	0.584464032
0.866850367	0.865807375	0.08196232	0.159722256	0.161674418	0.62110709
0.086844342	0.869240005	0.083217938	0.665383179	0.16245986	0.677375851
0.881430657	0.00000482	0.00000491	0.175452216	0.698849685	0.699295155
0.100510178	0.841792636	0.114015914	0.600940348	0.135024974	0.625961136
0.083268938	0.299644244	0.27863886	0.620079782	0.620572277	0.617887677
0.863541195	0.844008122	0.133703001	0.15517397	0.148013254	0.567867129
0.87195358	0.87396071	0.055333061	0.164546584	0.167660631	0.654731567
0.00000479	0.00000491	0.881586758	0.699461887	0.699126917	0.174993984
0.435940272	0.877406035	0.448135478	0.542679896	0.170631799	0.57558498
0.877534995	0.474173378	0.481385544	0.170656959	0.560987392	0.532200958
0.103087121	0.078842926	0.855355674	0.643566521	0.6236604	0.149273558
0.074875171	0.074981835	0.075406884	0.634396297	0.634318848	0.634463582
0.866905274	0.103997469	0.866679334	0.162582143	0.615282106	0.159040504
0.866312132	0.095426142	0.867251102	0.162513642	0.617198951	0.159535805
0.140756426	0.128858575	0.825949173	0.604328779	0.576117649	0.119114584
0.57298075	0.877189204	0.544065325	0.537890168	0.170400551	0.564651621
0.860944463	0.844649051	0.141744072	0.15364592	0.149679752	0.564572062
0.881450086	0.00000495	0.00000479	0.175327753	0.699545012	0.699653283
0.866765764	0.866001418	0.088406367	0.15944099	0.162018961	0.619132833
0.438483119	0.438478464	0.876987747	0.626727375	0.596268965	0.170458463
0.876119065	0.882510226	0.040858147	0.170606588	0.175200139	0.693080605
0.872576276	0.874776518	0.047388179	0.165798031	0.168678549	0.656944972
0.074886946	0.855843341	0.091396301	0.625819867	0.14975817	0.645535152
0.866385915	0.087758179	0.866924628	0.16228095	0.619959017	0.159415963
0.866628715	0.103970543	0.867257402	0.162648554	0.615519232	0.159205307
0.415479703	0.877494183	0.462041836	0.589832894	0.170514282	0.626053087
0.877329782	0.451009784	0.432012794	0.170487179	0.608747288	0.575260537
0.856151044	0.091200029	0.07416167	0.149317791	0.645801334	0.625616246
0.073240492	0.855377352	0.071612758	0.62931868	0.148934658	0.649681954
0.470372202	0.419843853	0.877708749	0.559607366	0.520982039	0.170527955
0.841732898	0.113760817	0.100389576	0.135060445	0.626159759	0.600663314
0.841677179	0.124848631	0.103681889	0.135304089	0.623055394	0.598042592
0.881337096	0.00000491	0.00000486	0.175382981	0.699225353	0.699677938
0.841818935	0.102930257	0.099085918	0.134987005	0.627733212	0.602585376
0.860399166	0.84446107	0.141723803	0.152878986	0.148973154	0.564562712
0.438870742	0.43886607	0.877763114	0.626645619	0.596304693	0.170725931
0.055363912	0.872721138	0.875042324	0.654999108	0.164924588	0.169026103
0.039718374	0.046679857	0.073666992	0.676702125	0.676895691	0.677079702
0.51364976	0.497122202	0.877202598	0.558791025	0.530321266	0.170977054
0.877274552	0.448059288	0.435822072	0.170629587	0.575681939	0.542820793
0.877486139	0.480447321	0.405893477	0.170540853	0.575053857	0.532708438
0.059435863	0.064670596	0.063637933	0.652121983	0.651336371	0.651272519
0.877143405	0.48071895	0.401517515	0.170450056	0.589626038	0.547709675
0.068714348	0.071344271	0.855601506	0.649902788	0.629379418	0.149211471
0.470161262	0.411795964	0.877894691	0.590528475	0.551829491	0.170245493
0.074554577	0.85485653	0.09142518	0.625855556	0.149141731	0.645432223
0.877266562	0.448692479	0.439474891	0.17050779	0.559758885	0.527727836
0.047128533	0.870774378	0.873413324	0.656924091	0.164406586	0.168064159
0.113683227	0.100374596	0.841782548	0.626011243	0.600592099	0.135011224
0.040860656	0.875377395	0.883718751	0.693123891	0.17076729	0.175744894
0.873845608	0.874411248	0.875886636	0.188648678	0.188919589	0.188876021
0.874072889	0.047344464	0.87070233	0.168097895	0.657080891	0.164485458
0.876839604	0.44752705	0.432836495	0.170434475	0.59084677	0.558147782
0.443610888	0.447932338	0.877368755	0.606789229	0.577195042	0.170583493
0.87779929	0.470425609	0.419883778	0.170660031	0.55957215	0.520927786
0.083407339	0.102190884	0.841782175	0.631176166	0.605768028	0.134715271
0.872370606	0.87503181	0.065183315	0.164815096	0.1685222	0.652832823
0.841345498	0.083370311	0.102220632	0.134802586	0.631356536	0.60622869
0.861148154	0.845442686	0.141712697	0.153844621	0.149993753	0.564598134
0.300039964	0.825669188	0.290963067	0.588961328	0.118838814	0.618283533
0.102879259	0.078834671	0.855492754	0.643322136	0.623389129	0.149249712
0.882126926	0.027327178	0.876759696	0.175420994	0.695228797	0.170824183
0.883106957	0.013706838	0.875788677	0.175000053	0.697342954	0.170417645
0.113995448	0.100094932	0.842204927	0.625872653	0.600673493	0.135069753
0.044711821	0.048749575	0.051306386	0.657317934	0.658047827	0.658719445
0.865723823	0.087709894	0.86680213	0.161864169	0.61933655	0.159305219
0.823474423	0.823275643	0.822706565	0.297640101	0.298724958	0.297561325
0.137204226	0.860281488	0.844643509	0.56643746	0.153891867	0.148670804
0.855677502	0.0664771	0.078957767	0.148665074	0.652296689	0.63171213
0.091689497	0.074358379	0.855036823	0.645368815	0.625636168	0.148767857
0.149075539	0.134987119	0.825668823	0.603755946	0.575116299	0.119490773
0.876858061	0.883576277	0.040856341	0.170884302	0.175936717	0.693070513
0.862092624	0.855362158	0.123154648	0.155091392	0.156161151	0.58843459
0.131369045	0.825700102	0.148756162	0.57522296	0.118864719	0.603966742
0.103132363	0.099091024	0.841808121	0.627756751	0.60265351	0.134962787
0.111440003	0.864165247	0.855656777	0.592116069	0.155840531	0.155072317
0.862929364	0.843150876	0.133735627	0.155355065	0.148271862	0.567749348
0.877264184	0.877321033	0.877336831	0.170584196	0.170614828	0.170081226
0.446009968	0.877744664	0.437611635	0.562688711	0.170765242	0.592415507
0.470040981	0.411723408	0.877678473	0.590653593	0.551447291	0.17064678
0.84838705	0.847428221	0.846412991	0.256282569	0.257336917	0.256588903
0.067225794	0.078684183	0.854677067	0.653950403	0.63375929	0.149109161
0.877176485	0.470603707	0.411531529	0.1703776	0.59068721	0.55161261
0.04114056	0.040873229	0.88176696	0.692633548	0.692994204	0.175207003
0.045360827	0.047972121	0.053228476	0.655546201	0.656487742	0.6552417
0.124682866	0.103205466	0.841730866	0.624175408	0.598595686	0.135153118
0.866607621	0.10399962	0.867078537	0.162586254	0.615474337	0.159174367
0.103968469	0.866540956	0.866562394	0.615394938	0.159007656	0.162824443
0.421950077	0.8774972	0.459197822	0.555184173	0.170333149	0.590380545
0.41554508	0.877623394	0.462105402	0.589655297	0.17076685	0.626162765
0.081524978	0.25673888	0.243068439	0.620318636	0.625296012	0.624419469
0.876783972	0.883512076	0.040851965	0.171056829	0.175385815	0.692969861
0.08340921	0.102157264	0.841441195	0.630746212	0.605838555	0.134752012
0.02740557	0.881650231	0.027663123	0.695462655	0.174984212	0.694327752
0.876122464	0.883460685	0.013706863	0.170446888	0.175360206	0.697323988
0.058965973	0.038982268	0.078123699	0.679370783	0.679117893	0.679896663
0.85505945	0.068636848	0.072048988	0.149310566	0.649894352	0.62902989
0.866723995	0.103977742	0.867365445	0.162604018	0.615627872	0.15917146
0.078853766	0.868801258	0.08793394	0.663494322	0.162668262	0.674647066
0.86702964	0.866432833	0.088415007	0.159599817	0.162387079	0.61965834
0.435878158	0.877304023	0.448041692	0.542879154	0.1705454	0.575825961
0.877359176	0.459129964	0.422144681	0.170397173	0.590590347	0.554770609
0.867007188	0.104050493	0.866729717	0.162687366	0.615471043	0.159138609
0.485144751	0.393266681	0.878162089	0.625249851	0.582653593	0.170690972
0.8423058	0.133821123	0.862618748	0.148288401	0.567691078	0.15540293
0.856062255	0.091312208	0.074117185	0.149421061	0.645738624	0.625509402
0.883554359	0.054279326	0.875907512	0.174950574	0.690564584	0.170606847
0.130415691	0.863904009	0.857950146	0.586506502	0.155155418	0.157353073
0.062472665	0.062479458	0.062427467	0.638270088	0.638349941	0.638543985
0.054618946	0.054242833	0.881716793	0.689866921	0.690260414	0.175426075
0.881438488	0.00000489	0.00000479	0.175331916	0.699120526	0.699208505
0.877753842	0.459683326	0.429711609	0.170421252	0.55979884	0.524389325
0.86407553	0.863206425	0.863939665	0.21916872	0.219070127	0.219602576
0.054613246	0.05424203	0.881789815	0.689932594	0.690270709	0.175685775
0.877500519	0.484809606	0.392940723	0.170725787	0.625199052	0.58263108
0.455213926	0.435762871	0.877374756	0.610237847	0.576952221	0.170596211
0.130569743	0.320082084	0.220470283	0.622417381	0.623149147	0.621470653
0.846041731	0.147497322	0.860957271	0.150897372	0.56283781	0.153193776
0.415580811	0.877350318	0.470056172	0.536013454	0.17051047	0.575265466
0.846452678	0.153957758	0.858631685	0.150904598	0.560900388	0.151587461
0.045184216	0.872587796	0.875064897	0.659145185	0.165558175	0.168585924
0.848075559	0.846584569	0.8474616	0.257413484	0.257055214	0.257118813
0.848220256	0.846552426	0.847730235	0.257634863	0.256940555	0.257411291
0.856747674	0.130472303	0.862477803	0.156454591	0.586496596	0.154438569
0.059631297	0.064448712	0.062509896	0.652253689	0.651415404	0.651262535
0.429704046	0.877645535	0.459585946	0.524387869	0.170741591	0.559898393
0.881182851	0.00000483	0.00000481	0.175398614	0.69912871	0.699525403
0.072817273	0.855718907	0.082705916	0.62773695	0.14940524	0.647567467
0.082768479	0.869220991	0.100298188	0.657267821	0.162631465	0.669373107
0.107687299	0.865388593	0.854951905	0.593987655	0.15701061	0.15483145
0.214047651	0.826281292	0.212030051	0.579940795	0.11930006	0.610283459
0.100137935	0.081310441	0.869210695	0.66921434	0.657605448	0.162733077
0.875499525	0.884782278	0.0000055	0.170111947	0.175697741	0.699587129
0.87738966	0.484109762	0.399794852	0.17055521	0.608640836	0.566029012
0.866183963	0.087729299	0.867732677	0.161989626	0.619309157	0.159366712
0.883879681	0.0000055	0.876146886	0.175498839	0.699371997	0.170856342
0.404476899	0.8782338	0.473867507	0.586214841	0.170786306	0.625834469
0.013918022	0.014337591	0.013862589	0.696945508	0.696935412	0.696130689
0.087963946	0.867567085	0.866150919	0.619494315	0.159682303	0.161967692
0.443007163	0.448138798	0.877349213	0.606596315	0.576589974	0.170605861
0.059973803	0.06005114	0.059972104	0.640090377	0.640118947	0.63983029
0.877151664	0.87774983	0.877154615	0.170261231	0.170760486	0.170271184
0.825927007	0.214267888	0.22560587	0.118699882	0.610278739	0.581360377
0.844228246	0.137230745	0.861353511	0.148736547	0.566237076	0.154155357
0.103261005	0.078857098	0.85654235	0.643739783	0.623500813	0.149615761
0.856013568	0.116692067	0.863875884	0.155785957	0.590379313	0.155904575
0.866574602	0.104100869	0.866513736	0.162606544	0.615122749	0.159200306
0.447625991	0.432348113	0.876825739	0.590737014	0.558258067	0.170167953
0.480700192	0.405849479	0.877432562	0.574749055	0.532325283	0.170560863
0.86071297	0.844427479	0.14172648	0.152882963	0.148974431	0.564553195
0.877352864	0.437188641	0.444244323	0.17034238	0.591470764	0.561970653
0.862793244	0.8622953	0.864084446	0.218502248	0.21891888	0.219408098
0.442879458	0.448709853	0.877387043	0.607029226	0.577537312	0.170585569
0.3929207	0.87742655	0.484758354	0.582439865	0.170484183	0.625286752
0.84172046	0.113606053	0.100565392	0.135178354	0.62598022	0.600919096
0.131320281	0.826099676	0.148613249	0.575384791	0.118964459	0.603971919
0.439681778	0.877580946	0.448819197	0.527659193	0.17060082	0.559777815
0.85600366	0.111468213	0.864940475	0.155473018	0.592149988	0.156746741
0.300602963	0.825902525	0.295834532	0.587481394	0.118794428	0.617800339
0.843788817	0.137216004	0.861024659	0.148731238	0.566248992	0.154142538
0.133717738	0.861737092	0.843629229	0.567801104	0.155220368	0.14822473
0.87246888	0.874239643	0.047237586	0.164991261	0.168138893	0.656990718
0.041227497	0.040901275	0.882033735	0.692716596	0.692943103	0.175291914
0.877053505	0.470230383	0.41182372	0.170199261	0.58968209	0.551182474
0.446208957	0.877347342	0.444410577	0.576455898	0.170558949	0.606937768
0.054268599	0.876989973	0.884561638	0.690427235	0.17150633	0.175559067
0.00000276	0.00000287	0.00000284	0.699171171	0.699442525	0.699504155
0.465953992	0.424111065	0.877422758	0.608802939	0.572147108	0.17056969
0.877266675	0.470201735	0.411832631	0.170415262	0.590695272	0.551644978
0.866113117	0.081523784	0.867273676	0.161568152	0.621486749	0.159447052
0.44812575	0.435899766	0.877386638	0.575787239	0.542857278	0.170562825
0.069976464	0.065406759	0.084871633	0.670303522	0.671138795	0.672788353
0.866750147	0.865574996	0.081851364	0.159225836	0.161378793	0.621465044
0.480602516	0.405740133	0.877302896	0.575115172	0.532621353	0.170521975
0.081272303	0.273899091	0.261005394	0.620213803	0.622186739	0.623518505
0.462152562	0.415586068	0.877712014	0.626134289	0.589602248	0.170681243
0.459114059	0.425658817	0.877388758	0.575495869	0.539374411	0.170572886
0.072801351	0.855953207	0.071280811	0.629685463	0.149624056	0.650190264
0.027321919	0.875983383	0.882909615	0.695104352	0.170584826	0.175034536
0.882300908	0.054491308	0.054144926	0.175668275	0.690001905	0.690455524
0.874101081	0.051642292	0.872030994	0.168376558	0.659095823	0.165023776
0.448814552	0.439625549	0.877513548	0.559795931	0.52770014	0.170642461
0.111413521	0.864097138	0.855802663	0.592068199	0.156325148	0.155236723
0.147419042	0.860113011	0.845509371	0.562788974	0.153038271	0.150744994
0.875274873	0.065245864	0.87130596	0.168513222	0.65265099	0.164694654
0.079077939	0.869008165	0.088301802	0.659898541	0.162605587	0.670627754
0.825814848	0.193100933	0.189953515	0.118847028	0.609689628	0.579565319
0.083705403	0.868863914	0.085318708	0.660467103	0.162614178	0.675045652
0.045510028	0.048516933	0.054281219	0.655657991	0.656917944	0.656364657
0.044592227	0.872151146	0.874041639	0.659298865	0.164877475	0.167890361
0.877654764	0.480925725	0.410254804	0.170384948	0.559331551	0.517596812
0.103277522	0.841777113	0.125140598	0.598488747	0.135128077	0.62356216
0.877469602	0.480511875	0.405759884	0.170595748	0.575398637	0.532966389
0.070122768	0.071892681	0.074180594	0.649785546	0.65012602	0.650392036
0.299648394	0.825827415	0.292946092	0.58748564	0.118808443	0.617816279
0.087124484	0.077245225	0.868892376	0.672695602	0.661592984	0.162584625
0.459035163	0.425766166	0.877376741	0.575487005	0.539360436	0.170580845
0.058965973	0.038982268	0.078123699	0.679370783	0.679117893	0.679896663
0.459234082	0.422208309	0.877884582	0.590940492	0.555144682	0.170331608
0.871978312	0.874533754	0.047202762	0.165051923	0.168148971	0.65699629
0.099280893	0.080732427	0.86894809	0.667523491	0.657093071	0.162568274
0.855736685	0.091278305	0.074262446	0.149384213	0.645131699	0.625803613
0.841849397	0.092731001	0.099660288	0.134798739	0.629602965	0.604378738
0.86489189	0.86354691	0.863851708	0.21927948	0.219238934	0.219398095
0.0652204	0.871347041	0.874083516	0.652805705	0.164578185	0.168581051
0.848856008	0.846569791	0.847960933	0.257374106	0.257107117	0.257020457
0.070390874	0.071593934	0.074157993	0.64995834	0.650185076	0.650722369
0.067540067	0.06770954	0.067725789	0.636364193	0.63659785	0.636772668
0.844942775	0.141804089	0.860419916	0.149671049	0.564602005	0.153662517
0.82560543	0.27180873	0.282418952	0.11835367	0.611013961	0.582026587
0.458983022	0.425672317	0.877314682	0.575567931	0.539420455	0.170584667
0.438813749	0.877657889	0.438818445	0.596539623	0.170609991	0.626466162
0.859964014	0.844650569	0.137211797	0.154325685	0.149104691	0.566265171
0.469858844	0.415688156	0.877385467	0.57541786	0.536262374	0.170596784
0.20946679	0.825550389	0.216789344	0.578536649	0.118821743	0.607874183
0.845130264	0.147459765	0.858710865	0.149937604	0.562746189	0.152397007
0.08004928	0.869192504	0.093544561	0.659159191	0.162732386	0.670618021
0.045897732	0.048976895	0.052726268	0.657984938	0.658057673	0.659781594
0.475895443	0.413730595	0.87741405	0.608778851	0.568361752	0.170567695
0.43986632	0.877927331	0.44897235	0.52753414	0.170852561	0.559938337
0.095577522	0.867068471	0.866392822	0.617422338	0.159531946	0.162564085
0.84656607	0.147495584	0.860067402	0.150760345	0.562759528	0.153081626
0.085693063	0.869221438	0.082860016	0.665420422	0.162510424	0.677489845
0.883110316	0.040855381	0.875544034	0.174937714	0.692990612	0.170630669
0.861084548	0.844917648	0.14175129	0.153878012	0.149840735	0.564540582
0.083428917	0.868891095	0.084801063	0.660733948	0.162625552	0.672911077
0.470205239	0.419618369	0.877313086	0.559651958	0.52099114	0.170598737
0.877044929	0.469900867	0.412190456	0.170409489	0.590598458	0.551540804
0.419785104	0.877631118	0.470358102	0.520988455	0.17061822	0.559604168
0.091626008	0.074230544	0.856118369	0.645187497	0.625779431	0.149318468
0.866607764	0.095178091	0.867451239	0.162354746	0.617569749	0.159436952
0.104200019	0.866838488	0.866625698	0.615111489	0.159168584	0.162879756
0.873786204	0.87343423	0.873017291	0.188438264	0.188719659	0.187535675
0.882833795	0.013706848	0.875340581	0.175063852	0.697348219	0.170426267
0.84410697	0.14172779	0.860991333	0.149655839	0.564636241	0.153695071
0.402866224	0.877402233	0.485656432	0.564896873	0.170522917	0.607544057
0.125103284	0.110058379	0.145571063	0.615583747	0.614481252	0.614626916
0.856093976	0.091274383	0.074094755	0.149406437	0.645659247	0.62559523
0.013833548	0.014009569	0.013812461	0.697315264	0.69702931	0.697196238
0.047168044	0.871244756	0.874611765	0.656908473	0.164737781	0.168345463
0.0000028	0.00000299	0.00000286	0.699173329	0.699229323	0.699556572
0.054304429	0.881571497	0.05462597	0.691051886	0.175405342	0.690169204
0.414595723	0.877384118	0.474531329	0.56966116	0.170552336	0.608840345
0.877485202	0.480502739	0.405827164	0.17059172	0.575397453	0.532974517
0.437126774	0.44638482	0.877446326	0.575798981	0.546065751	0.170578921
0.866395356	0.866258534	0.104255455	0.158979686	0.162360351	0.615155359
0.054655998	0.054302276	0.881176189	0.690044682	0.690601521	0.175308206
0.080529367	0.855369551	0.104573302	0.623490014	0.149250416	0.643382336
0.14741814	0.860230856	0.845893806	0.562681135	0.152938935	0.150654666
0.10424607	0.86709278	0.867397629	0.615396727	0.159270335	0.162975228
0.872668124	0.87436838	0.075947469	0.164500116	0.168345463	0.650436713
0.344314054	0.826319861	0.330450452	0.58391791	0.118788153	0.615179215
0.877401843	0.450651945	0.432491865	0.170573908	0.609770155	0.576349053
0.074553227	0.854938211	0.091324328	0.625810175	0.149110982	0.645466221
0.137213861	0.861720048	0.84409163	0.566244391	0.154259406	0.148822756
0.446377416	0.877416702	0.437105402	0.546080344	0.170609437	0.575736656
0.091644695	0.074295266	0.856376659	0.645383936	0.625838958	0.149833895
0.466131532	0.424473365	0.877352906	0.608588237	0.572007942	0.170558884
0.040861783	0.87577616	0.883499487	0.693144691	0.170617203	0.175525569
0.875102789	0.065241406	0.871302716	0.16827761	0.652781816	0.164352999
0.877283937	0.437037067	0.446315278	0.170591707	0.575697705	0.546051606
0.866806616	0.095188221	0.867362226	0.162354944	0.617698566	0.15943871
0.866377912	0.104089564	0.866670285	0.16272028	0.615421248	0.159204674
0.825804632	0.182565782	0.186714119	0.118743759	0.609827012	0.578974155
0.044521112	0.8724221	0.873807793	0.659274284	0.165118423	0.167975386
0.091766417	0.07961177	0.869396479	0.66804491	0.657045259	0.162661759
0.826190452	0.201299786	0.204337337	0.11910769	0.609759394	0.577467078
0.0000028	0.00000302	0.00000286	0.69917434	0.699109748	0.698487171
0.87686848	0.470329051	0.411549237	0.170350089	0.589925805	0.551234732
0.826254359	0.223768987	0.227687607	0.118616548	0.610042542	0.582774206
0.877311121	0.437123735	0.444160542	0.170386509	0.591458684	0.56193489
0.875124812	0.883921723	0.054271452	0.170765003	0.175509935	0.690442834
0.874910875	0.055407426	0.871731939	0.168608932	0.65503561	0.164687054
0.00000482	0.882336986	0.00000482	0.69927401	0.175323311	0.699253002
0.077866476	0.081174162	0.868971711	0.678550407	0.665942388	0.162488963
0.877189546	0.462144232	0.421067047	0.170567032	0.608737573	0.572234728
0.047163035	0.871270033	0.874546063	0.656897467	0.164696185	0.1682739
0.480598754	0.405773956	0.877332313	0.57480969	0.532357421	0.170542176
0.446336353	0.877340259	0.437070407	0.546068103	0.170592851	0.575723562
0.462458523	0.415891911	0.878323726	0.626250252	0.589635385	0.170654545
0.027327585	0.881649253	0.0276642	0.695366721	0.175052526	0.694377128
0.448005578	0.43266239	0.877521502	0.590941628	0.558488419	0.170275376
0.088206618	0.078861112	0.868905121	0.672559557	0.661530139	0.162602373
0.864569432	0.863525156	0.863972113	0.219629704	0.219697831	0.219246197
0.87436217	0.055399015	0.872640445	0.168474771	0.655117199	0.164741321
0.86662553	0.866247427	0.088275889	0.159424893	0.162020498	0.619627706
0.09927976	0.841989621	0.103143111	0.602274531	0.134887539	0.627782278
0.875110577	0.051101469	0.872017967	0.168358	0.659089354	0.165016313
0.871486361	0.875559199	0.055330138	0.165108396	0.168718749	0.654858103
0.868928368	0.090594822	0.076808963	0.162660985	0.671421339	0.659287293
0.411647973	0.877546901	0.469973809	0.55166116	0.170348943	0.59050705
0.877394002	0.473438534	0.410355303	0.170549186	0.609103319	0.569245198
0.881558541	0.041186582	0.040924777	0.175402828	0.692783401	0.692844227
0.027832645	0.027700565	0.028382304	0.695462412	0.695188609	0.695000238
0.871569071	0.874922985	0.046342932	0.164906091	0.168363457	0.658019179
0.054270272	0.876633738	0.883798048	0.690451606	0.171340472	0.175522527
0.00000492	0.00000475	0.881727209	0.699345867	0.699111972	0.175349435
0.424245402	0.877385535	0.465165855	0.573172609	0.170548227	0.609858267
0.842884157	0.133756547	0.860925558	0.147392884	0.567803646	0.154420866
0.05460219	0.054258478	0.881826291	0.689973222	0.690189031	0.175315734
0.470204904	0.419616224	0.8773106	0.559652203	0.52099136	0.170601693
0.062504426	0.062485643	0.062413933	0.638340584	0.638412552	0.638539802
0.045411374	0.048242693	0.053507172	0.655894435	0.656103284	0.656013258
0.866862794	0.866388928	0.095472989	0.159247719	0.162223859	0.617272832
0.883495217	0.013707317	0.876061675	0.175118071	0.697359596	0.170748193
0.847790463	0.846403066	0.847302451	0.257716253	0.25744525	0.257060709
0.877343679	0.877475262	0.877386413	0.170585555	0.170631139	0.170156279
0.126789856	0.109465431	0.151451375	0.615487507	0.612860759	0.614411646
0.415423102	0.877393386	0.461996838	0.589836892	0.170478677	0.626039058
0.133724326	0.861833423	0.843991753	0.567844884	0.155192494	0.148165535
0.054300394	0.881829289	0.054617871	0.690949323	0.175519326	0.690427424
0.883516417	0.040855407	0.876407199	0.175088955	0.692996196	0.170680711
0.392939434	0.877459873	0.484773339	0.582440183	0.170490459	0.625286791
0.877215916	0.473455467	0.410171216	0.170527318	0.609089347	0.569261754
0.469857443	0.415753988	0.877399107	0.575417485	0.536267544	0.170590942
0.868137493	0.864936443	0.07761326	0.160268249	0.161704363	0.623283475
0.087981033	0.867312512	0.865803413	0.619198064	0.159751866	0.161966162
0.485949989	0.402299617	0.877474314	0.608515198	0.565159204	0.170517917
0.848574814	0.846574968	0.847817919	0.257381539	0.257096799	0.257047304
0.855597708	0.116693685	0.863515991	0.155279395	0.590357265	0.155613574
0.87512467	0.075985542	0.871435656	0.168907268	0.650418253	0.164516594
0.099665329	0.080982744	0.869180299	0.668859364	0.656840745	0.162632768
0.080062903	0.85569303	0.104109486	0.623436495	0.14948439	0.643728469
0.07485951	0.074889302	0.074987242	0.63417509	0.63434309	0.634673383
0.87656991	0.877592199	0.877408093	0.17068007	0.170678956	0.170510762
0.824121184	0.823855665	0.82645608	0.298608798	0.29887271	0.299745642
0.3343879	0.825840592	0.338952676	0.585394167	0.118647453	0.614602666
0.877994027	0.470448404	0.420064715	0.170943293	0.559679076	0.521084068
0.846109396	0.14749734	0.860563267	0.150764251	0.562855172	0.15304471
0.473481164	0.404102645	0.877472003	0.625878152	0.58605023	0.170539635
0.435008232	0.877390423	0.454912903	0.574032629	0.170544419	0.607712674
0.875401496	0.884127416	0.054271389	0.170629217	0.175350723	0.690440037
0.111386061	0.864937343	0.855605221	0.592042994	0.156327247	0.155295038
0.438369741	0.444849848	0.877701291	0.593223792	0.563480061	0.17059551
0.87722265	0.459073375	0.422045543	0.170309743	0.590453455	0.554563081
0.877452351	0.448059063	0.432916592	0.170362833	0.590895775	0.557973003
0.877320229	0.437058393	0.446329494	0.170586611	0.575720537	0.546069092
0.84190001	0.092717715	0.09967812	0.13479179	0.629661474	0.60435293
0.133727225	0.86223447	0.843975669	0.567776523	0.155328713	0.148290117
0.439946916	0.878146489	0.449106479	0.527526791	0.170680523	0.559891799
0.826645119	0.26381438	0.278732917	0.118703196	0.609397726	0.583277143
0.877257997	0.473780623	0.410071415	0.170511454	0.609038931	0.569246402
0.845186261	0.141796965	0.860896264	0.149637779	0.56465513	0.15364489
0.435149611	0.877283767	0.454988945	0.574138162	0.170549373	0.607905258
0.438880476	0.438875756	0.877782454	0.62668618	0.596330777	0.17064819
0.095459589	0.866272627	0.866073603	0.617523902	0.158900312	0.162030411
0.841480767	0.124883293	0.10424919	0.135318663	0.622994884	0.597741083
0.092790227	0.080760237	0.869001274	0.667808977	0.656831161	0.16271961
0.866432465	0.865352948	0.088258649	0.159193491	0.161970763	0.61947466
0.081655751	0.869216937	0.09941554	0.657022164	0.162661731	0.669512356
0.486162274	0.40211954	0.877237269	0.607759137	0.564828412	0.170503883
0.124925194	0.103292823	0.841694459	0.623341899	0.598421607	0.135159622
0.401608097	0.877520912	0.480681159	0.548212662	0.170402663	0.589926642
0.465732933	0.424686554	0.877413238	0.608796963	0.572153897	0.170579465
0.874587895	0.049151021	0.872731732	0.168450476	0.659267798	0.165250997
0.877371229	0.469966942	0.412154095	0.17035862	0.591070863	0.552005268
0.871938929	0.87470163	0.047124349	0.164822254	0.168235358	0.657058
0.113767774	0.10031857	0.84180417	0.626257656	0.600769597	0.134975537
0.860948448	0.843969845	0.137135656	0.153912334	0.148340912	0.56631076
0.864516708	0.863401432	0.863968251	0.219546028	0.219263183	0.219504608
0.079601294	0.082675481	0.868910195	0.67926427	0.666286969	0.162499774
0.571638184	0.877220554	0.554095204	0.537442826	0.170460357	0.565239134
0.104167339	0.866820277	0.867014669	0.61537515	0.159283839	0.162931116
0.098801558	0.131529746	0.170461017	0.617342987	0.621228727	0.621777495
0.85493724	0.064358816	0.078005762	0.14893604	0.653231349	0.632255586
0.142550815	0.82610907	0.148869539	0.576296153	0.119158002	0.605710326
0.146926965	0.132542979	0.825821362	0.601321964	0.571987987	0.119857627
0.877333396	0.448140364	0.43579221	0.170585482	0.575669898	0.542788363
0.843880882	0.137130507	0.861624822	0.148846515	0.566229642	0.154332868
0.091741278	0.074263585	0.856434595	0.645330208	0.625910149	0.149691799
0.41134662	0.876890086	0.469632968	0.551426239	0.170443524	0.590427467
0.877430786	0.440356264	0.444283779	0.17064	0.60976133	0.579344423
0.874292032	0.055394077	0.872365955	0.168591669	0.655142753	0.164751901
0.111450044	0.864326973	0.856012128	0.592133397	0.156305759	0.155472506
0.410094342	0.877277005	0.480716749	0.517397332	0.170880346	0.559535997
0.140168924	0.130775849	0.824636354	0.604614078	0.577537625	0.118823475
0.855242755	0.102874736	0.079009744	0.149121935	0.643439236	0.623563487
0.854969161	0.107561067	0.865287949	0.154931134	0.593874091	0.157111493
0.447763237	0.432435239	0.877054913	0.590833062	0.558349393	0.170149764
0.06001671	0.060038344	0.059933224	0.639933488	0.640156643	0.640242757
0.85578113	0.116777078	0.863865262	0.155595548	0.590298205	0.155506468
0.059581873	0.064708491	0.06301687	0.652037869	0.651729762	0.652106911
0.868942053	0.089867092	0.075358336	0.162676581	0.671459621	0.65925405
0.083618244	0.080672313	0.86899689	0.675741709	0.663153975	0.162522073
0.079889824	0.071456202	0.855483372	0.647673517	0.627646505	0.14935473
0.864803383	0.854660687	0.107789932	0.156299565	0.154273646	0.593664756
0.088331766	0.080074599	0.868759423	0.672305639	0.660615498	0.162682174
0.044562183	0.871921876	0.874074765	0.659306454	0.164862112	0.167896685
0.074197144	0.85548549	0.082389164	0.628016733	0.149431419	0.64827381
0.876550786	0.884166704	0.013708373	0.170892165	0.175919947	0.697419816
0.868853186	0.076126054	0.07919208	0.162519882	0.676418262	0.66441261
0.877862368	0.437504965	0.444484473	0.170868224	0.592292436	0.562757402
0.85547215	0.06867113	0.072101379	0.149300705	0.649893307	0.628946473
0.864643954	0.854971472	0.1113655	0.155635871	0.154565246	0.592076285
0.082617247	0.856047619	0.069067968	0.631439035	0.149124022	0.652808854
0.103243039	0.078836016	0.856219544	0.64333544	0.62358572	0.149674324
0.855777014	0.12310686	0.863042401	0.155730726	0.588393999	0.154979048
0.876959217	0.480612369	0.409879809	0.170424488	0.559325787	0.517618977
0.8673711	0.865911247	0.077470413	0.160128753	0.161829929	0.622828136
0.470041279	0.411745473	0.877694667	0.590649639	0.551446787	0.170613073
0.46995865	0.415537995	0.877322105	0.575498517	0.53633995	0.170544643
0.825576332	0.136753689	0.127243213	0.118904135	0.603596738	0.576072376
0.866871022	0.866562568	0.088504123	0.159512392	0.162206076	0.619577746
0.299423112	0.825970061	0.289420387	0.58740333	0.118896005	0.617639338
0.084100381	0.868963275	0.085021751	0.660014236	0.162652721	0.673758796
0.09971055	0.841777692	0.092661938	0.604303628	0.134881631	0.62976662
0.877428154	0.473462227	0.404076851	0.170624334	0.625922716	0.586025517
0.00000549	0.875044904	0.883415923	0.69941096	0.169712567	0.175518354
0.878134814	0.449030983	0.440014251	0.170698186	0.559758884	0.527814501
0.877459227	0.437848549	0.443640818	0.170570308	0.590761919	0.561146138
0.231025206	0.224390916	0.827227892	0.60866093	0.577388694	0.118927031
0.876465354	0.877185483	0.876540357	0.170397117	0.170687883	0.170448447
0.027323218	0.876644858	0.883263719	0.695153897	0.170821493	0.175492867
0.866284616	0.087719166	0.867583859	0.162167146	0.619237352	0.159715629
0.876968678	0.480764154	0.401165596	0.170264802	0.589615144	0.547572751
0.081888293	0.272900592	0.257362396	0.620217657	0.623170364	0.624466568
0.855069148	0.10755621	0.865166557	0.154956028	0.593767127	0.156971708
0.401252717	0.876875736	0.480362931	0.548261388	0.170160615	0.590295704
0.844829283	0.147509836	0.858948001	0.150240504	0.562723865	0.152648085
0.233781185	0.244474911	0.826009448	0.607922327	0.58102463	0.119090769
0.0790034	0.868814352	0.087534805	0.661853374	0.162686622	0.674253512
0.107843742	0.864569366	0.854685715	0.593737203	0.156617687	0.154512654
0.027979321	0.027597325	0.028337995	0.695306762	0.695565393	0.695362283
0.447867999	0.432541495	0.877269799	0.590890164	0.558276493	0.170241829
0.878216388	0.884764227	0.0000055	0.171044603	0.176273834	0.699602699
0.42439668	0.877402209	0.465111777	0.573179882	0.170546478	0.609861907
0.141831899	0.861111575	0.84465224	0.564611432	0.154195867	0.1500676
0.877403018	0.44877823	0.439528731	0.170646533	0.559814051	0.527829393
0.099479909	0.134917122	0.177436654	0.618233783	0.618618792	0.619693567
0.111406929	0.864223377	0.855722667	0.592061446	0.156270738	0.155198508
0.419841351	0.877642369	0.470309657	0.520887712	0.170834993	0.559777711
0.403998388	0.877275037	0.473387932	0.586288619	0.170713046	0.625782069
0.866138479	0.866349647	0.104306451	0.158997595	0.162657394	0.615235857
0.087940744	0.866827543	0.866583845	0.619368522	0.159553557	0.162127949
0.113903215	0.100228555	0.841419147	0.626083819	0.600648614	0.135027723
0.882944991	0.013705263	0.87602988	0.17512489	0.697257524	0.170681905
0.866568034	0.865652251	0.08174414	0.159259598	0.161341779	0.621469934
0.877227394	0.470306569	0.41181089	0.17038592	0.59065935	0.551627508
0.10221404	0.84159462	0.083423956	0.60611282	0.134710963	0.631437621
0.079632656	0.071543896	0.855628041	0.647706004	0.627664016	0.149227638
0.867428697	0.866269276	0.095406376	0.159425266	0.162598721	0.617294798
0.825863516	0.222103428	0.235926303	0.118743024	0.609001813	0.581507811
0.082190617	0.86910736	0.099445693	0.656319046	0.162628775	0.668828619
0.863865059	0.857048441	0.130355416	0.155149872	0.156916302	0.586548886
0.865459088	0.077054426	0.867660532	0.160929923	0.623433348	0.159528153
0.013738383	0.014115543	0.014007051	0.697058753	0.696738634	0.696332725
0.872702087	0.874606377	0.874282446	0.18869028	0.189037773	0.189200241
0.087484909	0.078923668	0.868775605	0.672858593	0.661610147	0.162717579
0.82602187	0.192255984	0.200467181	0.118839759	0.611935724	0.581402549
0.099135761	0.841840541	0.103172337	0.602345144	0.134898389	0.627666894
0.882230734	0.05436074	0.05427453	0.175355037	0.689828556	0.690264869
0.414198797	0.877444102	0.475612565	0.566168628	0.170659578	0.605497531
0.841815483	0.113791703	0.100295296	0.135172933	0.62619808	0.600854418
0.027501027	0.881870585	0.027816536	0.694934882	0.175119235	0.69512738
0.864030806	0.856745247	0.12315176	0.155825375	0.156565487	0.588471863
0.41148714	0.877227393	0.469823008	0.551640781	0.170216613	0.590534356
0.413693345	0.877418738	0.475710045	0.566134516	0.170649567	0.605953095
0.486921685	0.401358095	0.877243504	0.607783125	0.564864353	0.170499348
0.866486736	0.095495732	0.86741545	0.16232968	0.617196201	0.159433218
0.130533097	0.320007215	0.220425234	0.622589388	0.623277996	0.621296314
0.285846875	0.29708161	0.825718227	0.612608874	0.582644046	0.118716082
0.862890212	0.862894558	0.863470729	0.218384076	0.218850004	0.219404097
0.427182455	0.877803673	0.450606558	0.593074709	0.170864951	0.626515574
0.864934621	0.864128324	0.863409561	0.218933145	0.219416281	0.219177906
0.877374199	0.469721443	0.415587868	0.170575079	0.575374165	0.536102655
0.059082783	0.038797408	0.077863045	0.679818793	0.678978187	0.680198759
0.04558344	0.048639208	0.051408759	0.657311156	0.658217906	0.659030649
0.872488309	0.874815219	0.0651805	0.1647882	0.16850803	0.652862791
0.087612986	0.868586272	0.085121085	0.664345564	0.16257826	0.677174028
0.00000279	0.00000291	0.00000281	0.699430689	0.698787567	0.698984902
0.871943614	0.875785474	0.075941369	0.16476937	0.169444655	0.650562483
0.866145535	0.087672016	0.866429264	0.161606508	0.619378375	0.158998327
0.860922865	0.846293161	0.147412046	0.153285366	0.150852769	0.562751099
0.825082332	0.192882922	0.200338151	0.118633525	0.611598229	0.57866704
0.027768525	0.027554692	0.028297669	0.694981183	0.694394436	0.695499769
0.473439779	0.404055073	0.877383568	0.62573723	0.586244779	0.170584405
0.87739313	0.469865513	0.415501916	0.170596057	0.575606015	0.536327586
0.877429921	0.884637375	0.013707924	0.170872302	0.176087193	0.697409263
0.113673362	0.100486791	0.842092732	0.626067485	0.600569767	0.135026893
0.863865059	0.857048441	0.130355416	0.155149872	0.156916302	0.586548886
0.132214165	0.826216756	0.149565158	0.576258103	0.118901286	0.60407404
0.147451044	0.858936901	0.845827417	0.562865902	0.152541078	0.150370356
0.865910751	0.077175335	0.867778163	0.161546782	0.623031639	0.160341931
0.874021273	0.065225755	0.871077118	0.168689894	0.652763831	0.164289694
0.880511646	0.054688435	0.054414932	0.175016642	0.690127735	0.690367857
0.860730994	0.844481102	0.141715163	0.153222753	0.149307355	0.56456829
0.028063136	0.02764045	0.881567266	0.694746483	0.695025368	0.175306211
0.402794233	0.877365754	0.485793017	0.564888698	0.170493922	0.607599216
0.447820147	0.432529211	0.877208742	0.590781185	0.558449063	0.170227571
0.137225861	0.860409637	0.844568687	0.566365457	0.154300229	0.149157661
0.130919998	0.826115518	0.149287389	0.575419766	0.118962444	0.603965422
0.877401817	0.450475032	0.432562811	0.170580174	0.609669734	0.576273623
0.875107778	0.055372737	0.871921446	0.168545533	0.65487155	0.16433262
0.846659413	0.845656843	0.847688117	0.257855739	0.257060805	0.257538157
0.081464133	0.856098235	0.069426637	0.633318892	0.149104289	0.654319559
0.124538496	0.103180959	0.841661422	0.623951198	0.598230094	0.13514212
0.099290568	0.841938777	0.103159777	0.602310838	0.134904117	0.627737693
0.102146896	0.841647443	0.083430874	0.606168432	0.134738474	0.631384279
0.446473114	0.877347698	0.445471648	0.577482252	0.170566901	0.607712712
0.123114034	0.863238285	0.85716423	0.588355785	0.155522855	0.156679319
0.822189614	0.823640334	0.824124553	0.298827274	0.298699919	0.298675903
0.854576859	0.079429411	0.071875317	0.149090994	0.64772101	0.627427945
0.875760702	0.883747736	0.027329279	0.170183197	0.175356255	0.695330576
0.866862122	0.104031908	0.866824153	0.162726846	0.615419665	0.159069331
0.415670209	0.877405663	0.469932574	0.536201328	0.170585084	0.575453266
0.877480829	0.450635313	0.432406848	0.170560343	0.609568653	0.576201683
0.410300711	0.877836628	0.481054711	0.51751102	0.170893082	0.559493432
0.439540057	0.87746332	0.448848359	0.5276627	0.170571251	0.559768752
0.074706674	0.074950324	0.075051738	0.634064595	0.634350765	0.63453281
0.083390491	0.102169335	0.841160434	0.630674802	0.605726219	0.134824102
0.855782172	0.116686363	0.864329354	0.155525356	0.590235966	0.155787318
0.856625906	0.130388352	0.862228783	0.156479185	0.586475592	0.154395213
0.846339718	0.845479424	0.847948119	0.258167035	0.257152004	0.257590504
0.113722416	0.100306102	0.841522912	0.626060547	0.600639314	0.1350267
0.080158294	0.855874426	0.104815547	0.623361829	0.149482504	0.642779699
0.074286172	0.855472294	0.091412708	0.625713533	0.149307765	0.645535321
0.498297977	0.514685985	0.877389899	0.55810184	0.529696844	0.170665227
0.876307099	0.883701963	0.027319063	0.170569073	0.175816728	0.695045413
0.875262192	0.047275156	0.871887965	0.168488285	0.656691058	0.164727041
0.877934767	0.462260906	0.415701196	0.170775275	0.626260763	0.589660139
0.876639045	0.884187728	0.013707288	0.170853055	0.176092079	0.697394851
0.402506498	0.87740555	0.485732292	0.564838214	0.170548096	0.60754821
0.10127232	0.129062613	0.170562951	0.617156734	0.622122935	0.620715322
0.068782484	0.071392181	0.854977436	0.649810718	0.629580618	0.149028794
0.877416896	0.484115139	0.399795319	0.170550353	0.608581231	0.565979659
0.855030292	0.116688682	0.862731847	0.155211976	0.5903308	0.155606732
0.422379797	0.877999082	0.459236687	0.555187545	0.170543986	0.591161605
0.860310631	0.845015769	0.147503198	0.152712487	0.150291744	0.562880522
0.067269287	0.079919327	0.854764321	0.652480436	0.632466688	0.148667076
0.869085084	0.090059503	0.076189971	0.162681679	0.671633788	0.659672046
0.058012346	0.045072434	0.07671999	0.675466016	0.674644418	0.676413065
0.067633089	0.067729242	0.067946885	0.636310229	0.636598874	0.636769018
