Va	Vb	Vc	Ia	Ib	Ic
0.877279154	0.437038279	0.446309659	0.170595162	0.575711532	0.546053818
0.450293294	0.426867906	0.877175813	0.626414993	0.593132807	0.170409885
0.84604975	0.847054885	0.846062849	0.256594655	0.25695899	0.25713004
0.113735113	0.100276052	0.841927141	0.625972995	0.600553163	0.135032867
0.448859881	0.439835968	0.87777543	0.559867007	0.527555385	0.170463892
0.454316155	0.43622954	0.877385402	0.609250138	0.575963031	0.170579772
0.873982153	0.873329431	0.874856524	0.189010149	0.188800185	0.189746554
0.875660894	0.884154257	0.027327313	0.170588936	0.175821624	0.695224184
0.87665472	0.877095024	0.87678618	0.170055232	0.170809812	0.170636627
0.869021954	0.08024055	0.077390903	0.162582214	0.674662511	0.663145864
0.856761353	0.130500083	0.86225011	0.156595901	0.586478694	0.154391274
0.461593489	0.415027947	0.876594052	0.626322932	0.589648078	0.170494537
0.874390065	0.049432983	0.871795028	0.16846096	0.659289392	0.165242754
0.080273113	0.86907743	0.093619192	0.659108247	0.162719657	0.670460183
0.845452428	0.153949701	0.857829786	0.150876376	0.560903564	0.151662704
0.403107921	0.877403518	0.48549849	0.564996826	0.170498848	0.607623209
0.446085417	0.877326934	0.444417872	0.576458921	0.170573182	0.607102192
0.845015368	0.141815349	0.86026359	0.149623755	0.564447242	0.153375234
0.435415798	0.877393143	0.454933055	0.575923823	0.170571477	0.609276209
0.465717848	0.424577975	0.877376751	0.608786594	0.572172542	0.170598362
0.091309981	0.077177464	0.868859922	0.668119755	0.657205807	0.162608073
0.027572607	0.0276874	0.028097661	0.694979202	0.695079223	0.695721566
0.855966866	0.079515055	0.071855615	0.149417227	0.647944134	0.627436971
0.868881281	0.075281544	0.078882925	0.16252749	0.676557105	0.664372866
0.140878922	0.131002853	0.824481045	0.60468068	0.57748143	0.118843151
0.054287747	0.881575316	0.054646055	0.690429731	0.175345202	0.689998493
0.867515768	0.866784697	0.095434558	0.159250423	0.1625608	0.617924181
0.438743392	0.877517667	0.438748097	0.596412763	0.170805808	0.626494377
0.129367347	0.315037511	0.216965149	0.62335578	0.623797548	0.620369096
0.00000477	0.881404543	0.00000488	0.69934777	0.175309642	0.699147051
0.123130872	0.863267676	0.8562753	0.588617723	0.155219763	0.156315883
0.139608437	0.130873354	0.826248208	0.606180854	0.577610757	0.119358821
0.877300651	0.440450596	0.443861225	0.170520993	0.608051771	0.577718755
0.877352427	0.483941821	0.399895517	0.170490548	0.608211633	0.565465567
0.882734892	0.0000055	0.876231459	0.175476169	0.699363467	0.171189306
0.475520768	0.413757329	0.877513512	0.608335293	0.569006044	0.170608923
0.439820537	0.877881945	0.448971716	0.527484412	0.170753822	0.559913005
0.051899803	0.053785983	0.058528949	0.654479382	0.654293528	0.654498452
0.427227444	0.877898983	0.450656573	0.593081664	0.170812373	0.626530918
0.575804769	0.877380917	0.537218047	0.533572164	0.170571078	0.562634886
0.84155708	0.113818941	0.10012119	0.13507114	0.625717296	0.600454036
0.405808563	0.877303209	0.48060649	0.532752451	0.170565561	0.575048642
0.111447745	0.864139541	0.855423899	0.592104981	0.15583826	0.155072409
0.883939841	0.02733067	0.876847393	0.175412744	0.695351466	0.170890889
0.078917335	0.868965024	0.088504421	0.66354936	0.162638904	0.67252928
0.133715238	0.86182004	0.843879158	0.567843808	0.155222404	0.148229272
0.411497949	0.877286999	0.469853987	0.551666153	0.170191998	0.590510862
0.401220612	0.876971604	0.480505315	0.548588619	0.170031018	0.590487453
0.123102759	0.864005197	0.855719015	0.588587911	0.155435222	0.156554961
0.047145456	0.872095593	0.873363256	0.656872388	0.165180307	0.168252319
0.404208742	0.877680804	0.473583462	0.586192229	0.170710215	0.625717327
0.068812526	0.071241361	0.855021989	0.649733841	0.629587124	0.148962405
0.877621182	0.883915155	0.040855868	0.170842832	0.175762262	0.693081671
0.875917061	0.883338918	0.0000055	0.170609361	0.175231427	0.699305077
0.438091795	0.445025832	0.877629626	0.590775007	0.561423009	0.17036669
0.448143871	0.435924636	0.877422227	0.57582509	0.542889528	0.170548911
0.874731968	0.065226742	0.871203411	0.168678213	0.652763205	0.164262879
0.099326299	0.841925685	0.103186437	0.60232526	0.134908535	0.627729163
0.866283803	0.081521542	0.867898517	0.162028018	0.621758496	0.159878478
0.074694783	0.856131126	0.091477684	0.625604375	0.149780811	0.645926937
0.104278329	0.866488817	0.867112619	0.61507505	0.159325468	0.162921472
0.480612016	0.401350813	0.877273111	0.589900931	0.548029158	0.170830502
0.040202414	0.0464485	0.07399796	0.677728982	0.676838818	0.678877626
0.083357011	0.868889361	0.084882532	0.660245494	0.162675625	0.673060963
0.00000549	0.876029706	0.884252703	0.699340402	0.170572327	0.17602252
0.402502785	0.877406073	0.48573404	0.564838448	0.170547959	0.607547844
0.875740259	0.075982715	0.871237338	0.168976513	0.650417568	0.164615989
0.065225105	0.871732283	0.874412569	0.652826159	0.165196251	0.168617587
0.081437683	0.869249192	0.099041776	0.65662657	0.162655359	0.669346495
0.227861368	0.238247679	0.825618973	0.611149318	0.581629822	0.118849932
0.079728274	0.071557646	0.855629705	0.648164687	0.627237613	0.149068659
0.027418052	0.88166355	0.027621406	0.695208445	0.175155737	0.694507135
0.855305987	0.102794939	0.079090728	0.149496038	0.643242468	0.623682376
0.102174125	0.841630696	0.08343448	0.606166338	0.134774827	0.631148316
0.082538483	0.856051157	0.069020898	0.631417023	0.149125238	0.652822968
0.484767108	0.392898948	0.87741515	0.625353365	0.582503654	0.170541926
0.549488759	0.877364757	0.543567267	0.531418773	0.170586519	0.561036849
0.047157065	0.871956439	0.874441252	0.656921839	0.164758369	0.168383156
0.877342703	0.483805531	0.400081392	0.170505051	0.608208171	0.565450982
0.845130112	0.141797519	0.860346764	0.149655369	0.564522885	0.153462153
0.8552298	0.116689863	0.86293687	0.155241821	0.590360751	0.155611748
0.045860305	0.048429273	0.052477798	0.657863651	0.658806129	0.659916602
0.884126874	0.0000055	0.876322871	0.175490779	0.699359646	0.170889448
0.877152665	0.437247391	0.443918219	0.170497071	0.591651564	0.562428783
0.878045474	0.485072958	0.393222699	0.170800549	0.625119032	0.582544043
0.079542072	0.082417895	0.868912548	0.67945645	0.666439408	0.162499795
0.459058792	0.422127207	0.877617356	0.590856207	0.55501712	0.170570642
0.826127701	0.181788092	0.192807073	0.118912765	0.609214006	0.578437555
0.84688194	0.153946325	0.858968963	0.15145142	0.560895592	0.152069323
0.854983785	0.111458825	0.864234652	0.154904502	0.592181759	0.156085701
0.07953761	0.869066324	0.093918774	0.659128234	0.162716522	0.670437829
0.480816288	0.401470869	0.87760885	0.590081481	0.548322256	0.17021174
0.405752785	0.87729612	0.480649003	0.53276927	0.170548087	0.575098827
0.864619711	0.855525635	0.111452219	0.156242567	0.155441754	0.592182725
0.07910711	0.868847877	0.08849551	0.664310334	0.162672256	0.674219291
0.864564195	0.854613204	0.10765996	0.156426198	0.154099928	0.593665921
0.099674625	0.841769279	0.092661	0.604308343	0.134887688	0.629755117
0.868227839	0.865909795	0.07713511	0.16019224	0.161664494	0.623138156
0.013759531	0.014004533	0.013930184	0.697193066	0.697172389	0.697477481
0.137253299	0.861767137	0.844990118	0.566253626	0.154341968	0.149112999
0.874893918	0.076022753	0.871195092	0.168634058	0.650563581	0.164570866
0.864346264	0.855864551	0.116635998	0.155522575	0.155536422	0.590347229
0.866579846	0.103948836	0.867238672	0.162668492	0.615513437	0.159196368
0.459282174	0.429317779	0.876955578	0.559880125	0.524368022	0.170640745
0.863600151	0.85647011	0.123136733	0.155722713	0.156482149	0.588452183
0.48108375	0.410298264	0.877863283	0.559330087	0.517554789	0.170547454
0.082186609	0.869101616	0.099588803	0.656327822	0.162632254	0.66884494
0.210864427	0.82601775	0.209783588	0.5773308	0.119329039	0.606525511
0.05856831	0.038038125	0.076709724	0.67946055	0.678841667	0.680165695
0.438771301	0.877573609	0.43877601	0.596448076	0.170697006	0.626561135
0.877614311	0.448790016	0.439740258	0.170716564	0.559966347	0.52762906
0.866133947	0.081519673	0.867274472	0.161543608	0.621537877	0.159428363
0.055355918	0.872295004	0.874446295	0.654925844	0.16514884	0.168543031
0.876976358	0.884272137	0.0000055	0.171083952	0.176531721	0.699627621
0.103058533	0.078917459	0.856488031	0.643539965	0.623841754	0.149719779
0.079658947	0.071519719	0.855495023	0.647592971	0.627649576	0.149044086
0.432733252	0.877645933	0.448105066	0.558203712	0.170800822	0.591206771
0.877337589	0.44812175	0.435827185	0.170603461	0.575718959	0.542852718
0.874453798	0.047216955	0.872223093	0.168567484	0.656876237	0.164906117
0.841508061	0.113764804	0.100388612	0.135150715	0.625738828	0.600768893
0.146572712	0.133534207	0.09727952	0.618886802	0.617908827	0.615309269
0.073597523	0.855040194	0.082237138	0.627479013	0.149357773	0.647497255
0.877578659	0.480932274	0.410171696	0.170902298	0.559588437	0.517362163
0.091944753	0.074340354	0.85704257	0.645451818	0.625700981	0.149829656
0.054596689	0.054205373	0.881982991	0.689928547	0.690599977	0.175454253
0.410211629	0.877684991	0.480987578	0.517525093	0.170655027	0.559411125
0.415641134	0.877411001	0.469940517	0.53620221	0.170574429	0.575466821
0.299066621	0.826001506	0.297062542	0.591561638	0.118838019	0.617629343
0.088084457	0.078203642	0.868891574	0.672589643	0.661565452	0.162595575
0.857335554	0.130436557	0.862689758	0.156642096	0.586582066	0.154396936
0.86382638	0.856461972	0.123146043	0.155733281	0.156486555	0.58841816
0.446389708	0.877430298	0.437106979	0.546097348	0.170607924	0.575747501
0.059623743	0.064891104	0.063062017	0.652036514	0.651764116	0.652040325
0.421894554	0.87686497	0.458585928	0.554828454	0.170515452	0.590681999
0.874497118	0.047249853	0.870607868	0.168570053	0.656760627	0.164267921
0.873971568	0.055398758	0.871735872	0.168626047	0.654750969	0.164495745
0.45955879	0.429653236	0.877572891	0.559817587	0.524391046	0.170626974
0.067708826	0.067600788	0.067849342	0.636437351	0.63657263	0.636764789
0.824883541	0.82299927	0.822825205	0.298660815	0.298633467	0.29843122
0.877436122	0.450694079	0.432342671	0.170567095	0.609655224	0.576270257
0.40577456	0.877279954	0.480621398	0.532765541	0.170552586	0.575090024
0.88185234	0.00000481	0.00000488	0.175515272	0.699239024	0.699146771
0.841657557	0.083354114	0.102242066	0.134864419	0.63127968	0.605928701
0.866803975	0.86589261	0.088293042	0.159397765	0.162020296	0.61909821
0.846874537	0.153959616	0.859224066	0.151446239	0.560878131	0.152081397
0.8824426	0.027475841	0.027221339	0.175406432	0.694976464	0.695009328
0.054655453	0.055011826	0.054818193	0.690275908	0.690189877	0.690380959
0.060005278	0.060017604	0.059959283	0.63960883	0.640230352	0.639793535
0.459092739	0.422156617	0.877686562	0.590978125	0.554795138	0.170278307
0.066186544	0.078643811	0.854235295	0.653691917	0.634189116	0.148943543
0.402721352	0.877396976	0.48553943	0.564830621	0.170556663	0.60752716
0.875888023	0.877170521	0.875836433	0.17026694	0.17072602	0.1705585
0.393058754	0.877709522	0.484903807	0.582653453	0.170873209	0.625243789
0.072993422	0.854059642	0.07094473	0.629524926	0.148978412	0.649039066
0.14184265	0.860661819	0.844586594	0.56455379	0.15381638	0.149833597
0.074987543	0.074918387	0.075269349	0.634073603	0.63452245	0.634424485
0.067561045	0.067727576	0.067841036	0.636297777	0.636575136	0.636771406
0.448170381	0.435875188	0.877398641	0.575788442	0.542816856	0.17055953
0.825873124	0.187067506	0.188417729	0.118803688	0.610093736	0.580353487
0.8259078	0.146835535	0.131450408	0.11922876	0.602345164	0.575054508
0.07324948	0.855651706	0.071605083	0.62940831	0.149685792	0.649398178
0.434940445	0.877527436	0.454865946	0.574536723	0.170565397	0.607935303
0.103077429	0.09911094	0.841579156	0.627707774	0.602462617	0.13500693
0.860662753	0.844840179	0.147510693	0.152762595	0.15034297	0.562879122
0.841678035	0.125002284	0.103883692	0.135292473	0.623242819	0.59781995
0.041276887	0.041209523	0.042223309	0.692901337	0.692811302	0.693681841
0.107773752	0.864535622	0.855190612	0.593779449	0.157011326	0.154897868
0.08204335	0.304650677	0.28885689	0.619733136	0.617579183	0.617409678
0.045138486	0.872440113	0.874437227	0.65903847	0.165277179	0.168173752
0.060036113	0.060041251	0.059912124	0.639850254	0.640159742	0.640165875
0.825594743	0.26917626	0.276701526	0.118529637	0.611923149	0.586702068
0.083441179	0.102221064	0.841803321	0.631207162	0.605833907	0.134718982
0.079563756	0.071555729	0.854842655	0.64794997	0.627650521	0.148918149
0.059445569	0.064496717	0.063486705	0.65206274	0.651347629	0.651317337
0.860040783	0.844832442	0.137281582	0.154081645	0.148819291	0.566209918
0.077063956	0.8676885	0.864985455	0.623034676	0.1600502	0.160934475
0.882222328	0.054358895	0.054274671	0.175355005	0.68982156	0.690265488
0.480626235	0.405712979	0.877293502	0.574990864	0.532510069	0.170525054
0.856323154	0.091327577	0.074135986	0.149295592	0.646301196	0.625303517
0.081968657	0.25969028	0.243816875	0.620446311	0.627478272	0.624938147
0.054551965	0.055352796	0.05491944	0.690246827	0.690096272	0.690364848
0.065213951	0.870851061	0.873484731	0.652736359	0.16447119	0.168641808
0.856434516	0.116701759	0.864445191	0.155906582	0.59023592	0.156219957
0.861268741	0.845406762	0.141730921	0.153849119	0.149872592	0.564564854
0.876292293	0.884448613	0.05427733	0.171141398	0.175631628	0.690563385
0.081900616	0.079215357	0.868660552	0.675158652	0.663487474	0.162596037
0.877854517	0.438916484	0.438911725	0.170839866	0.626703047	0.596420982
0.130404755	0.863173193	0.857472	0.586307541	0.155097084	0.157382099
0.092783177	0.080731495	0.868954609	0.667809654	0.656875721	0.162709263
0.04085232	0.875872385	0.882830336	0.693001237	0.170604896	0.175505819
0.087813999	0.867034045	0.865744902	0.619877928	0.1596626	0.161983868
0.076987688	0.867917612	0.865707892	0.623105709	0.160345081	0.161807268
0.864804284	0.077046929	0.867274738	0.161037069	0.622821114	0.159836062
0.141783283	0.86176199	0.846184981	0.564537059	0.154162951	0.150237157
0.874466454	0.047306669	0.871674189	0.168455976	0.656770382	0.164650169
0.401606496	0.877591916	0.480730171	0.548225778	0.170460211	0.589948718
0.462010535	0.415444446	0.877427981	0.626341968	0.589650704	0.170592264
0.862294	0.863372688	0.863288367	0.219153903	0.219122692	0.219500861
0.459729607	0.429750311	0.877844869	0.559882396	0.524399761	0.170741239
0.123108737	0.863382555	0.856332945	0.588405177	0.155086592	0.156297675
0.872918695	0.874615233	0.874293655	0.188635411	0.189013332	0.189038364
0.08304001	0.868922602	0.084780034	0.660939694	0.162527796	0.672981275
0.040497986	0.046473237	0.074377801	0.677749502	0.677105359	0.679525829
0.083390443	0.868872033	0.084760281	0.660681011	0.162633683	0.672906064
0.87759308	0.480896069	0.401704931	0.170621005	0.590361962	0.548030408
0.214005364	0.825998578	0.212554223	0.578495089	0.119282591	0.606246133
0.405914018	0.877343903	0.480604312	0.532755064	0.170554036	0.575083733
0.432743877	0.877755031	0.448216371	0.558265494	0.170831898	0.59133399
0.131360579	0.825733245	0.149449522	0.57561914	0.11905029	0.604037276
0.864375597	0.854762207	0.107684066	0.156281257	0.154246852	0.593777242
0.866628945	0.865779283	0.08818346	0.159415044	0.162029029	0.619500927
0.824052601	0.823458994	0.823574122	0.298986473	0.29857333	0.298540063
0.844490684	0.141808459	0.859926474	0.149675536	0.564591898	0.153658403
0.070721447	0.065141011	0.085724151	0.670225221	0.670629217	0.6718825
0.447835448	0.432516662	0.877215568	0.590794468	0.558461523	0.170194835
0.480788344	0.405859084	0.877431517	0.57474688	0.532323618	0.170564352
0.557200631	0.876913408	0.569549954	0.536404183	0.170459429	0.563400147
0.874398881	0.06524223	0.871494088	0.168459822	0.6527221	0.164750172
0.846889605	0.846125312	0.84780717	0.257367399	0.256780993	0.257659914
0.051799565	0.053677811	0.058121861	0.654388238	0.654175101	0.654397972
0.057844019	0.045115502	0.076602576	0.67541543	0.674608899	0.676367556
0.86209762	0.842808087	0.13372056	0.155181186	0.147814555	0.567763989
0.84632752	0.153958498	0.859209303	0.150826364	0.560889458	0.15167099
0.448130156	0.435903099	0.877394627	0.575776739	0.542844106	0.170566575
0.051900627	0.053613745	0.058390341	0.653960745	0.654112016	0.653950637
0.080599167	0.083957392	0.868931861	0.679619749	0.666562128	0.162515729
0.868679498	0.081994576	0.078777977	0.162610486	0.674389923	0.662462543
0.877415768	0.483570496	0.400426325	0.170588425	0.608639024	0.566075796
0.439691937	0.877592949	0.448820137	0.527658396	0.170591857	0.559777262
0.470062532	0.411743615	0.877698483	0.590690576	0.551452879	0.170723902
0.10047548	0.841793421	0.114000806	0.600939774	0.135020027	0.625959088
0.128340857	0.108862497	0.146671346	0.616339845	0.614728214	0.615794943
0.86648223	0.865839869	0.088306972	0.159312455	0.161827284	0.619568646
0.877655475	0.459675738	0.429615052	0.170630363	0.559633179	0.524557785
0.841466419	0.102993344	0.099044514	0.134988872	0.627595648	0.602540726
0.130474964	0.86362543	0.857300827	0.586599562	0.155248737	0.157357756
0.067728536	0.067606697	0.067873441	0.636446233	0.636483959	0.636751961
0.073241427	0.855297432	0.071629175	0.629352428	0.149462187	0.649553405
0.459736904	0.429682438	0.877784379	0.559789772	0.524450848	0.170587057
0.068822162	0.071413619	0.855136326	0.649834446	0.629803647	0.148881019
0.855396445	0.107551068	0.865359443	0.154960014	0.593730074	0.156988108
0.882371495	0.027508428	0.027258033	0.175402038	0.695038504	0.694951564
0.415500368	0.8775375	0.46206423	0.58978919	0.170685663	0.626112392
0.06254054	0.062480805	0.062470856	0.63839537	0.638414279	0.638524407
0.877351583	0.470281333	0.411837707	0.170295817	0.591499282	0.552692325
0.84598422	0.847126065	0.846218495	0.256526143	0.256866452	0.257119724
0.058837197	0.038493107	0.077294193	0.679860111	0.679058114	0.680224127
0.039799102	0.046559996	0.073630867	0.677350577	0.676641893	0.677756243
0.877772416	0.484932576	0.393092512	0.170713406	0.625194917	0.582601147
0.459010399	0.421992731	0.877444127	0.590785143	0.555092316	0.170457289
0.877479898	0.48058843	0.405732137	0.170578269	0.575242755	0.532873419
0.877358773	0.473580883	0.410179679	0.170543595	0.609097523	0.569258324
0.486494064	0.401704984	0.877412984	0.607565739	0.564575318	0.170496215
0.854995416	0.064418289	0.077692216	0.148977917	0.653090629	0.632245922
0.432746441	0.877752967	0.448198659	0.558273076	0.17084088	0.591357361
0.415479736	0.877494754	0.462042362	0.589840247	0.170506971	0.626044186
0.421769543	0.877095825	0.458985787	0.55501642	0.170189375	0.590273985
0.480851273	0.410130073	0.877451988	0.559197317	0.517617812	0.170514895
0.825915141	0.222279517	0.231941265	0.118747996	0.608486912	0.581486699
0.866911657	0.865355962	0.081818533	0.159232791	0.161466587	0.621401187
0.878064589	0.485084884	0.393230674	0.170789635	0.625203013	0.582620703
0.068844714	0.071291609	0.855560916	0.650102225	0.62938871	0.149047111
0.074626562	0.855631466	0.091449189	0.625984787	0.149373704	0.645545628
0.876974531	0.883705954	0.04085864	0.170841188	0.175804198	0.693123147
0.82628985	0.191230333	0.187718217	0.118957393	0.611847848	0.581666176
0.866884651	0.095322624	0.867223092	0.16254364	0.617768522	0.159360533
0.081631015	0.301624378	0.2876128	0.619715406	0.618121847	0.617704328
0.844223994	0.147494655	0.858885975	0.150199479	0.562647106	0.152517167
0.826058316	0.227806739	0.223795365	0.118744306	0.60991211	0.581922181
0.856561535	0.091320926	0.074154381	0.149459677	0.645645479	0.625955335
0.877831947	0.470400591	0.419938157	0.170808123	0.559675093	0.520998073
0.86687034	0.09532763	0.86713638	0.16253528	0.617713462	0.159389594
0.823712524	0.823746958	0.825460035	0.298599177	0.298817764	0.299457651
0.841784862	0.113704215	0.10045773	0.135033155	0.625924762	0.600478219
0.084189361	0.868971676	0.085382627	0.66019103	0.162618568	0.674441758
0.876673757	0.877843585	0.877914864	0.170364339	0.17073211	0.17045788
0.283983657	0.291734063	0.825811728	0.616919299	0.586993039	0.118707343
0.429458316	0.877231714	0.459421806	0.524434353	0.170574093	0.559748763
0.415693674	0.877924107	0.462257329	0.589771707	0.170692971	0.626111498
0.45035209	0.42692345	0.877290058	0.626406382	0.593236967	0.170397182
0.859922352	0.8465371	0.153940357	0.152342954	0.151466336	0.560855464
0.825664024	0.135582208	0.126356945	0.11914678	0.603896244	0.576873808
0.860637399	0.844315892	0.13723368	0.153762225	0.148546189	0.566190014
0.875817508	0.882763371	0.027320956	0.17059995	0.17581131	0.695105761
0.059425176	0.064086175	0.063396235	0.652073628	0.651565436	0.651139872
0.056965773	0.044855509	0.075393636	0.67561595	0.674636613	0.676269996
0.863112971	0.863590866	0.863012753	0.218671178	0.219172474	0.219070901
0.070992685	0.051388123	0.083179262	0.673468855	0.672526336	0.674684037
0.00000278	0.0000029	0.00000285	0.699246483	0.699318222	0.69952526
0.045740186	0.048137457	0.054158069	0.655615077	0.657140322	0.656627388
0.140302451	0.133445913	0.825368035	0.605498222	0.577637005	0.11869545
0.874243663	0.051455142	0.871675366	0.168332193	0.659042944	0.165064734
0.875459306	0.883749146	0.054271037	0.170723317	0.175467682	0.690436621
0.083433167	0.102227059	0.841785906	0.631202793	0.605808327	0.13472024
0.072688958	0.855355717	0.081897345	0.627695634	0.149076945	0.647551901
0.446346656	0.877321003	0.437042632	0.546068484	0.170578027	0.575705928
0.842918919	0.137210908	0.85997043	0.148558616	0.566252893	0.154235483
0.140650066	0.825538752	0.148052499	0.574240838	0.118501034	0.601529531
0.079643151	0.071541769	0.855649827	0.647691462	0.627662854	0.149165139
0.470356132	0.41982604	0.87766746	0.559626898	0.521025281	0.170809831
0.869126667	0.080477529	0.077697447	0.162561151	0.674238779	0.663038268
0.027846534	0.027669952	0.028265429	0.69543837	0.695120479	0.695021543
0.067688398	0.077886226	0.85694916	0.652906664	0.6323905	0.149374998
0.843877934	0.137130162	0.861624714	0.148845772	0.566231056	0.154332177
0.086396756	0.869236322	0.08316177	0.665386765	0.162460251	0.67741854
0.871575964	0.874189727	0.047998632	0.165123758	0.168177429	0.658693384
0.877373247	0.437078327	0.446362163	0.170595336	0.575727195	0.546087892
0.133804949	0.861752393	0.843360167	0.567724074	0.1547233	0.147830555
0.059982586	0.060038777	0.059965809	0.639959889	0.640157011	0.639785618
0.859363302	0.84624147	0.153998765	0.152248681	0.151295544	0.560811256
0.571835001	0.877215374	0.55343828	0.537575128	0.170433589	0.564513449
0.060064646	0.060034173	0.05993834	0.639800708	0.64018592	0.640016725
0.877607739	0.438793315	0.438788578	0.170858031	0.6265894	0.596438729
0.848107592	0.846950132	0.84696909	0.257054997	0.257371096	0.256758764
0.868839987	0.090202801	0.077269054	0.162680117	0.671387426	0.659296363
0.062508645	0.06248473	0.062459683	0.638360093	0.638350112	0.638509846
0.079266023	0.868810592	0.088192753	0.661940903	0.162686307	0.674297404
0.42217408	0.877569095	0.45902363	0.555355251	0.1704815	0.591136712
0.044549738	0.871474395	0.874095814	0.659340361	0.164843521	0.167957307
0.073200557	0.854433484	0.071200579	0.629649727	0.148942525	0.649796542
0.083429122	0.102227206	0.841801397	0.631216827	0.605824193	0.134724861
0.477343758	0.412218386	0.877435052	0.60915247	0.568739708	0.170561907
0.099291009	0.841918142	0.103139765	0.602311442	0.134908659	0.627725793
0.426707036	0.87685778	0.450135959	0.593120764	0.170453438	0.626529961
0.869189797	0.09852997	0.079750582	0.162713574	0.669949791	0.657309313
0.129394886	0.108471615	0.151214973	0.615450056	0.613187169	0.614665243
0.883903263	0.0000055	0.876388157	0.175488418	0.699335865	0.171214216
0.480575287	0.406173977	0.877511354	0.574765276	0.532265661	0.170547459
0.435015407	0.877502901	0.454674076	0.574944504	0.17056583	0.608275985
0.082035816	0.27288039	0.256701835	0.620217225	0.623268131	0.624573058
0.876132682	0.883808147	0.02732344	0.170422424	0.175723288	0.695127362
0.856087466	0.079514024	0.071910556	0.149448429	0.64788085	0.627449995
0.470234066	0.419748767	0.877470156	0.559628779	0.521018489	0.170503221
0.411792986	0.877834883	0.470121661	0.551681219	0.170526894	0.590576534
0.877348758	0.440466943	0.44417479	0.170618501	0.609870633	0.579581179
0.825839725	0.214888211	0.224964496	0.118732572	0.610925589	0.583053212
0.86604975	0.087698418	0.866627526	0.161580257	0.619340778	0.158967068
0.856302041	0.068833401	0.071999391	0.149259853	0.649681703	0.629412729
0.86791295	0.865205452	0.077441478	0.160010649	0.161544061	0.623460967
0.874955833	0.873360106	0.87476061	0.188804806	0.188457378	0.188567872
0.841577462	0.125174723	0.103627478	0.13530748	0.623076098	0.597738683
0.864295757	0.85372698	0.107681164	0.156455363	0.154061439	0.593753109
0.871882864	0.874080199	0.04739196	0.165190208	0.168223481	0.658621788
0.845747449	0.141793314	0.859966906	0.14988622	0.564507033	0.153651384
0.141629153	0.129583754	0.825076041	0.605399457	0.577664182	0.118678364
0.415415214	0.877367887	0.46197976	0.589793491	0.170510434	0.626070404
0.872586868	0.87446349	0.065200489	0.165106256	0.168869464	0.652884817
0.296968929	0.294948843	0.825752467	0.614752899	0.585852402	0.118707059
0.08426954	0.868602469	0.085785679	0.662262731	0.162580853	0.676873462
0.087604748	0.867038164	0.865691596	0.619907236	0.159596965	0.162024213
0.014429447	0.880993567	0.014737264	0.697342327	0.175222673	0.697317642
0.130416341	0.86355359	0.857470747	0.586287251	0.155116844	0.157421926
0.130401322	0.863020034	0.857530948	0.586352287	0.155137166	0.157458091
0.863479435	0.863574289	0.86349133	0.21903897	0.219435298	0.219001427
0.445003461	0.877493882	0.438500545	0.562933954	0.170661588	0.592588421
0.877773239	0.484932949	0.393092972	0.170714231	0.625194982	0.582601198
0.278269803	0.825828888	0.270836366	0.581840479	0.118814681	0.612571939
0.883850191	0.054272551	0.876520354	0.17502093	0.690486373	0.170811794
0.415906148	0.878349656	0.46247022	0.589742459	0.170707981	0.62612065
0.876946535	0.884194983	0.013706833	0.171033612	0.175754382	0.69736744
0.854935679	0.079681869	0.071740151	0.148905963	0.647841903	0.627945548
0.87722506	0.459144194	0.422057638	0.170296527	0.590456023	0.554575895
0.826795734	0.187129715	0.189917717	0.118900567	0.611715579	0.581487359
0.448110176	0.435967774	0.877427906	0.575766716	0.542781908	0.170562283
0.044549738	0.871474395	0.874095814	0.659340361	0.164843521	0.167957307
0.867112213	0.86630108	0.088228638	0.15958906	0.162464796	0.619678939
0.066313209	0.078316377	0.855683973	0.653457679	0.633369823	0.149458323
0.458905789	0.421882895	0.87723059	0.590675085	0.555022846	0.170301554
0.141748861	0.86068406	0.844931571	0.564522686	0.153460939	0.149651302
0.87488736	0.04719171	0.871948623	0.168506437	0.656916591	0.164873422
0.455044807	0.435903157	0.877395345	0.61097231	0.577445514	0.170590118
0.074672204	0.075000578	0.075086159	0.634154022	0.634374852	0.634567152
0.140397371	0.130520005	0.825709443	0.604109343	0.576122719	0.11915016
0.871586887	0.875383999	0.047441821	0.164897565	0.168794734	0.657117473
0.866490297	0.865702018	0.081737926	0.159481977	0.16166865	0.621435798
0.877686376	0.480928764	0.401814231	0.17080502	0.590286731	0.547959156
0.069159993	0.051570073	0.081414833	0.673393537	0.672524506	0.67407162
0.877477922	0.480602812	0.405690883	0.170527366	0.575021074	0.53266198
0.884132178	0.040845039	0.875651345	0.175464522	0.692853004	0.170289531
0.079347223	0.869012875	0.088740339	0.664130716	0.162637084	0.673378241
0.881619936	0.041101712	0.040903312	0.175507169	0.692755782	0.692933775
0.87625879	0.882037469	0.04085854	0.170365392	0.175029443	0.693104003
0.091519134	0.074212801	0.854842757	0.645387486	0.625713106	0.14920988
0.883781551	0.0000055	0.875586196	0.175497146	0.69930404	0.170522631
0.402610328	0.877393372	0.485840239	0.564798652	0.170555788	0.607494351
0.459045452	0.425680696	0.877362455	0.57585652	0.539658575	0.170585079
0.476005282	0.413067708	0.877285868	0.61021453	0.570728942	0.170547244
0.458993785	0.421945313	0.877378168	0.590773046	0.555088167	0.170390761
0.128169896	0.108595563	0.146836069	0.616357152	0.61471125	0.615648835
0.10304803	0.841933203	0.12496115	0.598551991	0.135180242	0.623662347
0.824709971	0.82305298	0.824655117	0.298591065	0.298581651	0.298251732
0.884113494	0.027325114	0.875029632	0.175566136	0.695216809	0.170293123
0.873289702	0.055387508	0.87142217	0.168625469	0.654793181	0.164541318
0.876744053	0.877192674	0.876834154	0.170429058	0.170668795	0.170403536
0.43901157	0.87805404	0.439016295	0.596287004	0.171218089	0.626731328
0.221757875	0.826282285	0.212854635	0.580055897	0.11917411	0.60916437
0.068852131	0.071255646	0.855200762	0.649906387	0.629481289	0.148770069
0.881463484	0.00000482	0.00000486	0.175350455	0.699381218	0.699719699
0.059524176	0.064621527	0.062978251	0.652166184	0.651897983	0.651934278
0.866412398	0.095444782	0.867213653	0.162545656	0.617345026	0.159490753
0.091645437	0.074311835	0.854937852	0.645366689	0.625634846	0.148836416
0.875779784	0.882690306	0.040862109	0.170355826	0.174885632	0.693167939
0.054281223	0.876178467	0.883858029	0.690595873	0.170965062	0.17563919
0.845106631	0.147473944	0.859270602	0.150142213	0.562609641	0.152416756
0.877388707	0.46271314	0.420669957	0.17066385	0.609512125	0.572976346
0.856377364	0.111449964	0.865529622	0.155705063	0.592162512	0.156750518
0.877507665	0.480586107	0.40572158	0.170578581	0.575395786	0.532922038
0.072787052	0.855862956	0.0710759	0.629772596	0.149128425	0.649772337
0.877382626	0.469758455	0.415626284	0.170561864	0.575418484	0.536145223
0.274612515	0.283486388	0.825519195	0.614028212	0.586783756	0.118672307
0.429720242	0.877786051	0.459712141	0.524447327	0.170872916	0.55974509
0.33133459	0.826148074	0.329713595	0.584753707	0.118916531	0.611880197
0.00000482	0.00000493	0.881693076	0.699284241	0.699167827	0.175235528
0.287804481	0.285726482	0.825872128	0.612399175	0.583811936	0.118710365
0.841658666	0.113792693	0.100341384	0.135067118	0.626075176	0.600606706
0.855370121	0.07945905	0.07187745	0.14910055	0.647824166	0.627373767
0.855802567	0.091242246	0.074250154	0.149429991	0.645140734	0.625835194
0.861050923	0.844171759	0.141721071	0.153115307	0.149208943	0.564539068
0.863837965	0.857195935	0.130313452	0.155221232	0.157096459	0.586595218
0.292183142	0.82583525	0.287042882	0.584854884	0.11903125	0.61200018
0.876968961	0.480764242	0.401165813	0.170264898	0.589615177	0.547572915
0.473462308	0.404084305	0.877435135	0.625801207	0.586052983	0.170434923
0.111478263	0.864127177	0.85526832	0.591995633	0.155859776	0.15510993
0.014199616	0.014468864	0.88176046	0.697617982	0.697572965	0.1752741
0.469865554	0.415738643	0.877393636	0.575423633	0.536261408	0.170586684
0.865004468	0.854703988	0.107733712	0.156609463	0.154607538	0.593804436
0.422058278	0.877451532	0.45899963	0.555297134	0.170314678	0.591107283
0.465967339	0.424457464	0.877286068	0.608252915	0.571648583	0.170555089
0.877528079	0.480490381	0.405866353	0.17057503	0.575396487	0.532918008
0.078753807	0.869049947	0.089021508	0.66432116	0.162632172	0.674209151
0.825445635	0.20450931	0.197872106	0.118802354	0.610154476	0.578049396
0.876261927	0.884143245	0.054279667	0.171391076	0.175900599	0.690593688
0.862892074	0.84586719	0.137244305	0.154522789	0.148928092	0.566207308
0.130236006	0.110857218	0.153981986	0.6157808	0.614082534	0.614971909
0.480451107	0.405839893	0.877306655	0.574714321	0.532289523	0.170560195
0.027324693	0.876426552	0.883334251	0.695169394	0.171219422	0.175663098
0.131400177	0.826133379	0.149903201	0.576271032	0.118922008	0.604163989
0.083404217	0.102187493	0.841692321	0.631114536	0.605746675	0.13472808
0.130397733	0.863298548	0.857589909	0.586266581	0.155047415	0.157397791
0.872593436	0.874946622	0.055339575	0.165626282	0.168718344	0.654794489
0.153945488	0.859903819	0.846891847	0.560828032	0.152717354	0.151819103
0.081078935	0.855505942	0.066697933	0.630759335	0.14885549	0.6521955
0.066596522	0.078351771	0.854961044	0.654004603	0.634135843	0.148642095
0.054294696	0.881371518	0.054644781	0.690246161	0.175401069	0.689967363
0.442860183	0.448524086	0.877358124	0.606548681	0.57663622	0.170597967
0.877474313	0.484796495	0.392927635	0.170695425	0.625195012	0.582623746
0.11375959	0.100295883	0.841854435	0.62624699	0.600885925	0.135036214
0.863764698	0.856619821	0.123136164	0.155783318	0.156585914	0.588478533
0.103145768	0.099128606	0.84163504	0.627693383	0.602570334	0.134983498
0.401690155	0.878069014	0.481108158	0.54830112	0.170693223	0.589984981
0.104439444	0.866739099	0.866879519	0.615078936	0.159211803	0.162906908
0.841739957	0.103031965	0.099038963	0.134992923	0.62768171	0.602619843
0.219558812	0.826418594	0.213029706	0.580074091	0.119112972	0.608582877
0.054260259	0.881605125	0.054649316	0.690506169	0.1753428	0.68997784
0.065214602	0.870913586	0.873627466	0.652860948	0.164651894	0.168248816
0.027480554	0.881863389	0.027750962	0.695015881	0.175028074	0.69506102
0.102206009	0.841611783	0.083417031	0.606127131	0.134723241	0.63143797
0.153945321	0.859906982	0.846890773	0.560828078	0.15271736	0.151819241
0.863190134	0.857673341	0.130339912	0.154696438	0.156825952	0.586460809
0.855055531	0.111425857	0.864605092	0.155015426	0.591953089	0.156006838
0.866862005	0.103980947	0.866668943	0.162594035	0.615226213	0.159057624
0.871849493	0.87535271	0.075949101	0.164607336	0.169228482	0.650423618
0.346139892	0.825343295	0.338531139	0.582436246	0.118455561	0.61314987
0.877584624	0.480855308	0.410263007	0.170416649	0.559314653	0.517597424
0.881399096	0.041158549	0.041022651	0.175316031	0.692542344	0.693037807
0.080176448	0.85570893	0.104314722	0.623542371	0.14958531	0.643650224
0.846945702	0.15392397	0.85874728	0.151521969	0.56095588	0.152108484
0.826061064	0.264058425	0.267263771	0.118848904	0.612826816	0.584612728
0.823217271	0.824035541	0.826089668	0.298361167	0.298729222	0.298664153
0.141861727	0.861066676	0.844217751	0.564511369	0.154145973	0.150041735
0.868073074	0.866446167	0.077441697	0.160207151	0.161811709	0.623096377
0.867962056	0.865860936	0.077575805	0.160486551	0.16166866	0.623309014
0.132310567	0.82626171	0.149441305	0.576273524	0.118910476	0.604203938
0.104069981	0.125807252	0.172977545	0.617150849	0.618834194	0.61752767
0.866718543	0.104063626	0.86657915	0.162609821	0.615109312	0.159154353
0.867280266	0.866678913	0.09537308	0.159283231	0.162600656	0.617910473
0.877669555	0.473581136	0.40419991	0.170571899	0.625888135	0.586064337
0.866444924	0.865858986	0.088206997	0.159337277	0.16183871	0.619585689
0.446376095	0.877347124	0.445562161	0.577542094	0.170567595	0.607775728
0.855325379	0.064361807	0.078055427	0.148804236	0.653401442	0.632589391
0.866801641	0.087784971	0.867439473	0.162220672	0.619959151	0.159435171
0.877717402	0.462154501	0.415589905	0.170780828	0.62625042	0.58965564
0.072981699	0.855474353	0.082029428	0.627731179	0.149417852	0.647570422
0.480768913	0.401475251	0.877559043	0.590035094	0.548257683	0.170413063
0.070662722	0.051232398	0.082384603	0.67348211	0.672548069	0.674886591
0.273496054	0.825831901	0.269479964	0.585591555	0.118647968	0.613616514
0.054278487	0.876095773	0.883936886	0.690570762	0.170955037	0.175674314
0.459667359	0.429722332	0.877755769	0.559914938	0.524376334	0.17061595
0.446437023	0.877338686	0.44368553	0.576696265	0.170576252	0.607510897
0.875117892	0.883685773	0.0000055	0.170760323	0.175523243	0.699297167
0.0694003	0.065313887	0.084910274	0.670506937	0.670578862	0.672773556
0.081585452	0.867717359	0.865639678	0.621370696	0.159870932	0.16152502
0.054751521	0.055206883	0.054653371	0.69043158	0.69039396	0.690623714
0.00000488	0.881415599	0.00000487	0.699381412	0.175054802	0.699111454
0.069865841	0.06506132	0.084674487	0.67045915	0.670662989	0.672856125
0.446163052	0.877335123	0.444491432	0.576429773	0.17056825	0.60697086
0.875985043	0.884283265	0.013707026	0.170847207	0.176123284	0.697372152
0.102206129	0.841691721	0.08346581	0.606033305	0.13477172	0.630873086
0.014431961	0.8809512	0.014817777	0.697334748	0.17520706	0.697356277
0.242569907	0.244642012	0.826175598	0.607183116	0.580894156	0.119010208
0.153934472	0.859788132	0.846806636	0.560769588	0.152599535	0.15171829
0.4595565	0.42965656	0.877573228	0.55978211	0.524382526	0.170645846
0.825835881	0.137460057	0.129429799	0.118699159	0.605778271	0.576306257
0.045403163	0.048109148	0.053236992	0.656025304	0.656134252	0.656033948
0.873288244	0.874672347	0.874858632	0.188232741	0.189144221	0.18927455
0.877473501	0.480525484	0.405696717	0.170596492	0.575399973	0.532967033
0.027321649	0.876592853	0.88249861	0.695116599	0.171147707	0.175725657
0.103055906	0.0788958	0.855932402	0.643243133	0.623529365	0.149613693
0.233757925	0.230133702	0.826094521	0.609006918	0.581232442	0.119093217
0.861002351	0.843699413	0.14172491	0.153464206	0.149531734	0.564540754
0.208639996	0.825981045	0.208376642	0.578079937	0.118905945	0.608131176
0.14644987	0.131332493	0.825219637	0.602140109	0.573081922	0.119431566
0.841676446	0.1248189	0.103528329	0.135269791	0.623459101	0.598007938
0.872979346	0.874887636	0.87450642	0.188454538	0.189008164	0.188664048
0.079790641	0.071477349	0.855635168	0.647648533	0.627703519	0.148938983
0.87765265	0.473576093	0.404187191	0.17051453	0.625812799	0.586103173
0.881338388	0.00000484	0.00000489	0.175398728	0.699056158	0.698914109
0.876817124	0.883511068	0.040849665	0.171112189	0.175372612	0.692943011
0.881583507	0.041173933	0.040774707	0.175419482	0.692818178	0.692911322
0.087089845	0.079137787	0.868695705	0.67237329	0.660134859	0.162654213
0.013856682	0.01438766	0.014015859	0.697015629	0.697430817	0.697496135
0.404224663	0.877709915	0.473596868	0.586191779	0.170703439	0.625716888
0.450295267	0.426863566	0.877173558	0.626368685	0.593231211	0.170250492
0.874426361	0.87331764	0.875320187	0.188953988	0.188239144	0.188310673
0.099901294	0.081376577	0.869210016	0.669231359	0.657463557	0.16274274
0.826329629	0.148692318	0.130969668	0.119270669	0.602084044	0.574649656
0.00000489	0.00000489	0.881707025	0.699241944	0.699164141	0.175408819
0.861473642	0.843495248	0.137247546	0.154707535	0.148990676	0.566104025
0.102243779	0.841282362	0.083353016	0.605908045	0.134810467	0.631305945
0.08333411	0.10218399	0.841326234	0.63082279	0.605978368	0.134848485
0.459095975	0.425687033	0.877344141	0.575453748	0.539366523	0.170567048
0.855359169	0.102858989	0.079016323	0.149304479	0.643401009	0.623629599
0.825102268	0.195834975	0.199335191	0.118579746	0.611613662	0.578706781
0.438821699	0.877674561	0.438826403	0.596453021	0.170513724	0.626603179
0.845498394	0.141824384	0.860344373	0.149716534	0.564482018	0.153471908
0.28258454	0.282966561	0.825874281	0.615967042	0.586893514	0.118600323
0.041191864	0.04095754	0.881192885	0.692730014	0.693056311	0.174905881
0.484781533	0.392942374	0.877469797	0.62536415	0.582500993	0.170563517
0.218770737	0.238222167	0.826887036	0.609747122	0.578178889	0.118937024
0.873800753	0.873477852	0.874836262	0.189014747	0.188805061	0.189770081
0.100330643	0.082283334	0.869271775	0.668999957	0.657719236	0.162653895
0.861958854	0.845261743	0.137236924	0.154423778	0.149232894	0.566292984
0.877219875	0.459488281	0.429367395	0.170431906	0.559802125	0.524423477
0.415662021	0.877416811	0.469920117	0.536201706	0.170565778	0.575464301
0.081754935	0.867096284	0.866234611	0.621087895	0.159809681	0.161946741
0.872145451	0.874242543	0.047659386	0.165275553	0.16844873	0.658880551
0.424213775	0.87738377	0.465108674	0.573172676	0.170545652	0.609868251
0.427013488	0.877466269	0.450437933	0.593042471	0.170486629	0.626488718
0.070715411	0.051562505	0.083121477	0.673383665	0.672524747	0.674380429
0.826231311	0.221722907	0.227231916	0.11861528	0.609989891	0.580397937
0.434997346	0.87738903	0.454909544	0.574037316	0.170555429	0.607675999
0.075958964	0.871373137	0.874605673	0.650520313	0.16446334	0.168489263
0.445900028	0.877364031	0.445218091	0.576657708	0.170541807	0.607030051
0.392817159	0.877215088	0.48465115	0.582423627	0.170592942	0.625332709
0.877050577	0.470192344	0.411810019	0.170198381	0.589689433	0.551184567
0.825887414	0.183332143	0.186943662	0.118778781	0.610011021	0.579867546
0.099882041	0.081008442	0.869056112	0.668608658	0.65664393	0.162622577
0.076932628	0.868141472	0.865231474	0.62313716	0.160430298	0.161433264
0.871100404	0.874544429	0.075957265	0.164406533	0.168139554	0.650371371
0.875693536	0.883456781	0.027331715	0.170672468	0.175822155	0.695404966
0.419659444	0.877449503	0.470293697	0.521039081	0.17062412	0.559660159
0.491185968	0.52166056	0.878296481	0.561650926	0.533453921	0.170610157
0.865505751	0.077063544	0.866992981	0.161118331	0.622907267	0.159456293
0.099666475	0.841733406	0.092688656	0.604488438	0.134894207	0.629761521
0.484758702	0.392898954	0.877406569	0.625262015	0.582529523	0.170632225
0.462013312	0.415451072	0.877436932	0.626214172	0.589653848	0.170514488
0.083449871	0.305022233	0.283425026	0.619722228	0.620245706	0.619385146
0.872123984	0.874907978	0.046239906	0.165118021	0.168600316	0.658068978
0.877292225	0.440342479	0.444046742	0.170516267	0.60805029	0.577723869
0.825737151	0.252722348	0.254064111	0.118970485	0.612698744	0.584370198
0.082410331	0.86914279	0.099584315	0.656310039	0.16263312	0.668887411
0.103525825	0.841472423	0.125045083	0.598587552	0.135291509	0.623417055
0.415522274	0.877574858	0.462079969	0.589685978	0.170686374	0.626198588
0.437125039	0.446381996	0.877442432	0.575788025	0.546064852	0.170589608
0.87143011	0.874197236	0.047186383	0.164850502	0.168137499	0.657088886
0.153965231	0.859766217	0.847050647	0.560882622	0.151917026	0.151248573
0.415451691	0.877440846	0.462016233	0.589795055	0.170520804	0.626071082
0.877361093	0.459053112	0.425551244	0.17057864	0.575639856	0.539627075
0.860300268	0.847096839	0.153958925	0.152348448	0.151467441	0.560923789
0.856948662	0.079541399	0.071783872	0.149234307	0.647901398	0.627477483
0.825887414	0.183332143	0.186943662	0.118778781	0.610011021	0.579867546
0.047149583	0.871397121	0.874774051	0.656850542	0.164641498	0.168237069
0.438684569	0.444501141	0.877630861	0.593152948	0.563448276	0.170623102
0.06667111	0.07965944	0.85561768	0.653455587	0.633441872	0.148919966
0.092818604	0.099669837	0.841653051	0.629422267	0.604465498	0.134933225
0.013707776	0.876825852	0.883815377	0.697321229	0.170926939	0.175798039
0.877399527	0.473727164	0.410047568	0.170549266	0.609104952	0.569239099
0.103514248	0.841280542	0.125182654	0.598207379	0.135220154	0.62333019
0.867115482	0.865839776	0.077523386	0.159927198	0.161581017	0.6226713
0.100484607	0.841974327	0.113991435	0.60105544	0.135122017	0.625959289
0.410346363	0.878060382	0.481219753	0.517538511	0.170570819	0.559355692
0.826517363	0.228168276	0.221151143	0.118753487	0.610335034	0.582857399
0.404436487	0.87815208	0.473826694	0.58630061	0.170730459	0.625773934
0.306610783	0.826118593	0.295792853	0.590572036	0.118979924	0.616394378
0.148900943	0.135959317	0.825875521	0.603414073	0.575290242	0.119478368
0.437089182	0.446329686	0.877352035	0.575801066	0.546037708	0.170572694
0.882247979	0.0000055	0.876583667	0.175199641	0.699359034	0.170726452
0.082823694	0.868885391	0.084079635	0.663200086	0.162488784	0.677222382
0.081657377	0.867293114	0.86618993	0.621123709	0.159939832	0.161923805
0.557653243	0.876979374	0.56905214	0.537708996	0.170439165	0.565025158
0.872575775	0.873761115	0.055341136	0.165519578	0.168687158	0.654754332
0.862216448	0.86338696	0.862487073	0.218315785	0.218828381	0.219401921
0.877387479	0.469817199	0.415549536	0.170556666	0.57540448	0.536119983
0.4384908	0.438486117	0.87700312	0.62673219	0.596293818	0.170468716
0.099676221	0.841761022	0.092649084	0.604335914	0.134833716	0.629764631
0.865212378	0.081503396	0.867558973	0.161600822	0.621020155	0.159914796
0.82567884	0.136361886	0.126132362	0.118843556	0.606541747	0.577821424
0.822876881	0.823040289	0.821756836	0.297937204	0.29873182	0.298253524
0.877629304	0.462107092	0.4155496	0.170731321	0.626243572	0.589609575
0.027325097	0.876702799	0.883821476	0.695176246	0.171217641	0.175661485
0.45500664	0.43588693	0.877399777	0.611028995	0.577432675	0.170589328
0.844572967	0.147509215	0.859049219	0.150225488	0.562659589	0.152572158
0.845752308	0.141817896	0.860254402	0.149665565	0.56448761	0.153417083
0.864481007	0.854111251	0.107653339	0.156498957	0.15404863	0.593705988
0.869124471	0.079941296	0.077218046	0.162568734	0.674449967	0.663140522
0.045024482	0.048898619	0.051367555	0.65763428	0.658144338	0.658427899
0.841687985	0.102941675	0.098949549	0.135032203	0.628084042	0.602732701
0.014053468	0.881440208	0.014345194	0.697284069	0.175420038	0.697059558
0.076993852	0.867565491	0.865671396	0.623063938	0.160159939	0.161679332
0.845180723	0.141820922	0.860393014	0.149686377	0.564550965	0.153605922
0.855410699	0.079625438	0.07185511	0.148915191	0.647849473	0.627857917
0.079758514	0.071519903	0.855557741	0.647603349	0.627639701	0.149010158
0.445695849	0.877482603	0.437823624	0.563007519	0.170531272	0.592670229
0.473552926	0.404179381	0.877619825	0.625903743	0.58613859	0.170727487
0.210452951	0.82580906	0.213866423	0.581309214	0.11885467	0.609858468
0.826067034	0.221388634	0.221068914	0.118814189	0.611074852	0.58299713
0.841436862	0.102866447	0.099016082	0.134980997	0.627606997	0.602606789
0.123104266	0.864035339	0.85588173	0.588614647	0.155659961	0.156695565
0.825892926	0.281350676	0.297201236	0.11848688	0.610254818	0.582921062
0.111440071	0.864165366	0.855657797	0.592115166	0.155840709	0.155072624
0.473583112	0.404196808	0.877668431	0.62593345	0.586149506	0.170727412
0.058459129	0.038121644	0.076659076	0.679457229	0.678809251	0.680182236
0.439754727	0.877723026	0.448883151	0.52751263	0.170826719	0.560020819
0.040458836	0.046103737	0.07390079	0.677003551	0.678612733	0.680522554
0.882444534	0.054647622	0.054315781	0.17585625	0.690351563	0.690267722
0.040847193	0.875587457	0.88228255	0.692903955	0.170620229	0.175490913
0.075995827	0.871543865	0.874764433	0.650500436	0.164426533	0.168736605
0.446738477	0.877349507	0.443348412	0.577243685	0.170578554	0.608202805
0.866725661	0.866157634	0.081757056	0.159172757	0.161660338	0.621300011
0.822889434	0.82325895	0.822629237	0.298022291	0.29870225	0.298198912
0.086512248	0.077681832	0.868926558	0.672637745	0.661576428	0.162591868
0.103077956	0.099070621	0.841523077	0.627703052	0.602620604	0.134977982
0.874525637	0.065235769	0.872021051	0.168536301	0.652733334	0.164751345
0.868851969	0.082920959	0.07519236	0.162654279	0.673497986	0.661699339
0.027293602	0.881639135	0.02766419	0.695300835	0.17509037	0.694412628
0.091735122	0.07417182	0.855277267	0.645312856	0.625829768	0.148702658
0.466112941	0.424515077	0.877359279	0.608648762	0.572059881	0.170561193
0.877523212	0.48068409	0.405698588	0.170575886	0.575307571	0.532929181
0.411789248	0.877869769	0.470163719	0.551560477	0.170476765	0.590707283
0.873479802	0.065238396	0.87010311	0.168104301	0.6527515	0.164474228
0.866332447	0.081511588	0.866877175	0.16169224	0.621339925	0.159638442
0.081378783	0.855639364	0.067041772	0.630386069	0.148797493	0.652518678
0.856059309	0.111419066	0.864512143	0.155019163	0.591991663	0.155944175
0.103070545	0.078864068	0.855944298	0.643257449	0.623496547	0.149586115
0.437094231	0.446338	0.877364314	0.575743281	0.546039276	0.170600649
0.864100371	0.863103629	0.86386216	0.219576526	0.219193525	0.219637263
0.872896306	0.875888555	0.047444665	0.165341074	0.169082742	0.657149173
0.405930438	0.877376657	0.4806032	0.53274314	0.170534121	0.575121065
0.069963358	0.065067851	0.084686976	0.670452732	0.670874166	0.672864759
0.877377404	0.483735855	0.400100357	0.170589188	0.608646896	0.56606042
0.856296037	0.091217445	0.074220883	0.149433502	0.645740299	0.625486384
0.863910523	0.854626922	0.107698822	0.156341851	0.154172171	0.593930985
0.419851548	0.877760137	0.470418029	0.52097044	0.170684145	0.559693704
0.054273713	0.876815499	0.882753762	0.690478692	0.170917296	0.174792292
0.42567586	0.877440247	0.459137966	0.539351187	0.17065846	0.575369409
0.845418686	0.147459994	0.860454673	0.149980621	0.56272687	0.152415805
0.866825595	0.104024804	0.866583429	0.16259761	0.615308157	0.159024808
0.099739954	0.841743518	0.092698728	0.604327766	0.13481874	0.629765054
0.415628826	0.877299022	0.469850887	0.536075797	0.170523524	0.575409425
0.425648101	0.877330928	0.459091356	0.539482032	0.170477174	0.575608737
0.091699763	0.074471992	0.856150741	0.645589847	0.625471649	0.149723546
0.860936603	0.8444232	0.141776399	0.153877663	0.149840279	0.564512264
0.856084738	0.091319214	0.074117105	0.149228082	0.646000452	0.625705211
