Vam	Vbm	Vcm	Iam	Ibm	Icm
0.091328201	0.074519402	0.855508579	0.645554717	0.625607719	0.149305834
0.040835952	0.87508406	0.884483738	0.692622501	0.170356737	0.175383249
0.876365485	0.883288427	0.02732773	0.171300077	0.175588446	0.695202136
0.855170175	0.091351749	0.074369742	0.148961497	0.645763454	0.625668656
0.053534378	0.051440844	0.056739183	0.654276719	0.654102011	0.654081962
0.877355391	0.439458177	0.444483549	0.170562333	0.609375752	0.579289881
0.865200408	0.077103601	0.867577766	0.161137966	0.623400911	0.159880657
0.877704495	0.480910573	0.410322986	0.170822453	0.559497693	0.517364964
0.855578056	0.065661318	0.07804979	0.148997267	0.652342103	0.632360644
0.437612687	0.445374089	0.877394167	0.592886103	0.563107427	0.170584012
0.841950543	0.103009022	0.09909082	0.134929664	0.627899398	0.60251586
0.866351726	0.09559842	0.867095244	0.162278742	0.617441458	0.159004276
0.866982115	0.866919098	0.104028932	0.159097362	0.163056042	0.615374281
0.446339928	0.877335411	0.437063276	0.546052666	0.170621629	0.575690555
0.877552657	0.470243058	0.41982966	0.170919753	0.559723728	0.52090464
0.862489922	0.843858708	0.133863026	0.155390537	0.148534006	0.567703773
0.877446967	0.459077879	0.425630785	0.170603746	0.575796591	0.53968385
0.027512551	0.02837985	0.027887463	0.694972041	0.694913018	0.695328222
0.103010544	0.099273021	0.841549677	0.627718209	0.60247784	0.13502215
0.82541124	0.146171068	0.128561763	0.118864633	0.603388579	0.574482849
0.404116435	0.87749685	0.473492182	0.586031352	0.170563986	0.625888806
0.083450695	0.08372175	0.084043475	0.632381029	0.632074481	0.632497163
0.480900495	0.401566185	0.877789805	0.590143169	0.548245471	0.170677641
0.013751249	0.014445537	0.014472598	0.696696976	0.696901369	0.697222239
0.86532953	0.077031172	0.867247498	0.161236643	0.623413641	0.159960829
0.08238531	0.854077833	0.066586631	0.631308418	0.14861144	0.653092103
0.113764465	0.099924947	0.841790294	0.626094561	0.600953766	0.135071362
0.877465542	0.462026623	0.415466317	0.170544228	0.626225413	0.589608201
0.877546733	0.459040479	0.4221393	0.17053178	0.590789704	0.555287071
0.435554239	0.877296542	0.454732045	0.576336388	0.170550963	0.609975259
0.445454444	0.449260997	0.877349121	0.608474778	0.57826926	0.170600606
0.088009347	0.866219528	0.865767243	0.619532302	0.159020117	0.162045887
0.046731089	0.872006528	0.874641072	0.658789929	0.164744546	0.168072283
0.878448085	0.449275788	0.440082261	0.170810805	0.559768343	0.527717985
0.099291054	0.840958465	0.103131419	0.602515511	0.135040622	0.627621044
0.486714964	0.401700847	0.8774303	0.607572764	0.564656422	0.170467228
0.473462882	0.40408016	0.877431633	0.625974017	0.586071861	0.170685249
0.877615563	0.470333091	0.419799901	0.170765303	0.559679148	0.520995013
0.877441589	0.462086624	0.421593894	0.170558145	0.608166542	0.571780299
0.855633463	0.066501531	0.078498056	0.148861881	0.652549629	0.632231008
0.866212521	0.087806883	0.867691748	0.162032916	0.619798875	0.159736087
0.86024138	0.846787427	0.153970054	0.152498106	0.151707762	0.560841506
0.041077896	0.040793046	0.88158233	0.69248764	0.692645908	0.175370871
0.881317065	4.89504E-06	4.78261E-06	0.175261113	0.698865004	0.699374007
0.877280734	0.461201624	0.422608449	0.170561223	0.60867262	0.572441176
0.470591756	0.420010268	0.878090834	0.559615381	0.521100214	0.170669993
0.047836534	0.04251775	0.074030039	0.678051936	0.677598241	0.680437689
0.845501911	0.133786402	0.862207304	0.148741097	0.567680239	0.155634622
0.099935294	0.081177255	0.868791335	0.665663825	0.655635291	0.16277502
0.869264223	0.090986065	0.078568301	0.162662379	0.672486199	0.658816036
0.841707599	0.113847585	0.100220802	0.135083861	0.625676111	0.600584997
0.868996561	0.07657776	0.080067247	0.16248433	0.677405968	0.665616778
0.865269446	0.077088189	0.867849157	0.161166736	0.623321729	0.160011934
0.065248646	0.871253514	0.874984189	0.652748986	0.164528088	0.168838577
0.871169412	0.874263501	0.055337408	0.164416582	0.168085267	0.654862739
0.866935709	0.087931861	0.866855085	0.162327723	0.619543129	0.159491158
0.091217952	0.074663719	0.855563344	0.645480193	0.625658219	0.149528195
0.082182962	0.855046577	0.067108997	0.631471235	0.148960677	0.65307223
0.438549167	0.438544395	0.877119344	0.626597305	0.596436131	0.170515877
0.825755763	0.136365268	0.129212366	0.11905917	0.605909088	0.577228326
0.048494363	0.045781699	0.053557721	0.656313134	0.655799797	0.655725143
0.392763373	0.877088093	0.484577911	0.582346806	0.170443277	0.625096082
0.868922153	0.077143061	0.080514599	0.162480056	0.677395689	0.665615651
0.13719558	0.861036982	0.845180493	0.566264278	0.153821742	0.148644346
4.92218E-06	0.88101588	4.83456E-06	0.699339305	0.175045657	0.699120298
0.866117759	0.081764478	0.867294867	0.161755461	0.621081747	0.159648883
0.877436685	0.484290837	0.399260412	0.17060654	0.608836417	0.566210858
0.027325545	0.876087489	0.882953212	0.695198317	0.170312068	0.175052303
0.047902324	0.041747986	0.0731935	0.67753048	0.67800058	0.680282514
0.130958335	0.125838842	0.098358634	0.611223201	0.610236876	0.614981218
0.013754154	0.014749224	0.01473059	0.697025832	0.697346678	0.696982975
0.092649746	0.099737934	0.84164508	0.629481139	0.60441774	0.134928868
0.081375626	0.084174122	0.868420477	0.676244985	0.663727441	0.162656744
0.844890847	0.137280546	0.861675846	0.149405628	0.566314406	0.154898572
0.877638249	0.450524078	0.427099602	0.170513159	0.626405941	0.593238159
0.209960581	0.209509155	0.826776223	0.607514292	0.579407759	0.119150765
0.877404492	0.469897124	0.415512197	0.170532682	0.575551679	0.536244896
0.869158462	0.098846381	0.081418936	0.162717787	0.667670884	0.656066203
0.86036638	0.84425228	0.141784327	0.153097573	0.149148983	0.564499745
0.864435168	0.855641891	0.116654801	0.156022643	0.156196092	0.590247011
0.867672949	0.866190931	0.077316256	0.159840924	0.161814168	0.622893177
0.448114931	0.435993144	0.877403402	0.575556277	0.542811469	0.170579104
0.326506945	0.336374959	0.825210243	0.611371581	0.580571236	0.118638789
0.824867008	0.187350072	0.186470852	0.118139241	0.610947806	0.581285973
0.393182832	0.877964174	0.48503441	0.582565264	0.170880555	0.625435959
0.041013564	0.041522037	0.041737906	0.692260627	0.692406743	0.69235566
0.063558347	0.060047336	0.065568009	0.652009423	0.6519716	0.651930584
0.027326936	0.874712431	0.88220905	0.695257238	0.17008149	0.175413949
5.49452E-06	0.875283016	0.885534335	0.699426756	0.169879368	0.175709698
0.855679698	0.091287942	0.074310639	0.149190285	0.645732541	0.625698034
0.410287913	0.877634459	0.480877782	0.517693276	0.170673046	0.5593335
0.485190929	0.393357212	0.878295431	0.625505501	0.582316447	0.170563733
0.485011317	0.39316607	0.877923855	0.625485913	0.5824145	0.17083775
0.083448505	0.083683903	0.083940722	0.632248062	0.632167875	0.632401214
0.09929631	0.84089462	0.103072733	0.602496347	0.135062543	0.627591493
0.048780751	0.041133733	0.073532627	0.677515612	0.677636331	0.679584628
0.067679175	0.067637426	0.06784509	0.636602797	0.636516235	0.636907591
0.877425742	0.462009892	0.415442883	0.170504136	0.626158352	0.589752636
0.068863654	0.07966721	0.855274535	0.6520739	0.632246495	0.148809211
0.125249	0.103152892	0.841564008	0.62366925	0.598500554	0.135338796
0.429523704	0.877447104	0.459561548	0.524292231	0.170697395	0.559962882
0.130411215	0.827682514	0.141323813	0.577402342	0.119814304	0.605941621
0.027889131	0.882172952	0.02796796	0.695071184	0.175573676	0.695207368
0.866405008	0.856068106	0.107726418	0.157139793	0.155006366	0.593795392
0.090814128	0.078018472	0.869440407	0.673578266	0.659083392	0.16262793
0.862901958	0.857120713	0.130431695	0.154762198	0.156762695	0.586512854
0.866747754	0.087915986	0.867822968	0.162078448	0.61934607	0.159745171
0.415493613	0.877526707	0.462059793	0.589559322	0.170650891	0.62621374
0.403954824	0.877161562	0.473318616	0.585984427	0.170464979	0.625704947
0.877716253	0.470316772	0.419920237	0.170783134	0.559755145	0.520890435
0.055014156	0.054543417	0.055282123	0.690032661	0.690250466	0.690265932
0.405872197	0.877354103	0.480570932	0.533009994	0.170529464	0.575366355
0.841632445	0.102997526	0.099231907	0.134939121	0.627941369	0.602876667
0.401676114	0.87769968	0.481085997	0.54820254	0.170408803	0.590401023
0.82492691	0.194949663	0.196191003	0.118813921	0.611318238	0.579266988
0.32699481	0.343586927	0.82476332	0.609928819	0.58144025	0.118637722
0.868255015	0.104398376	0.866855585	0.16279593	0.614952594	0.159239494
0.87753615	0.448839836	0.439623794	0.170741424	0.55968173	0.527761781
0.084145538	0.869347005	0.100823762	0.655861917	0.162724437	0.667160413
0.861774628	0.846489263	0.147382139	0.153322719	0.151071118	0.562662268
0.448008888	0.432622025	0.877486925	0.59104021	0.558253573	0.170674971
0.081305091	0.856298003	0.067162097	0.631428574	0.149381632	0.652002195
0.841629232	0.103031205	0.099279052	0.134941618	0.627911821	0.602908359
0.877740799	0.4703106	0.419954	0.170818193	0.559770457	0.520891799
0.100191198	0.842200494	0.1141145	0.600582196	0.135054849	0.625824156
0.071655532	0.855899122	0.079707235	0.627535378	0.149367432	0.647747856
0.883955965	0.013705291	0.875707868	0.175672578	0.697271142	0.170691859
0.866766222	0.865157261	0.077219044	0.159570065	0.160701547	0.623134255
0.845507694	0.141825283	0.86150427	0.149759335	0.564603398	0.153416968
0.141790282	0.861162203	0.844340923	0.56459674	0.153553213	0.14966442
0.855757303	0.103054353	0.07884825	0.149696031	0.643481062	0.623608373
0.40152483	0.877348829	0.487120305	0.564713852	0.170539323	0.607786303
0.45005574	0.426630165	0.876700532	0.62653379	0.593073679	0.170661795
0.091260729	0.074642095	0.855826082	0.645655064	0.625927227	0.149471391
0.825779394	0.288972931	0.299715854	0.118613546	0.613135795	0.58297553
0.844483195	0.133735073	0.86221122	0.148480877	0.567684339	0.155304351
0.459137387	0.425668378	0.877427388	0.575413254	0.539296364	0.170620816
0.881176446	4.9587E-06	4.78203E-06	0.17523435	0.699348834	0.698957006
0.07147841	0.855861632	0.068806487	0.62947592	0.149459731	0.649875853
0.082232603	0.855077609	0.06775132	0.631863776	0.148861647	0.652929594
0.081241878	0.079520074	0.86912726	0.674085335	0.662168984	0.162533883
0.072481662	0.065988841	0.087082245	0.670417477	0.670019317	0.670751693
0.855285063	0.079650474	0.071517049	0.149078412	0.647951039	0.62766414
0.028017261	0.882134371	0.028410669	0.694869593	0.175535293	0.695946205
0.12459746	0.124556453	0.200804089	0.617891205	0.619562973	0.619320044
0.826234642	0.232813025	0.227421094	0.119164434	0.608393353	0.581749393
0.104087695	0.866161069	0.86722757	0.615135705	0.158715042	0.163187108
0.081759281	0.86893386	0.092860477	0.656724074	0.162636329	0.670513204
0.429599156	0.877489731	0.459532614	0.5242991	0.170880143	0.559880294
0.437066838	0.446319191	0.877318702	0.575744884	0.546056737	0.170607191
0.134991734	0.126506893	0.827981643	0.605456132	0.576635157	0.119287417
0.092758515	0.099696807	0.841422785	0.629536853	0.604265368	0.134910208
0.475580913	0.414179698	0.877365179	0.607805885	0.568286402	0.170572677
0.44803669	0.435927768	0.877269784	0.575581459	0.542752658	0.170616712
0.048684168	0.044919221	0.052169384	0.656019216	0.656360835	0.656272088
0.869119992	0.098335039	0.081380216	0.16271451	0.667716314	0.656105898
0.841748346	0.092745956	0.099831201	0.134806137	0.629450046	0.603959216
0.843364648	0.133697744	0.862151283	0.147592853	0.567735183	0.154740003
0.877332966	0.473174447	0.410365193	0.170605568	0.608854674	0.569312388
0.864962299	0.855086101	0.107828216	0.156752782	0.154705844	0.593879759
0.435624817	0.877327692	0.454113303	0.576788016	0.17052061	0.610263034
0.071340602	0.856556842	0.068837855	0.629593249	0.149562808	0.650050984
0.877217277	0.461905442	0.415338428	0.170668576	0.626237444	0.589682361
0.459679556	0.429638044	0.877672633	0.559823435	0.524421487	0.170686032
0.067552773	0.079067953	0.855403351	0.652047228	0.632062484	0.148995764
0.454693892	0.436685137	0.8772788	0.608539751	0.574728333	0.170581095
0.393148137	0.877900846	0.485002787	0.582482207	0.170665859	0.625145426
0.877729239	0.448056682	0.432902001	0.170781659	0.591246155	0.558616083
0.403986918	0.877258308	0.473382212	0.586181457	0.170432123	0.625904752
0.874744979	0.047093313	0.871979054	0.16821399	0.65700405	0.164902274
0.458872422	0.425638878	0.877145753	0.575753503	0.539765985	0.170517879
0.054551647	0.051223234	0.057316492	0.653885425	0.654486262	0.654985399
0.855511733	0.103030865	0.078886092	0.149577804	0.643467697	0.623675465
0.414236655	0.877332197	0.474690991	0.569117621	0.170508126	0.608797184
0.084331046	0.076021116	0.855523311	0.647687049	0.628073621	0.149427444
0.083458844	0.08363811	0.083973139	0.632365527	0.632122671	0.632355805
0.439745478	0.877789119	0.44895841	0.527810434	0.170858763	0.559731454
0.014249992	0.881728973	0.014149297	0.697416844	0.175102327	0.697135058
0.084605396	0.076476532	0.855009297	0.646657026	0.626770187	0.148730572
0.445682111	0.877467955	0.437867329	0.562604057	0.170394062	0.591842363
0.865128585	0.077061464	0.867682248	0.161141005	0.623368736	0.159906975
0.883814186	5.49528E-06	0.876184381	0.175708445	0.699344171	0.171058813
0.079177993	0.855809632	0.102991276	0.623722945	0.149826476	0.643385149
0.087980058	0.867556506	0.86571638	0.619218064	0.159444836	0.162172117
0.450452012	0.427024062	0.877490732	0.626363509	0.593200976	0.170680545
5.49654E-06	0.875732904	0.882774853	0.699287119	0.171050255	0.175318119
0.054473629	0.054749954	0.055125602	0.690072349	0.690808346	0.690869781
0.854962496	0.107865754	0.864478221	0.15492546	0.593681751	0.156649072
0.841540753	0.092767357	0.099841884	0.134870088	0.629478115	0.604502911
0.439791666	0.877844424	0.448961197	0.52781002	0.170862352	0.559733054
0.470091654	0.415534971	0.877407014	0.575332322	0.53604795	0.170551913
0.40586654	0.877350653	0.480569634	0.533008728	0.170527901	0.575365065
0.13378648	0.861972252	0.842725466	0.567666095	0.154793024	0.147687043
0.086312404	0.07694284	0.869142813	0.67180652	0.660700407	0.162637915
0.878518333	0.449308374	0.440122581	0.17068756	0.559845965	0.527632738
0.054197887	0.051191588	0.057051746	0.654027425	0.654318858	0.654096802
0.877900868	0.459184586	0.422372274	0.170879555	0.591036219	0.554876281
0.133808894	0.861281334	0.842967345	0.567670612	0.154502803	0.147305674
0.872321713	0.875019352	0.065208042	0.165217388	0.168835539	0.652738352
0.825665501	0.13736827	0.128958072	0.119050192	0.605819359	0.577226749
2.80463E-06	3.22964E-06	2.97744E-06	0.699316314	0.699349716	0.699148296
0.041121635	0.04126471	0.041738528	0.692586933	0.693099889	0.692647184
0.877551786	0.473521043	0.404141948	0.170374057	0.62583009	0.585949038
0.083438588	0.083767223	0.08406186	0.632366759	0.632139431	0.632441387
0.877427773	0.473457377	0.404081972	0.170398897	0.625842267	0.585941818
0.059768535	0.043119816	0.077196631	0.67474499	0.675150682	0.67668627
0.410291133	0.877653494	0.480899407	0.517598155	0.170544189	0.559341941
0.027363247	0.077117274	0.076987118	0.678661412	0.680121584	0.678523222
0.862146126	0.843293859	0.137111854	0.153884904	0.148374165	0.566272486
0.247210776	0.251915694	0.825857393	0.617711093	0.587998707	0.118764976
0.014316089	0.881225095	0.014599138	0.697102464	0.17512485	0.697451777
0.014190112	0.014234314	0.881216274	0.696598182	0.697239342	0.175124915
0.480571988	0.401200373	0.877090445	0.589954107	0.548232629	0.169987694
0.027530081	0.07695486	0.076559287	0.678709755	0.679584481	0.679510078
0.410230019	0.877548054	0.480846837	0.51752199	0.170624944	0.559322282
0.437078524	0.446346164	0.877358069	0.575742953	0.546078944	0.1706017
0.874205396	0.055329305	0.871918787	0.168127366	0.65475575	0.164566792
0.401995543	0.877340553	0.486975713	0.564044201	0.170540424	0.607028712
0.425878621	0.877334675	0.463713765	0.573492998	0.170610271	0.609635439
0.013709754	0.875353176	0.884263043	0.697499213	0.170721855	0.175925131
0.869042495	0.083219703	0.074987044	0.162566549	0.672355416	0.660178448
0.402709871	0.877293958	0.486214732	0.564462937	0.170538973	0.607542693
0.868960235	0.082668049	0.074208637	0.162659946	0.672479924	0.660491602
0.484525264	0.392697968	0.876969542	0.625416379	0.582286871	0.170530925
0.860624323	0.845900366	0.147475547	0.152878215	0.150611782	0.562760432
0.404202297	0.877674479	0.473583198	0.5860735	0.170663505	0.625847872
0.048685677	0.871550919	0.874361019	0.65841105	0.164814471	0.168300116
0.877388679	0.469926317	0.41544555	0.17054254	0.575371753	0.536107959
0.133283069	0.128684815	0.098435498	0.610043013	0.609578136	0.61427192
0.074188796	0.855636036	0.091192093	0.625867352	0.149218391	0.645821578
0.877218188	0.473357806	0.403971351	0.170476133	0.625909644	0.585978778
0.078293091	0.869031941	0.085766639	0.660841272	0.16249474	0.673546727
0.867950013	0.104438236	0.867015399	0.162925725	0.615245839	0.159174225
0.877423544	0.484317592	0.399465677	0.1706216	0.607598581	0.564936652
0.855734805	0.066177932	0.078876641	0.148945545	0.652518737	0.632278628
0.013764219	0.014399697	0.014346843	0.69690473	0.696595623	0.697225069
0.875161234	0.065218706	0.872095874	0.168811276	0.65278584	0.164881143
4.84889E-06	4.95842E-06	0.881041726	0.699121326	0.699557976	0.175145313
0.867140134	0.865231155	0.081547731	0.159786872	0.161688227	0.621355431
0.425313393	0.877467195	0.46440689	0.573521373	0.170584786	0.609898176
0.480790674	0.4100857	0.877337068	0.559291968	0.517539614	0.170651252
0.859695045	0.846000027	0.153999559	0.152578552	0.151666342	0.560903657
0.877474786	0.480734709	0.401501495	0.170154889	0.590181023	0.548058561
0.137170154	0.861988205	0.845830659	0.566151436	0.154215694	0.148889753
0.846294959	0.147401889	0.861095327	0.150653882	0.562766016	0.153184211
0.884318258	0.013704692	0.875262815	0.176028063	0.697245844	0.170987998
0.027484621	0.027813489	0.027628968	0.69490986	0.69496432	0.695054099
0.100263148	0.841804828	0.114038711	0.600399914	0.134936389	0.625628157
0.47535674	0.414132651	0.877480563	0.607918263	0.568365441	0.170598798
0.402550282	0.877332847	0.486376692	0.564515841	0.170539003	0.607611058
0.842044571	0.125137308	0.103621591	0.135190804	0.623891795	0.598379866
0.077526243	0.081287169	0.868681269	0.676732734	0.665835637	0.162431249
0.054275136	0.876487052	0.883663625	0.690561044	0.17097927	0.175369384
0.041189526	0.040790301	0.881563456	0.69266841	0.692616713	0.175325481
0.455456629	0.43587443	0.877290912	0.608448497	0.574650995	0.170579367
0.877421839	0.437099792	0.446388704	0.17058865	0.575744968	0.546088734
0.874259961	0.05530337	0.871125535	0.16848608	0.654912182	0.164766069
0.871997174	0.8744806	0.075980122	0.164721367	0.168136187	0.650589232
0.401884265	0.877896926	0.481087851	0.548320137	0.1705048	0.59032761
0.86681901	0.866935255	0.095485536	0.159468616	0.162592878	0.617365349
0.067271426	0.079110396	0.855547511	0.652292159	0.633053682	0.148973565
0.87738741	0.884959851	0.013707484	0.170834883	0.175710855	0.697373887
0.116741715	0.863996657	0.855782709	0.590356386	0.155649628	0.155771605
0.844428931	0.137308631	0.862360351	0.149438194	0.56635135	0.154980032
0.877345468	0.459022573	0.425591648	0.170626453	0.575696038	0.539621142
0.411748417	0.877321954	0.470230506	0.551186009	0.170480726	0.589952282
0.825771337	0.289369211	0.300005625	0.118614447	0.613136908	0.582957002
0.046839756	0.047690081	0.052347272	0.657152504	0.658383333	0.65821246
0.084037569	0.869140888	0.099603105	0.654434041	0.162608252	0.667835989
0.099565453	0.841442778	0.102916205	0.602632593	0.135190427	0.627681293
0.134476766	0.126016782	0.826702567	0.604152051	0.575620978	0.119468668
0.083439557	0.1022343	0.84188362	0.631225524	0.605733211	0.134700827
0.405751054	0.877327438	0.480581748	0.532983361	0.170484705	0.575334151
0.88183436	0.041061719	0.040835631	0.175535004	0.692109876	0.692467465
0.154032009	0.859137191	0.846848714	0.560974433	0.152389048	0.151774106
0.053980564	0.051262745	0.056760156	0.654199731	0.654005359	0.654151563
0.438581336	0.438576628	0.877183787	0.626571576	0.596364843	0.17028162
0.127384644	0.827337392	0.145142096	0.574608917	0.119336468	0.603551161
0.028232766	0.882328469	0.028082169	0.694946368	0.175555818	0.695786864
0.401549669	0.877351918	0.487143912	0.564711327	0.170536284	0.607777285
0.054260203	0.875636039	0.884037624	0.690319464	0.170437912	0.175315465
0.484466084	0.392646775	0.876858356	0.625388294	0.582386464	0.170745107
0.083563204	0.076099802	0.855321115	0.648614576	0.627624213	0.149284921
0.103163865	0.099344751	0.841523867	0.627804075	0.602718882	0.135030556
0.078926955	0.855515545	0.102984405	0.623691157	0.149464247	0.643456934
0.11143476	0.864519791	0.854953839	0.592306979	0.155960264	0.154906409
0.133903588	0.825256838	0.13683736	0.576734817	0.11877047	0.605540452
0.081500086	0.868984421	0.092674992	0.656749574	0.162615479	0.670502277
0.475726833	0.413855288	0.877443931	0.607919859	0.568343927	0.170588438
0.445564625	0.87748926	0.437835998	0.562620054	0.170346434	0.591819441
0.063352443	0.060013821	0.065530203	0.651982066	0.651912105	0.651521401
0.401570713	0.877695648	0.481169421	0.548307047	0.170623972	0.590293766
0.463845138	0.425765121	0.877394051	0.60757149	0.570883275	0.170521768
0.866922493	0.86653424	0.087847845	0.159304689	0.162108625	0.619344205
0.054285089	0.88105846	0.054644958	0.690599588	0.175355914	0.690179466
0.825804966	0.220188127	0.223521648	0.119261204	0.609162439	0.582317204
0.856251412	0.123041046	0.863849348	0.156287781	0.588473192	0.15525669
0.861475501	0.847002827	0.147478159	0.152782998	0.15061064	0.562783545
0.868950034	0.077574117	0.079988974	0.162482467	0.677375134	0.665597209
0.099715397	0.841698763	0.092860659	0.604170106	0.134871524	0.629605774
0.102244553	0.84145083	0.08335151	0.605958578	0.134849819	0.631163549
0.094254761	0.338901514	0.287870754	0.622656658	0.629809418	0.624444167
0.429498195	0.877396278	0.459541513	0.524328236	0.170798029	0.559929593
0.46985648	0.415687362	0.877347448	0.575354654	0.53606491	0.170559616
0.41554651	0.877383901	0.470021732	0.535924764	0.170561179	0.575238844
0.054220893	0.881180376	0.05459306	0.690341895	0.175412918	0.690080795
0.092071368	0.079888884	0.869085326	0.670203861	0.6576485	0.162605285
0.446338791	0.877324785	0.437053535	0.546043329	0.170630184	0.575678079
0.844603065	0.141834809	0.860483298	0.149726812	0.564433585	0.153386829
0.876004664	0.883654214	0.013707059	0.170414285	0.175601725	0.697350471
0.862365039	0.845816445	0.141674698	0.153973654	0.150111769	0.564543189
0.072326601	0.065809817	0.086635707	0.67057758	0.669863335	0.670827394
0.071684138	0.855144799	0.07963559	0.627699036	0.148780903	0.647749192
0.066739227	0.053013599	0.082116954	0.672831265	0.67273239	0.673867891
0.404146455	0.877552207	0.473517409	0.586000458	0.1704822	0.625752986
0.048181865	0.041870317	0.073666645	0.677486932	0.677989674	0.680176319
0.869070666	0.098580765	0.081492184	0.162717001	0.667730142	0.656146793
0.040820128	0.880978978	0.04109445	0.69305731	0.175478363	0.692394907
0.083537586	0.076087714	0.855327133	0.648579106	0.627612274	0.149025271
0.419849184	0.877549316	0.470203787	0.521021378	0.170581822	0.559696373
0.419875271	0.877649217	0.470278332	0.521015053	0.17073916	0.559677948
0.429767314	0.877775291	0.459644507	0.524352995	0.170632248	0.559839102
0.877816563	0.470423064	0.419898763	0.170871874	0.559721534	0.521075028
0.100181001	0.841819547	0.11400715	0.600425834	0.134894648	0.625613913
0.048210476	0.045304421	0.052807128	0.656146602	0.656169054	0.656212845
0.86926176	0.090969468	0.078520043	0.162666331	0.67259427	0.658862812
0.128330161	0.122680758	0.203510134	0.617907522	0.619294689	0.618786792
0.111532886	0.86439831	0.855298158	0.592074654	0.156278191	0.155295543
0.445706127	0.877461768	0.43789351	0.562597973	0.170400824	0.591820074
0.484901654	0.39302776	0.87767986	0.625440117	0.582382593	0.170557357
0.87439449	0.882349027	5.49578E-06	0.170372551	0.175518678	0.699338743
0.469814082	0.877411695	0.442261375	0.531051677	0.170800968	0.559983578
0.872466964	0.874857528	0.075966924	0.165286417	0.168611219	0.650579611
0.841714018	0.113788558	0.100413209	0.135128918	0.625890227	0.600533092
0.855898168	0.116689553	0.864824556	0.156096441	0.590344002	0.156428664
0.054663737	0.054230905	0.882084309	0.690051945	0.689999626	0.175499379
0.055330978	0.87171671	0.874397019	0.654666421	0.164402341	0.168665421
0.083608104	0.868812163	0.093821951	0.655274668	0.162772886	0.668571156
0.067687177	0.067627016	0.067859662	0.636658892	0.636513964	0.636919025
0.086620185	0.077486767	0.868978427	0.672852002	0.660727146	0.162536349
0.079476183	0.869225823	0.087512407	0.660978952	0.162545387	0.673692328
0.875964837	0.065214317	0.873197491	0.169200088	0.652785017	0.164891716
0.131473529	0.827641871	0.141302723	0.577402593	0.119790927	0.605932516
0.066522466	0.052880096	0.081444259	0.673226664	0.672393301	0.673899048
0.14742002	0.859593148	0.845138479	0.562762009	0.152763989	0.150337118
0.87495982	0.065207761	0.871765388	0.168698872	0.652924347	0.164565413
0.071748367	0.855222663	0.079626026	0.627608734	0.149028219	0.647852128
0.086336134	0.077740553	0.869073516	0.671733795	0.660481092	0.162569577
0.091905325	0.07783909	0.86917449	0.671977873	0.657703616	0.162569088
0.103438525	0.842077974	0.125170965	0.598120103	0.13523546	0.623552097
0.219010615	0.826458228	0.220555143	0.584071963	0.119279147	0.612625323
0.461929537	0.415369954	0.877272061	0.626306115	0.58956251	0.170741714
0.074201882	0.855518319	0.091154777	0.625759316	0.14932738	0.645622306
0.127081635	0.123150978	0.202297753	0.617897999	0.619550428	0.619103266
0.241412224	0.82616761	0.238337985	0.585473214	0.118656236	0.611537527
0.884153743	5.49502E-06	0.875216824	0.175637487	0.699257632	0.17044216
0.484678583	0.392839747	0.87726561	0.625247893	0.582501164	0.170333643
0.473393142	0.403991541	0.877274449	0.62575008	0.586223218	0.170554041
0.877472839	0.480809724	0.410204627	0.170504289	0.559512489	0.517429794
0.855505793	0.06894658	0.071404596	0.149081606	0.649731916	0.629390774
0.480685045	0.405953763	0.877447766	0.575168139	0.532703547	0.170587561
0.099724398	0.841638404	0.092819539	0.604146252	0.134877835	0.629601272
0.863462831	0.857249661	0.130380532	0.155497684	0.157328044	0.586511078
0.078951372	0.855225986	0.102958856	0.623736081	0.149404026	0.643315489
0.08133841	0.084640748	0.868541999	0.676020307	0.663664824	0.162664941
0.869233418	0.091622037	0.079734894	0.162661041	0.672359147	0.658682248
0.028304461	0.027971765	0.880903395	0.694600507	0.695298917	0.175302608
0.04873829	0.041422248	0.073753715	0.677419334	0.677698864	0.679627737
0.459311066	0.429367931	0.877029039	0.559880189	0.524354879	0.170652945
0.126072505	0.825987377	0.144067277	0.57510126	0.119234789	0.603561363
0.867117399	0.865591411	0.081540829	0.159485963	0.161619988	0.621339435
0.415751291	0.877459603	0.469952494	0.536079961	0.170576927	0.575442095
0.856446023	0.065782637	0.079293079	0.14907942	0.653342326	0.632056487
0.865410072	0.077052804	0.867436475	0.161339297	0.623243028	0.159980242
0.824606679	0.235637713	0.24753523	0.118929436	0.605517122	0.579171953
0.054065464	0.051223304	0.056655559	0.65416254	0.654298356	0.655015649
0.072515273	0.070055622	0.074892263	0.649639736	0.650022715	0.650075948
0.079709851	0.869204196	0.081619085	0.66303279	0.162403173	0.675914307
0.856348992	0.066172632	0.079083549	0.149040656	0.653408669	0.632152439
0.876271289	0.884033063	0.027323872	0.17105665	0.17574884	0.69512023
0.115487906	0.113024553	0.175478943	0.617816526	0.6183574	0.618497543
0.116746578	0.864189841	0.856139752	0.590367102	0.155654911	0.155844087
0.137171304	0.862007919	0.845604085	0.566213856	0.154077012	0.148835291
0.40152253	0.877258321	0.48077794	0.547973606	0.170051032	0.58958346
0.842939151	0.13724016	0.86057684	0.147973715	0.566195122	0.153824514
0.054649398	0.054230858	0.882033224	0.69011132	0.689980598	0.175493884
0.100200727	0.841804392	0.11403765	0.60074894	0.1351127	0.625876027
0.877721689	0.884533057	0.054281835	0.171056638	0.175373804	0.690562296
0.080327079	0.083581506	0.868878614	0.67557806	0.663586409	0.162678224
0.425560594	0.877312746	0.459085953	0.539557575	0.17055331	0.575618306
0.448360613	0.877354143	0.444882142	0.578952196	0.170591579	0.609054035
0.0997606	0.841681523	0.092857707	0.604182252	0.134877041	0.629571839
0.87510892	0.882435111	0.040859938	0.170127651	0.174632566	0.693097526
0.134028712	0.125725866	0.826188136	0.606258733	0.576996965	0.118264805
0.469896665	0.411540859	0.877340366	0.590639087	0.551521692	0.170809503
0.203286031	0.825311536	0.205924119	0.584027768	0.118762832	0.610875171
0.855554386	0.079832133	0.071603788	0.149384276	0.647775186	0.627576488
0.864727986	0.855392043	0.111437292	0.156512524	0.155010979	0.591964931
0.068983197	0.079599141	0.85519167	0.651923932	0.632356958	0.148785068
0.217135717	0.205437343	0.82555264	0.60838216	0.579925692	0.118673315
0.447987181	0.43595874	0.877257004	0.575473819	0.542736072	0.17058342
0.505394667	0.53095367	0.877840974	0.562490698	0.533101754	0.170988253
0.422123903	0.877370586	0.459146315	0.555186067	0.17043549	0.590948129
0.027418432	0.076942383	0.076682217	0.678623492	0.680191741	0.67857689
0.105896651	0.082670083	0.85552372	0.642884922	0.623741087	0.149294915
0.054057526	0.05154173	0.056855803	0.654048092	0.654301594	0.654381746
0.06240674	0.062535676	0.062370663	0.638102839	0.638302626	0.638563869
0.028140954	0.02825833	0.881919311	0.694769785	0.695354156	0.175228703
0.067297293	0.05213019	0.080871497	0.672972694	0.672885757	0.674417151
0.883831619	0.054278956	0.875875514	0.175529666	0.690615618	0.17034107
0.14178718	0.860520515	0.844292283	0.564669471	0.152976299	0.149031388
0.855499194	0.068949092	0.071405174	0.149092281	0.649727796	0.629381075
0.882813008	0.05426925	0.876253149	0.175098393	0.690447434	0.170529502
0.05533424	0.871327632	0.875477876	0.654556261	0.164818955	0.169034412
0.8667535	0.866940473	0.104016568	0.159039802	0.162967603	0.615397309
0.855171033	0.091372171	0.074247406	0.1490399	0.64566105	0.625592656
0.141813701	0.858913688	0.843330209	0.56459452	0.153021949	0.149173494
4.7916E-06	0.881335123	4.92331E-06	0.69950059	0.175154952	0.699261329
0.106199514	0.082467064	0.855319734	0.64277243	0.623757211	0.149298116
0.877334169	0.459004605	0.425590202	0.170586145	0.575605764	0.53956177
0.125104977	0.103249394	0.841774608	0.623611911	0.598409246	0.1353481
0.062838068	0.060105728	0.065114086	0.651750139	0.652018261	0.651649114
0.874780259	0.065209351	0.871928035	0.168740868	0.652952776	0.164567835
0.877340884	0.451298402	0.431994273	0.170550384	0.609286891	0.576002122
0.046660015	0.047768537	0.051850741	0.65695028	0.658350827	0.658410795
0.855538306	0.111552656	0.864700651	0.155415181	0.592167529	0.156315199
0.133778415	0.861349842	0.842859165	0.567783781	0.154539276	0.147436629
0.8773687	0.473426726	0.40405394	0.170480544	0.625902483	0.585962946
0.867425588	0.86530293	0.077283102	0.159748467	0.161232177	0.622998083
0.425572995	0.877323166	0.459108991	0.539559274	0.170579704	0.575621381
0.168513639	0.091430596	0.179550889	0.614350533	0.616549795	0.616618033
0.401574349	0.877346138	0.487046771	0.564710634	0.170536904	0.607778114
0.062462198	0.062521197	0.062392467	0.638103597	0.638320976	0.638547676
0.41558207	0.877384213	0.470098629	0.535924467	0.170561135	0.575241236
0.87734886	0.458991784	0.425610936	0.170566462	0.575596094	0.539532721
0.877072909	0.438526023	0.438521408	0.170435504	0.626503963	0.596512408
4.92528E-06	4.79854E-06	0.881548028	0.698794353	0.699260256	0.175376824
0.103510716	0.841715186	0.125055836	0.598191948	0.135198486	0.623323786
0.86018251	0.846989273	0.153986369	0.152556263	0.151654412	0.560921099
0.825627497	0.138315948	0.128364466	0.119076545	0.60566852	0.57679787
0.099786072	0.841577921	0.092776177	0.604211616	0.134894661	0.629566803
0.425537509	0.877284417	0.459077285	0.539632892	0.170569282	0.575655264
0.437025275	0.446340653	0.87729552	0.575630521	0.546037334	0.170612559
0.877326032	0.480532518	0.405670603	0.170571304	0.575190895	0.532856663
0.445669316	0.877488819	0.437862241	0.562616014	0.170385687	0.591829265
0.079612761	0.86928933	0.082641872	0.66285256	0.162526709	0.67484511
0.859156845	0.845446242	0.147448429	0.152593171	0.150495749	0.562803525
0.046272372	0.04958221	0.053105146	0.657936781	0.658714442	0.658757486
0.212137191	0.825136363	0.204471336	0.583820543	0.119003726	0.611316252
0.484849348	0.392996563	0.877593406	0.625530336	0.582421194	0.170857144
0.113766624	0.100000261	0.841843859	0.626134669	0.600905399	0.135074555
0.88389793	5.49704E-06	0.876253484	0.175691152	0.699286894	0.170957061
0.445114118	0.877531823	0.438395511	0.561961447	0.170511446	0.591656825
0.125084548	0.103086652	0.841614956	0.623987819	0.598910003	0.135338073
0.841723434	0.092760152	0.099870267	0.134784297	0.629487166	0.603963606
0.099227811	0.081648494	0.868991066	0.665716458	0.655891021	0.162844539
0.868875136	0.098710283	0.082341244	0.162819542	0.667436499	0.655488723
0.147703605	0.131176411	0.825740081	0.60424554	0.575151446	0.119220115
0.013763373	0.014315504	0.014200661	0.697231621	0.697553827	0.697245526
0.014153775	0.881101581	0.014412428	0.697114472	0.17517873	0.697422638
0.041115468	0.040920742	0.882052542	0.691827194	0.692878495	0.175671365
0.867014032	0.866410854	0.095495338	0.159435994	0.162487234	0.617484623
0.875249197	0.047095807	0.87288462	0.168515644	0.6569751	0.165890157
0.411836609	0.877368924	0.470253048	0.551185935	0.170362758	0.589860543
0.055318887	0.871673434	0.874531261	0.654634067	0.164237016	0.168615498
0.415485474	0.87750605	0.462047855	0.589753276	0.170570219	0.626137792
0.877167177	0.437010847	0.444251645	0.170421045	0.591961137	0.56233205
0.082771701	0.868994992	0.09332806	0.656111309	0.162651085	0.668762914
0.081748493	0.867570575	0.865289308	0.621083835	0.1596398	0.161530529
0.086550057	0.078319627	0.86895347	0.671784872	0.660585111	0.162568569
0.092746576	0.099719464	0.841738168	0.629552614	0.604338987	0.134849938
0.872188578	0.873299777	0.046521777	0.165158086	0.168132064	0.658936561
0.86015862	0.844772849	0.14747605	0.152829171	0.150584992	0.562810116
0.054626351	0.054239377	0.88195119	0.690091398	0.690121849	0.175439719
0.877510529	0.480917248	0.40137151	0.170379661	0.590154701	0.54794103
0.865713399	0.076991802	0.867885118	0.161220027	0.623327056	0.159949117
0.882859305	0.040852068	0.876536068	0.174845386	0.69289896	0.170761922
0.445672093	0.448711256	0.877331048	0.608475248	0.578262681	0.170605917
0.086489299	0.868364297	0.083867494	0.663857355	0.162510365	0.675263689
0.437046968	0.446355987	0.877333289	0.575666157	0.546044872	0.170644311
0.123211568	0.862959517	0.857089505	0.588456573	0.154946383	0.156201322
0.867191578	0.864921488	0.077081807	0.159489053	0.161130491	0.622978128
0.438539498	0.438534727	0.877100014	0.62659552	0.596430704	0.17051222
0.513809376	0.523995479	0.87760235	0.563438084	0.535062958	0.170755483
0.425559994	0.877312421	0.459085954	0.53955743	0.170553287	0.575618488
0.077518817	0.86923558	0.085818085	0.661348046	0.162568897	0.673595243
0.448424119	0.439223035	0.876718907	0.559786232	0.527673521	0.170555697
0.028294929	0.02764227	0.881787983	0.69470418	0.69528874	0.175052247
0.096646021	0.328644157	0.274578844	0.622370831	0.625215562	0.623087992
0.843115082	0.133673307	0.860545169	0.147687048	0.567759756	0.154817973
0.874462737	0.065162695	0.872708191	0.169103105	0.652664172	0.165294037
0.880810069	0.014199987	0.013891252	0.175211478	0.696445536	0.697103501
0.100336365	0.841689404	0.113935166	0.600267717	0.134952842	0.625647934
0.099385668	0.841552411	0.103057343	0.602448234	0.135094917	0.627622335
0.480529718	0.405926138	0.877317007	0.575058605	0.532551637	0.170571822
0.872889329	0.874103323	0.047193557	0.165249286	0.168512606	0.65698181
0.863550002	0.856775282	0.12308664	0.155247524	0.156470108	0.588717188
0.1287208	0.826644359	0.140328835	0.576911216	0.11887957	0.605553713
0.877496089	0.448866622	0.439558117	0.170694057	0.559682077	0.527747449
0.876348511	0.883963342	0.054274593	0.170762422	0.175907027	0.690507384
0.130497476	0.862732096	0.857538881	0.586496623	0.154676463	0.156748515
0.859471511	0.84543623	0.147478247	0.152574814	0.150452284	0.562747843
4.83083E-06	0.880895834	4.85804E-06	0.6993353	0.175054172	0.699117221
0.866460684	0.865993199	0.09547514	0.159196472	0.162266547	0.617292281
0.242008617	0.825919159	0.233840552	0.584973201	0.118908857	0.612397905
0.873977578	0.047115845	0.872376218	0.168311564	0.656958452	0.165074474
0.862047193	0.843489593	0.133807595	0.155127748	0.147972465	0.567702319
0.078720555	0.869370361	0.081311441	0.663300437	0.162452484	0.674990348
0.205548902	0.825439355	0.218590298	0.583015376	0.119048627	0.610009361
0.085925834	0.077488827	0.86884915	0.673042865	0.66099005	0.162493422
0.864254158	0.857053393	0.123121066	0.155288335	0.156518653	0.588665389
0.319732937	0.825767561	0.309127329	0.582987165	0.11873861	0.612001855
0.867663784	0.86608614	0.081594169	0.159874558	0.161727931	0.621388275
0.072465443	0.069901634	0.074292283	0.649613925	0.649795982	0.649925376
0.88336018	0.027323053	0.875149191	0.175170552	0.695158518	0.16992649
0.083539518	0.869207618	0.080099209	0.664786456	0.162658231	0.677460352
0.130507898	0.863105153	0.857225974	0.586559665	0.154973616	0.157192942
0.876215219	0.047104667	0.873221578	0.168622699	0.656955256	0.165578395
0.415440364	0.877406538	0.461993458	0.589521346	0.1706948	0.626247867
0.425552875	0.877411583	0.464219269	0.573551607	0.170587283	0.609894352
0.434648943	0.877369363	0.455526651	0.576288506	0.170626626	0.609944621
0.876857721	0.438418162	0.438413408	0.170161712	0.62664867	0.596322678
0.048034681	0.045243274	0.05222765	0.656156051	0.656221845	0.656222789
0.103771499	0.86637852	0.867281954	0.615227626	0.159049972	0.162844015
0.866177302	0.095582688	0.865901144	0.162285558	0.617787243	0.15884842
0.087986067	0.867494943	0.865726839	0.619208213	0.15943793	0.162153476
0.041103254	0.040784138	0.881395493	0.692408116	0.692680236	0.175394299
0.88106684	0.027730431	0.027425375	0.175348151	0.694681416	0.695098364
0.081313653	0.855361809	0.067906826	0.631993447	0.148842375	0.653105485
0.154046587	0.85863453	0.846473702	0.560872267	0.151759475	0.151156609
0.825696475	0.28496099	0.298409276	0.118635554	0.613391573	0.584983574
0.8773681	0.469876278	0.415505162	0.17053695	0.575350352	0.536086928
0.867649153	0.86547128	0.077253309	0.15976712	0.161261154	0.622958061
0.844784553	0.147403795	0.860512688	0.150917972	0.562780726	0.153371109
0.027331003	0.875297212	0.884023617	0.69539175	0.170729715	0.17588068
0.8417962	0.103109839	0.099185294	0.134875164	0.627844866	0.602574565
0.082931453	0.869170745	0.079095029	0.664474408	0.162530162	0.677532805
0.080484856	0.21931127	0.219874023	0.620138665	0.625761155	0.628076494
0.480715211	0.40131913	0.877355745	0.590270504	0.547984465	0.170499491
0.130161079	0.128003762	0.098739477	0.611044224	0.610108347	0.614650813
0.141823288	0.861578215	0.844360417	0.564657802	0.153045506	0.14912073
0.868917308	0.081772571	0.072307244	0.162659798	0.673098416	0.660539052
0.48466526	0.392816978	0.877229595	0.625544916	0.58233495	0.170845771
0.11378533	0.100085817	0.841790162	0.626127964	0.600883863	0.135072081
0.876589469	0.882468701	0.013705824	0.170670101	0.174943607	0.697264662
0.079977565	0.869294575	0.08279004	0.662814081	0.162517546	0.674845428
0.841792413	0.083367169	0.102226695	0.134777682	0.631196454	0.606053942
0.877353789	0.461976883	0.415403514	0.170478266	0.626153957	0.589753382
0.106285349	0.082778871	0.85609152	0.643265772	0.623689648	0.149522492
0.041056762	0.041255688	0.041280824	0.69286798	0.693095424	0.692408988
0.86409097	0.855889336	0.123066249	0.155532564	0.156670224	0.588609223
0.054903984	0.0545941	0.055097742	0.690090228	0.690471911	0.690886395
4.89107E-06	4.90269E-06	0.881296058	0.699347413	0.699448717	0.1752614
0.877355707	0.437073937	0.446348674	0.170616337	0.575715345	0.546065411
0.877056991	0.498639144	0.482129974	0.169867193	0.559195038	0.530601527
0.099171522	0.84215656	0.103202239	0.602606394	0.134896987	0.628010482
0.084241187	0.868906977	0.079862885	0.664922668	0.162593679	0.676476237
0.877330256	0.461962781	0.415394396	0.170437517	0.626136861	0.589755638
0.865257176	0.077127969	0.867641939	0.161194336	0.623002177	0.160110743
0.855477674	0.111546137	0.864925903	0.155535725	0.592255916	0.156585805
0.078419639	0.081118859	0.868887594	0.675130005	0.664278597	0.162529292
0.078355429	0.868963689	0.08606973	0.661038727	0.162482346	0.673522965
0.415547003	0.877320921	0.470010587	0.535919507	0.170589497	0.575274096
0.877351854	0.482167077	0.512438068	0.170645749	0.560850128	0.532172007
0.083382301	0.102227261	0.841791161	0.63118635	0.606095254	0.134714305
0.869042594	0.098520693	0.080404818	0.162756503	0.667504322	0.656049759
0.054697969	0.054569965	0.054946124	0.690057219	0.69016823	0.690259448
0.071383631	0.856154839	0.06879872	0.629736511	0.149061849	0.649739744
0.863572922	0.856391325	0.123123938	0.155398861	0.156355841	0.588365235
0.179393503	0.091455775	0.189758915	0.615678735	0.616388994	0.616206513
0.082974217	0.869095647	0.098881622	0.654659617	0.162599103	0.667530928
0.864622475	0.854505947	0.111433027	0.155892729	0.154436734	0.591918924
0.429599919	0.877513004	0.459557161	0.524284655	0.170843718	0.559818756
0.877322192	0.473317989	0.410069238	0.170571559	0.608844506	0.569238221
0.062532611	0.062404791	0.06244695	0.638758091	0.638629854	0.638536289
0.132623671	0.825875558	0.139163534	0.576526128	0.118650525	0.60565762
0.095522742	0.866675816	0.866782516	0.617315757	0.159050418	0.162458752
0.108005314	0.865123374	0.854577189	0.593647205	0.156901364	0.15478441
0.103162974	0.099159579	0.841475541	0.627616952	0.602510596	0.13501793
0.877262691	0.480595823	0.401390398	0.170103402	0.589944865	0.548331566
0.864198072	0.85650808	0.116666604	0.15580273	0.15595193	0.590272336
0.880653203	0.027608507	0.027377182	0.175504692	0.694806232	0.695175701
0.868990842	0.098491724	0.081977137	0.16278598	0.667485326	0.655850361
0.855396616	0.111520145	0.864103336	0.155555581	0.592276481	0.15667633
0.864754057	0.855236425	0.107804867	0.156448339	0.154518606	0.593576899
0.877316975	0.480678224	0.401388648	0.170123499	0.590299242	0.548134426
0.467461325	0.878106663	0.445464358	0.532061902	0.170785292	0.561005539
0.485221913	0.39338014	0.878349595	0.625501404	0.582400956	0.170592112
0.860104505	0.846747168	0.153967909	0.152505213	0.151724656	0.560832067
0.448869893	0.439815277	0.877756569	0.559666854	0.527805418	0.170602065
0.075025497	0.074910812	0.075103546	0.634137027	0.634337822	0.634774
0.825595021	0.13784131	0.129889001	0.118916364	0.60446254	0.575449609
0.123222467	0.862228872	0.855368979	0.58843397	0.154783815	0.156097915
0.480683716	0.405949161	0.877442997	0.575168676	0.532701689	0.170588577
0.444878899	0.877451694	0.438326875	0.561928352	0.170590017	0.591629853
0.484842334	0.392978946	0.87757088	0.625399015	0.582373339	0.17050094
0.154033893	0.859222102	0.847740777	0.560849365	0.152090495	0.151405565
0.075368028	0.076798634	0.856139226	0.649647175	0.629583945	0.149203099
0.104077713	0.866423065	0.866985773	0.61523671	0.158783203	0.162841148
0.877369498	0.461613176	0.422156758	0.170576286	0.609516142	0.573134927
0.102220337	0.841586374	0.083394978	0.606118613	0.134754197	0.631278164
0.843663443	0.137306314	0.861365921	0.148862289	0.566242904	0.154599701
0.432587585	0.877567748	0.448365862	0.558645247	0.170566824	0.591550994
0.877193972	0.448647031	0.439477786	0.170439818	0.559865949	0.527619266
0.054287986	0.875347724	0.882632874	0.690730934	0.170843998	0.174907015
0.876796198	0.883809828	5.49603E-06	0.171379066	0.175672025	0.699209355
0.054285296	0.875994594	0.882979434	0.69071112	0.170876717	0.175200186
0.448267151	0.435946589	0.877528181	0.575538254	0.542679074	0.170612375
0.881449145	0.013971153	0.014136071	0.17549123	0.696972771	0.697316738
0.872578969	0.875614137	0.075917846	0.16501621	0.168822573	0.650524469
0.066549455	0.052776361	0.081376515	0.673306213	0.672312219	0.674008193
0.339125649	0.332919711	0.824769682	0.612736327	0.586520741	0.118627858
0.099750937	0.841653158	0.092856047	0.604215987	0.134875276	0.629565106
0.415695895	0.877421815	0.469970693	0.536115877	0.170578237	0.575463883
0.869024558	0.083387105	0.074580997	0.162541346	0.67138209	0.659171001
0.876413553	0.883106271	0.040853964	0.171141305	0.175446225	0.693014998
0.480827244	0.410135698	0.877421738	0.559275372	0.517604583	0.170535143
0.438549313	0.438544541	0.877119636	0.626597331	0.596436206	0.170515938
0.855558313	0.069009664	0.07136169	0.148998307	0.649725162	0.629456244
0.41319477	0.877434721	0.475623291	0.568253035	0.170613889	0.608081173
0.88287281	0.040854614	0.876150786	0.174687201	0.69293372	0.170735465
0.862788063	0.844008017	0.133800325	0.155492927	0.148671065	0.567727654
0.161566587	0.091845782	0.166180518	0.619782917	0.616616564	0.620343962
0.855913213	0.079758086	0.07162736	0.149390477	0.648145104	0.627266964
0.872798912	0.874432421	0.047229581	0.16513258	0.168302946	0.657030206
0.099855293	0.841681408	0.092801349	0.604248773	0.134874178	0.629512741
0.438120367	0.44529544	0.877610002	0.592395004	0.562878223	0.170903906
0.845191767	0.147403564	0.86059272	0.150143199	0.562754418	0.15257492
0.868961873	0.080981495	0.078270886	0.162569712	0.674992118	0.663184136
0.147462967	0.859696469	0.845541825	0.562645428	0.152770743	0.150363026
0.13371188	0.828229816	0.141971265	0.57689053	0.1193035	0.6051348
0.87275032	0.87422496	0.075968081	0.164726012	0.168164364	0.650564678
0.014233965	0.881706234	0.01404422	0.697393436	0.175124156	0.697119979
0.480580861	0.401189248	0.877102052	0.58996136	0.548241153	0.170009491
0.108113044	0.865023475	0.855107209	0.593551726	0.156744386	0.154519336
0.438546948	0.438542177	0.877114909	0.626596906	0.59643497	0.170514976
0.427093807	0.877618124	0.450509726	0.592888519	0.170714109	0.62652071
0.074980201	0.076835827	0.85529463	0.649567158	0.629664811	0.149269939
0.855963164	0.066005891	0.078883175	0.149226328	0.652771673	0.631910817
0.484615686	0.392786363	0.877149063	0.62551934	0.582300174	0.170858269
0.842103768	0.12492906	0.103807468	0.13514978	0.623498493	0.598050906
0.877412176	0.484749187	0.392915801	0.170411314	0.625246668	0.582442744
0.882938579	0.054273954	0.875802879	0.174857439	0.690511064	0.170377234
0.448120283	0.436003636	0.87740472	0.575573231	0.542812165	0.170587805
0.116711482	0.864069725	0.855870268	0.590364982	0.155675932	0.155814472
0.401392267	0.877360046	0.487316028	0.564717898	0.170535366	0.607785395
0.860959153	0.84622458	0.147399745	0.153279552	0.150986777	0.562692027
0.845670448	0.14182109	0.861047342	0.150254368	0.564576421	0.153885982
0.439075443	0.876573563	0.448424199	0.52763649	0.170634095	0.559839147
0.824967309	0.201478964	0.191931655	0.118782818	0.610137306	0.578551327
0.877468959	0.473069864	0.410260451	0.170620933	0.608992024	0.569435251
0.103095609	0.099206703	0.841561749	0.627718547	0.602472603	0.135020862
0.079724059	0.86925615	0.082152416	0.663587755	0.162431438	0.675464957
0.048945077	0.045156067	0.053095068	0.655554807	0.656369263	0.655968358
0.221655018	0.826469753	0.223029466	0.583752494	0.119268061	0.612635184
0.874308713	0.076031877	0.87194037	0.168960186	0.650584855	0.165078928
0.872554574	0.874226318	0.075962747	0.165035582	0.168467879	0.650511042
0.147455586	0.860058715	0.845339978	0.562634993	0.15272705	0.150332503
0.072316438	0.069971695	0.074296301	0.649585647	0.649828266	0.649608168
0.882249143	0.041125404	0.040811355	0.175680106	0.692214144	0.692490359
0.866153294	0.08794864	0.867393468	0.162370862	0.619197287	0.159685928
0.091288101	0.074614277	0.855465804	0.645537826	0.625564306	0.149266421
0.877383435	0.44809194	0.435866759	0.170573505	0.575749317	0.54281062
0.130463085	0.862758534	0.857391269	0.586433043	0.154918021	0.156976635
0.080366254	0.869009796	0.081979686	0.663130545	0.162550105	0.675954833
0.857044997	0.123084521	0.863779819	0.156706125	0.588431168	0.155839452
0.065237107	0.871154408	0.874714571	0.652881721	0.164448453	0.168755184
0.877227955	0.4926811	0.497007596	0.170550299	0.561323402	0.531647787
0.099940514	0.841722457	0.114081481	0.600750313	0.135021806	0.625841795
0.877401166	0.469897799	0.415504911	0.17053345	0.575552013	0.53624341
0.116673519	0.864339755	0.85599849	0.59035117	0.155629311	0.155924161
0.074954979	0.074837668	0.075101123	0.634396296	0.634288147	0.634619435
