Va	Vb	Vc	Ia	Ib	Ic
0.465545327	0.424382211	0.877391427	0.608790232	0.572118702	0.170570018
0.877393181	0.462768737	0.420621731	0.17066267	0.609496494	0.572982478
0.075986986	0.871071802	0.874388444	0.650559501	0.164636927	0.168504478
0.076986768	0.86811652	0.865931167	0.623218141	0.160275723	0.161416907
0.855442022	0.102883687	0.078901008	0.149296888	0.643341483	0.623600547
0.480721415	0.406003448	0.877504443	0.574777052	0.532334619	0.170569327
0.429516974	0.877279229	0.459419458	0.524289139	0.170889798	0.559866508
0.877430993	0.480825912	0.410140539	0.170570977	0.559408671	0.517405698
0.438676392	0.877383833	0.438681067	0.596455637	0.170487006	0.626625577
0.856434516	0.116701759	0.864445191	0.155906582	0.59023592	0.156219957
0.877482125	0.878288254	0.877964737	0.170692979	0.170859709	0.171048035
0.054268095	0.876984935	0.883065861	0.690408339	0.171513565	0.175530783
0.841556905	0.113737175	0.100372501	0.135150168	0.625760257	0.600801021
0.124682866	0.103205466	0.841730866	0.624175408	0.598595686	0.135153118
0.87274356	0.875223183	0.045893044	0.165109172	0.168563257	0.658198182
0.073200557	0.854433484	0.071200579	0.629649727	0.148942525	0.649796542
0.162623642	0.149825279	0.095298041	0.617598862	0.617056535	0.615576212
0.231025206	0.224390916	0.827227892	0.60866093	0.577388694	0.118927031
0.06245262	0.062490216	0.062418055	0.638268243	0.638275444	0.638598939
0.459299292	0.422322463	0.878061907	0.59097376	0.555116748	0.170302188
0.877369452	0.437091352	0.444365646	0.170682234	0.591456577	0.561760326
0.88327208	0.027328102	0.875524598	0.175360702	0.695251541	0.170840485
0.861429831	0.843301183	0.137255334	0.154630648	0.148949271	0.566105195
0.877293399	0.440341697	0.444048921	0.170516087	0.608049783	0.577724434
0.065204212	0.871553357	0.875213749	0.652896552	0.164555527	0.168737617
0.8460999	0.147494095	0.860820854	0.150921556	0.562835952	0.153218893
0.145198299	0.825603362	0.148008743	0.574644333	0.11913978	0.605030167
0.876708063	0.438343296	0.438338539	0.17031374	0.626576999	0.596478742
0.87807905	0.448985515	0.440006658	0.170691197	0.559760119	0.527788543
0.279367236	0.29176643	0.825660894	0.61363116	0.583058984	0.11869148
0.484909718	0.393049922	0.877707813	0.625290158	0.582608156	0.170812989
0.87734771	0.45037849	0.426954521	0.170607172	0.62644686	0.593098843
0.102907443	0.133325206	0.180187623	0.617712309	0.620959305	0.621595037
0.867144202	0.1040354	0.866437284	0.162672797	0.615416418	0.158954279
0.876372232	0.883437002	0.040855238	0.170846613	0.175831097	0.693056888
0.299643969	0.826070485	0.294311312	0.590326255	0.118937247	0.619004768
0.863764698	0.856619821	0.123136164	0.155783318	0.156585914	0.588478533
0.843523135	0.133797671	0.862089993	0.147652504	0.567765106	0.154687669
0.429613232	0.877653599	0.459687996	0.524430413	0.170844351	0.559752686
0.855705669	0.10757017	0.86501081	0.155277322	0.593753171	0.157081185
0.882056753	4.93035E-06	4.85633E-06	0.17542003	0.699255846	0.699270812
0.111447745	0.864139541	0.855423899	0.592104981	0.15583826	0.155072409
0.862137208	0.842864448	0.133733015	0.154788333	0.147558218	0.567682227
0.205249266	0.826568257	0.207244629	0.580416619	0.119201975	0.607381961
0.013817799	0.013975057	0.013785792	0.69665927	0.697505278	0.696611031
0.855274266	0.111425178	0.8643645	0.154997602	0.592010709	0.155904418
0.104120311	0.86677235	0.867268083	0.615518911	0.159222418	0.162826857
0.081631015	0.301624378	0.2876128	0.619715406	0.618121847	0.617704328
0.044971338	0.049398662	0.051977793	0.657909716	0.658389309	0.658508814
0.860902682	0.844173665	0.141773849	0.153632429	0.149686369	0.564486198
0.88247763	0.041070641	0.040880043	0.175682129	0.692273554	0.69299699
0.125239604	0.113329689	0.152076922	0.616409045	0.614318599	0.615198047
0.877257815	0.448706278	0.43946414	0.170675795	0.559956169	0.527586733
0.86165708	0.844988671	0.137231077	0.154430709	0.149249194	0.566283379
0.877490353	0.480495872	0.405828562	0.170552932	0.575122498	0.532776888
0.877087364	0.48088463	0.401216672	0.170534414	0.589652715	0.547765573
0.857227446	0.068790621	0.071763147	0.1494062	0.649891189	0.62980648
0.141751173	0.860668973	0.845450883	0.564501372	0.153461672	0.149656447
0.473479539	0.404099343	0.877467277	0.625874239	0.586044964	0.170540766
0.099293232	0.841955493	0.103137987	0.60228882	0.134895614	0.627753973
0.869115786	0.082927501	0.074540312	0.162560236	0.672859928	0.659551733
0.074800869	0.074961717	0.075217641	0.63428681	0.634329187	0.634461991
0.133730434	0.862151252	0.84341816	0.567771888	0.155259202	0.148248
0.092688201	0.099613283	0.841395189	0.629571985	0.604401377	0.134829167
0.439635859	0.877576682	0.448851218	0.527519814	0.170825477	0.559991088
0.05467761	0.054319504	0.881909	0.689954062	0.690593985	0.175339561
0.099901294	0.081376577	0.869210016	0.669231359	0.657463557	0.16274274
0.0446707	0.873089714	0.875255782	0.659173256	0.165604257	0.168447011
0.843879131	0.137130259	0.861624783	0.148845989	0.566230692	0.154332387
0.133732991	0.862198441	0.843789387	0.567771068	0.155276425	0.148263915
0.045274141	0.048837918	0.054029543	0.656035228	0.655937682	0.656127096
0.866571315	0.0951598	0.867243506	0.162290176	0.617806175	0.159394719
0.448825165	0.439590727	0.877480807	0.559695043	0.527848866	0.170730671
0.425649215	0.877322464	0.459088345	0.539463733	0.170503808	0.575593151
0.099662421	0.841762433	0.092642614	0.604337823	0.13483622	0.629763031
0.08161243	0.078984655	0.868869146	0.675185512	0.663214958	0.162554743
0.882918829	0.027328047	0.876146979	0.175151217	0.695256778	0.170535689
0.062481138	0.062480887	0.062426986	0.638275279	0.638267244	0.638591567
0.459485342	0.429528356	0.877373482	0.559821933	0.524458781	0.170598823
0.877317159	0.878791936	0.878212881	0.170681328	0.170802444	0.170847002
0.01370913	0.877140725	0.884362862	0.697402208	0.170979589	0.175450333
0.054587802	0.054243016	0.880973335	0.690079985	0.690350313	0.175109539
0.014224436	0.014366435	0.881772938	0.697590344	0.697602271	0.175332183
0.076925602	0.868132468	0.865048048	0.623108779	0.160415276	0.161426477
0.881867546	4.82047E-06	0.000004836	0.175405451	0.69917944	0.699313561
0.340693149	0.825835935	0.331003358	0.582614813	0.118918688	0.612235559
0.014300412	0.881472009	0.01457161	0.697292121	0.175492254	0.696976718
0.883389094	0.040851683	0.876155878	0.175149064	0.692949693	0.170654226
0.08771365	0.867062319	0.866529644	0.619484245	0.159533886	0.162449563
0.143091341	0.826099322	0.148969255	0.576203073	0.119266677	0.605659118
0.877266264	0.448123359	0.435751161	0.170599396	0.575684119	0.542808323
0.863913904	0.85675807	0.123109443	0.155664935	0.156500894	0.588560628
0.427147074	0.877730932	0.450568957	0.592934209	0.170833648	0.626500591
0.85655398	0.12303574	0.862715605	0.15640631	0.588425484	0.155396476
0.404297506	0.877871947	0.47368535	0.586156901	0.170891216	0.625869097
0.826282791	0.221152299	0.234953846	0.118807045	0.609640318	0.582336368
0.877620621	0.877714626	0.878223352	0.170685699	0.170965738	0.171238053
0.881496743	4.79883E-06	4.91936E-06	0.175287445	0.699672691	0.699544422
0.459775216	0.429776556	0.877921321	0.559885645	0.524385342	0.17064011
0.480796666	0.405728353	0.87743567	0.574766925	0.532325655	0.17058223
0.877806222	0.448946047	0.439761923	0.170654738	0.559783111	0.527798673
0.562241216	0.877252009	0.553861655	0.537017313	0.170501865	0.565789587
0.130533097	0.320007215	0.220425234	0.622589388	0.623277996	0.621296314
0.221043367	0.238228303	0.826714455	0.608471901	0.576776856	0.118949424
0.877335836	0.458973036	0.425613978	0.170583304	0.575642198	0.539616567
0.065209015	0.871682257	0.87464579	0.652888062	0.164507728	0.168693866
0.103071665	0.078878778	0.855959045	0.643247601	0.62354878	0.149596393
0.842208965	0.133764394	0.862512391	0.148424833	0.567815333	0.155635682
0.402582508	0.87723769	0.486194891	0.565014288	0.17054652	0.607855049
0.480782102	0.41014569	0.877395593	0.559367397	0.517514092	0.170643382
0.877703854	0.480922866	0.401856126	0.170833071	0.59028721	0.547962017
0.881581673	4.87601E-06	4.89985E-06	0.175398874	0.699162223	0.699306534
0.415635817	0.877412191	0.469942573	0.536202646	0.170574067	0.575466437
0.058180285	0.038074454	0.076282779	0.679650532	0.679032526	0.680242163
0.147432537	0.860564709	0.845804343	0.56268634	0.153118769	0.150837705
0.014451265	0.014550722	0.882204582	0.696724969	0.697200634	0.175659614
0.074007166	0.85499895	0.081731238	0.627951036	0.149425095	0.647763667
0.014244258	0.013876752	0.881785398	0.697649521	0.697423844	0.175457171
0.04120293	0.041110044	0.041660861	0.693094172	0.692733976	0.693728212
0.871049282	0.873872979	0.047122172	0.16484168	0.168191097	0.657067633
0.877313518	0.48343244	0.400336539	0.170532781	0.608380717	0.56577052
0.444591762	0.877365803	0.438547791	0.561810904	0.170410039	0.591289737
0.054624996	0.054304327	0.882040357	0.689925865	0.690426014	0.175660541
0.080577513	0.856056876	0.104099264	0.623586636	0.149460447	0.643646231
0.825343581	0.137846203	0.12848271	0.118673577	0.605848902	0.576526774
0.06251463	0.062475496	0.062432852	0.638284673	0.638257978	0.63855568
0.856331223	0.091259216	0.074205505	0.149424423	0.645806687	0.625472202
0.137178058	0.861310653	0.843376548	0.56628787	0.153955711	0.14867323
0.124637229	0.103184615	0.841642635	0.624122809	0.598467801	0.135109309
0.146712791	0.137730447	0.097506304	0.619231062	0.617350039	0.615284725
0.080176448	0.85570893	0.104314722	0.623542371	0.14958531	0.643650224
0.041106835	0.040928976	0.880760891	0.692550987	0.693130036	0.17500424
0.883222958	0.013707005	0.875207623	0.175001263	0.697350922	0.170417239
0.881475678	4.7971E-06	4.91908E-06	0.175285342	0.699680046	0.699516807
0.051737258	0.0539444	0.058523616	0.653762705	0.654093163	0.653557381
0.079309507	0.868728659	0.088291419	0.663145215	0.162685635	0.674650114
0.877743345	0.480918483	0.410367807	0.170894603	0.559585589	0.51735394
0.877283759	0.480720587	0.410106197	0.170955324	0.559585691	0.517343129
0.844332846	0.137200814	0.862238966	0.14907381	0.566356392	0.154521045
0.877463957	0.473459767	0.410312554	0.170561888	0.609077058	0.569160805
0.480816959	0.410159557	0.877446806	0.559343207	0.517504721	0.170637947
0.82595659	0.285054059	0.289081009	0.118523726	0.609798752	0.582823502
0.437106866	0.446369427	0.877408327	0.575775061	0.546052065	0.170610258
0.44243666	0.448179819	0.877336578	0.607829692	0.577290596	0.170588447
0.841577462	0.125174723	0.103627478	0.13530748	0.623076098	0.597738683
0.014635514	0.014397729	0.882150222	0.696940411	0.697016191	0.175732202
0.059269301	0.03864907	0.077955119	0.679801521	0.679095467	0.680122536
0.126570291	0.112032907	0.149394057	0.61591077	0.61305439	0.616067651
0.876099577	0.882932441	0.027316605	0.170566457	0.175814316	0.694976383
0.014431643	0.880955096	0.014813491	0.697336743	0.175209877	0.697349837
0.877349532	0.483835149	0.400143622	0.170500289	0.608199453	0.565452359
0.825737796	0.277178512	0.279767207	0.118329141	0.612336857	0.583828194
5.49174E-06	0.876140979	0.884153863	0.699349077	0.170576679	0.176045432
0.825638812	0.278599022	0.288521652	0.118303079	0.61067843	0.58341626
0.075987343	0.871065716	0.873990658	0.650518321	0.164543807	0.16870761
0.392857758	0.877288347	0.484684468	0.582444386	0.170526703	0.625311598
0.877379648	0.46981205	0.415591534	0.170570862	0.575379055	0.53610645
0.073575336	0.85558644	0.082596894	0.628090395	0.149439476	0.648167173
0.438368628	0.444862977	0.877708216	0.593224151	0.563483205	0.17059385
0.415322181	0.877177074	0.461882073	0.589722981	0.170651922	0.626168687
0.448825758	0.439597381	0.877488042	0.559695499	0.527849054	0.170733728
0.876600183	0.883566741	0.04085545	0.170889231	0.175949209	0.693055063
0.147438936	0.861029638	0.846338546	0.562771376	0.153098626	0.150753397
0.123105018	0.864586413	0.857283185	0.588535099	0.155876806	0.156798162
0.066341482	0.078267093	0.855198035	0.653623409	0.634123247	0.149202925
0.445270692	0.877365807	0.438023727	0.562842604	0.17046833	0.592568332
0.876494691	0.883303416	0.013706569	0.171110059	0.175733146	0.697307203
0.866268813	0.081532923	0.867940672	0.161678558	0.621411642	0.159937672
0.87768154	0.448330479	0.432825538	0.170607053	0.591214299	0.558584529
0.079430613	0.082671551	0.868822842	0.677553263	0.665296926	0.162582747
0.87436217	0.055399015	0.872640445	0.168474771	0.655117199	0.164741321
0.882060369	4.8686E-06	4.86803E-06	0.175455802	0.699273365	0.699228707
0.242569907	0.244642012	0.826175598	0.607183116	0.580894156	0.119010208
0.883391367	0.027327537	0.875587661	0.175363084	0.695249067	0.170827751
0.080420587	0.856230981	0.104280881	0.623627129	0.149409669	0.643654123
0.86712645	0.865661044	0.081696426	0.159514639	0.161617013	0.62100513
0.856494009	0.123072579	0.864154738	0.156474875	0.588480062	0.155773982
0.141752271	0.860749402	0.845731388	0.564512885	0.153608762	0.149788218
0.87737819	0.437082811	0.446362698	0.170591933	0.575737517	0.546087535
0.856774538	0.068705034	0.072120802	0.149417515	0.650054535	0.628629694
0.868874521	0.076043132	0.079018399	0.162517724	0.67644913	0.664366223
0.292798865	0.825842133	0.287510536	0.584245279	0.119011921	0.612168745
0.102224339	0.841249946	0.083344577	0.605821742	0.134797163	0.631330267
0.874036603	0.05538874	0.87186184	0.168589057	0.654917975	0.164688681
0.845130112	0.141797519	0.860346764	0.149655369	0.564522885	0.153462153
0.45905825	0.422125236	0.877615051	0.590855952	0.555016904	0.170567254
0.055326329	0.873126001	0.873982746	0.65476461	0.164805817	0.168385957
0.844644949	0.141799226	0.860267634	0.149645647	0.564516673	0.153437393
0.059445569	0.064496717	0.063486705	0.65206274	0.651347629	0.651317337
0.860134456	0.845949915	0.147409575	0.153206936	0.150882716	0.56258966
0.054600848	0.054271868	0.881738732	0.689841788	0.69030806	0.175589101
0.877527827	0.459636536	0.429536741	0.170553944	0.55957626	0.524543981
0.85568654	0.068675323	0.07208688	0.148960304	0.650185121	0.629547956
0.44577526	0.877355022	0.445430364	0.576702074	0.170544988	0.607060137
0.099272766	0.841802532	0.103205914	0.602549916	0.134912483	0.627677857
0.476008076	0.413075799	0.877282526	0.610131955	0.570681656	0.170556973
0.868895434	0.090521646	0.077565891	0.162677817	0.67132673	0.659290257
0.028077807	0.028186444	0.881396492	0.694758756	0.695225659	0.174858659
0.445269834	0.877372509	0.438023555	0.562846762	0.170466101	0.592564465
0.040952302	0.882908277	0.041166354	0.692830092	0.175590269	0.692608101
0.847010085	0.153925345	0.859397079	0.151553648	0.560958173	0.152134609
0.882330309	0.027844286	0.027382055	0.175550043	0.694663221	0.694848933
0.88136138	0.04127904	0.041060695	0.175477938	0.692479042	0.693033458
0.081640095	0.869274675	0.099454627	0.65639005	0.162635138	0.669044998
0.079888644	0.869025244	0.093893945	0.659176491	0.162693689	0.670389407
0.826364166	0.225933652	0.22269292	0.118752223	0.611779238	0.583642327
0.054612839	0.055150866	0.054636053	0.690247036	0.690165484	0.690215874
0.147452396	0.858926547	0.84583251	0.562866276	0.152543448	0.150371912
0.411610437	0.877529496	0.469990514	0.551576316	0.170522716	0.590518528
0.077075971	0.867553936	0.864462726	0.623178978	0.160115449	0.161149555
0.875096153	0.065225707	0.871421304	0.168780445	0.652802691	0.164461355
0.826419724	0.13553225	0.127021635	0.119135068	0.605275341	0.577900171
0.874018787	0.047234289	0.8703551	0.168551031	0.656825022	0.164378951
0.470204851	0.4196159	0.87731022	0.559652245	0.520991396	0.17060219
0.079351845	0.869032028	0.088766751	0.664023474	0.162636898	0.673154834
0.443765792	0.877398759	0.439302504	0.562466205	0.170539182	0.592186785
0.347801226	0.825465879	0.341428677	0.586100295	0.118508365	0.612789471
0.054604579	0.054292183	0.882000627	0.689931874	0.690780388	0.175253583
0.139179048	0.132143403	0.824567998	0.605025384	0.577590652	0.118808779
0.104205251	0.866870559	0.867433635	0.615336613	0.159313012	0.162914886
0.013704881	0.876112318	0.882128844	0.697260408	0.170651704	0.175115914
0.084162894	0.8689682	0.085185796	0.660016189	0.162649989	0.673789235
0.844275893	0.137192057	0.861595723	0.148968973	0.56637695	0.154453216
0.470067762	0.411743612	0.877723276	0.590694561	0.55144971	0.170730318
0.868721914	0.076839691	0.07949198	0.16258114	0.676056943	0.664298571
0.875779635	0.883142211	0.013706793	0.170383986	0.17528895	0.697328969
0.054287747	0.881575316	0.054646055	0.690429731	0.175345202	0.689998493
0.102207883	0.841494464	0.083382923	0.605639442	0.134737984	0.63064061
0.860965953	0.844794765	0.141740795	0.153633496	0.149669978	0.564572609
0.066661397	0.078419756	0.854964667	0.654017636	0.634114651	0.148649735
0.082239244	0.869101312	0.099598979	0.656329336	0.162632724	0.668843616
0.447761564	0.432430504	0.877048508	0.590831521	0.558349131	0.170140629
2.78027E-06	2.88464E-06	2.82189E-06	0.699170946	0.699129743	0.699509043
0.392817159	0.877215088	0.48465115	0.582423627	0.170592942	0.625332709
0.113766363	0.10030508	0.84180306	0.626260851	0.600763589	0.134985958
0.876289203	0.884328654	0.054282888	0.171353317	0.175820698	0.690632475
0.88148733	4.93401E-06	4.80144E-06	0.175534021	0.698984389	0.699222211
0.877257997	0.473780623	0.410071415	0.170511454	0.609038931	0.569246402
0.476131724	0.413108091	0.877345108	0.610551502	0.570860963	0.170526832
0.123095075	0.864520938	0.857248362	0.588502362	0.155747315	0.15685653
0.415545036	0.877352272	0.469964905	0.536015839	0.170515591	0.575273516
0.404146389	0.877565319	0.473529723	0.586201323	0.170668106	0.62572057
0.87760055	0.470357171	0.419749065	0.170781999	0.559658215	0.52096181
0.070375299	0.071536599	0.074192554	0.649853734	0.650215928	0.650647509
0.866553825	0.095594134	0.867216919	0.162530167	0.617252037	0.159528369
0.868945455	0.09004096	0.076116675	0.16266863	0.671465378	0.659247815
0.476038245	0.413058075	0.877335869	0.610542896	0.570858202	0.170524628
0.02736993	0.881664924	0.027640852	0.695250754	0.175139877	0.694477091
0.055376555	0.871549394	0.874597819	0.654898429	0.164566937	0.16838216
0.85794642	0.130480936	0.862664878	0.15727016	0.586548128	0.155122522
0.068735317	0.071394828	0.854789176	0.649714291	0.62945309	0.149125672
0.877365231	0.4370741	0.446358646	0.170597042	0.575722056	0.546084282
0.068008861	0.079601785	0.854380951	0.652407157	0.632780692	0.148711969
0.864130371	0.856406444	0.116652506	0.155730262	0.155725307	0.590288014
0.059403382	0.064451201	0.063373428	0.652182578	0.651885082	0.651939285
0.841453671	0.102866943	0.099160243	0.13497668	0.627833667	0.602816873
0.875499525	0.884782278	5.49805E-06	0.170111947	0.175697741	0.699587129
0.039799102	0.046559996	0.073630867	0.677350577	0.676641893	0.677756243
0.454981981	0.435957093	0.877422302	0.61103825	0.577414301	0.170581112
0.070135257	0.071624645	0.074063921	0.649791085	0.650121307	0.650302647
0.861244831	0.846651773	0.147405426	0.153284952	0.150926204	0.562726652
0.476039961	0.413058634	0.87733605	0.61054543	0.570858908	0.170524598
0.883307114	0.027325499	0.87516181	0.175313019	0.695212786	0.170010447
0.4461434	0.877376686	0.444791339	0.576546646	0.170546582	0.60696127
0.863621538	0.855968612	0.116638153	0.155774061	0.155678521	0.590388011
0.074548758	0.856110728	0.091416467	0.625556774	0.149761993	0.645934463
0.840998849	0.083312295	0.102218434	0.134813494	0.631248987	0.605927193
0.055356033	0.872882947	0.874057474	0.654760977	0.165430164	0.168859478
0.000005493	0.876048023	0.883058644	0.699244605	0.170345382	0.174927047
0.877376618	0.448091037	0.435859229	0.170624874	0.575748355	0.542887013
0.092661487	0.099570708	0.841410944	0.629562424	0.604451124	0.134827788
0.874048943	0.049385808	0.872438613	0.168280526	0.65883276	0.165159943
0.083904005	0.306004217	0.282515843	0.619703206	0.619610739	0.618982329
0.070927603	0.051614016	0.083482421	0.673428352	0.672534305	0.674071868
0.881972229	0.041038712	0.040808331	0.175404428	0.692625411	0.692835952
0.486109962	0.40207968	0.877400074	0.607689299	0.564479632	0.170547842
0.82615645	0.14858033	0.130529877	0.119162336	0.605103643	0.575591663
0.856075017	0.111457666	0.864664749	0.155653538	0.592150092	0.156742903
0.047185236	0.87194876	0.874439021	0.656920785	0.164743152	0.168359712
0.082863189	0.080153738	0.868781312	0.675403529	0.663794093	0.162584069
0.082478298	0.868940944	0.08368883	0.663574732	0.162497266	0.677167995
0.86891387	0.090130453	0.076009455	0.162711353	0.671517409	0.659233687
0.081943747	0.856027621	0.067860211	0.631988965	0.149015746	0.65281809
0.069810979	0.051344743	0.082227199	0.673486988	0.672596066	0.674903672
0.877621182	0.883915155	0.040855868	0.170842832	0.175762262	0.693081671
0.877400431	0.461999474	0.415427609	0.17047111	0.626118899	0.58983108
0.41389801	0.877393109	0.475680185	0.566035038	0.170676602	0.605484377
0.392930626	0.877444187	0.484766276	0.582439806	0.17048699	0.625286933
0.877387352	0.469817147	0.415549568	0.170556692	0.575404555	0.53611993
0.05431026	0.88130299	0.054655768	0.691039123	0.175456436	0.690012015
0.099159508	0.841780658	0.10319703	0.602397934	0.134907208	0.627658983
0.153965231	0.859766217	0.847050647	0.560882622	0.151917026	0.151248573
0.876524516	0.883787761	0.040855253	0.17057135	0.175876828	0.693061993
0.040865268	0.875359823	0.884250976	0.693221404	0.169830796	0.175161094
0.446346594	0.877321965	0.437044432	0.546069545	0.170568734	0.575709896
0.450083332	0.426657643	0.876755509	0.626561343	0.593005626	0.170432928
0.881179717	4.87714E-06	4.86974E-06	0.17536502	0.699046845	0.699222554
0.11139127	0.864929069	0.855822665	0.592267843	0.156289547	0.155504248
0.054275687	0.87602081	0.883413653	0.690527619	0.170850886	0.175240654
0.124837523	0.103085783	0.841949382	0.623690475	0.598609004	0.135233926
0.877654764	0.480925725	0.410254804	0.170384948	0.559331551	0.517596812
0.866147631	0.087679267	0.866377124	0.161626909	0.619381466	0.159017795
0.09273766	0.099602873	0.841189008	0.629457579	0.604416343	0.134911932
0.866712754	0.095157247	0.867242284	0.162353787	0.617897788	0.15936599
0.41434458	0.877176913	0.474694578	0.568656758	0.170617495	0.60766055
0.841689786	0.124810556	0.103578242	0.135290382	0.623329233	0.598039241
0.877490069	0.480557135	0.405733831	0.170594118	0.575400308	0.532973743
0.06994855	0.071991952	0.073892442	0.649633055	0.649565769	0.649462323
0.219554078	0.218398026	0.825260931	0.607009453	0.58103524	0.118840796
0.855805543	0.091279564	0.074163881	0.149405031	0.64514237	0.625806113
0.462077724	0.415515919	0.877566446	0.626337641	0.589628197	0.17073409
0.459699241	0.429757017	0.877819907	0.559897399	0.524464903	0.170734226
0.868743426	0.076743584	0.080530209	0.16258041	0.676019218	0.664292075
0.871731104	0.874615249	0.046494568	0.164768351	0.168276475	0.658023811
0.869146283	0.09805737	0.080936142	0.162681675	0.669602054	0.657287677
0.873842184	0.065242451	0.870610195	0.16862904	0.652774272	0.164691608
0.877375565	0.483592784	0.400350798	0.170487212	0.608213469	0.565506035
0.081391777	0.855212054	0.066824779	0.63123252	0.149087322	0.651937391
0.872823278	0.873862393	0.055335207	0.164736053	0.167968454	0.654720451
0.074725137	0.856015592	0.091362853	0.625922075	0.149578387	0.645588463
0.469863631	0.415743707	0.877393956	0.575423498	0.536261724	0.170586946
0.437105091	0.446366955	0.877404482	0.57579775	0.546043786	0.170574099
0.877337589	0.44812175	0.435827185	0.170603461	0.575718959	0.542852718
0.882780289	0.040845942	0.876417722	0.174800945	0.69282392	0.170739408
0.865277365	0.077121508	0.868092247	0.161469326	0.623294518	0.160006271
0.08252439	0.257305742	0.23905126	0.620366946	0.627253969	0.624945782
0.877667595	0.466966124	0.485011567	0.170667808	0.561101261	0.533134384
0.855634245	0.065488967	0.079201058	0.148628085	0.65242629	0.631822549
0.842929453	0.133822525	0.861784458	0.147399865	0.567710518	0.154435047
0.84174627	0.113785613	0.10042064	0.135095159	0.626147239	0.600713987
0.882441176	0.041247675	0.040890189	0.175572814	0.692364893	0.692924097
0.415518674	0.87757608	0.462084396	0.589767183	0.170632553	0.626183043
0.473546262	0.404167702	0.877602255	0.625917328	0.586022224	0.170478626
0.054601582	0.05426838	0.882011092	0.689933624	0.690759548	0.175311796
0.068863282	0.071204602	0.854938496	0.649823303	0.629603814	0.148918904
0.825607627	0.149149235	0.133717683	0.118979804	0.60466462	0.575548692
0.05856831	0.038038125	0.076709724	0.67946055	0.678841667	0.680165695
0.054253687	0.876327488	0.882775274	0.69027139	0.171352003	0.175497565
0.124692318	0.103189104	0.84183762	0.62408549	0.598651325	0.135239971
0.868679498	0.081994576	0.078777977	0.162610486	0.674389923	0.662462543
0.877440297	0.877510898	0.877398281	0.17071088	0.170534876	0.170351272
0.131936682	0.825718422	0.148871594	0.575156302	0.118858597	0.603988299
0.876399416	0.8824051	5.49629E-06	0.170597628	0.175262264	0.699287518
0.842663796	0.133803555	0.862639156	0.148348052	0.567768658	0.155506553
0.411610417	0.877529316	0.469990415	0.551576327	0.170522794	0.590518528
0.87718019	0.459132584	0.421958325	0.170280928	0.590565878	0.55466446
0.438723442	0.877478028	0.438728157	0.596361807	0.170985256	0.626538719
0.045199454	0.871819737	0.873864795	0.659042574	0.165238937	0.168151698
0.877461091	0.480559388	0.405667764	0.170523734	0.575008154	0.5326234
0.065221063	0.871378581	0.874131722	0.652791769	0.16457135	0.168591711
0.882952049	0.04084979	0.876580157	0.175119904	0.692882971	0.171215802
0.87773522	0.473618125	0.404227554	0.170542338	0.625820937	0.58609085
0.469865754	0.415738038	0.877393549	0.575423661	0.53626135	0.170586666
0.092782287	0.099668379	0.841420355	0.62955041	0.604429858	0.134907487
0.459081549	0.425724022	0.877393915	0.575496385	0.53938304	0.17057047
0.875435152	0.076007961	0.871494468	0.168840651	0.650488045	0.164519513
0.480416392	0.405870435	0.877269304	0.575050243	0.532554528	0.170526504
0.067532786	0.067739071	0.06776465	0.636226577	0.636473055	0.636793853
0.865477419	0.081469489	0.867092459	0.161402032	0.621419678	0.159323414
0.855705925	0.065011169	0.078693784	0.149124307	0.652519132	0.631352858
0.877284142	0.448693442	0.439490904	0.170497046	0.559757597	0.52772733
0.484800463	0.39294896	0.877495884	0.62545079	0.582521672	0.17061567
0.065216411	0.871570566	0.874033832	0.65286052	0.164668872	0.168374042
0.856034095	0.091266309	0.074192037	0.14948659	0.645514494	0.625928045
4.93429E-06	0.881383315	4.83226E-06	0.699392645	0.175095705	0.699080072
0.424381922	0.877405745	0.465137684	0.573180806	0.170546074	0.609862929
0.054301262	0.881261962	0.054639537	0.690703724	0.17547426	0.689899446
0.825493535	0.147941747	0.131417923	0.119111459	0.604673068	0.575266388
0.236222267	0.244504494	0.825493893	0.610620027	0.579055556	0.118594447
0.448136797	0.435902137	0.877400092	0.575744997	0.542808723	0.170566501
0.881473508	4.94805E-06	4.79073E-06	0.175333541	0.699521462	0.699677488
0.102152452	0.841520287	0.083395276	0.605506615	0.134683124	0.630704807
0.877520845	0.448813018	0.439626831	0.170719933	0.55981221	0.527702636
0.873597771	0.876811776	0.075956379	0.164835766	0.16913496	0.650513307
0.426997281	0.877427695	0.450415882	0.593023268	0.170608571	0.626439999
0.877307921	0.470423206	0.41180235	0.170403626	0.590699612	0.551657291
0.082426539	0.269516137	0.251970676	0.620153832	0.620092956	0.622549012
0.065225105	0.871732283	0.874412569	0.652826159	0.165196251	0.168617587
0.469947621	0.411784119	0.877651728	0.590506374	0.551681579	0.170403765
0.040805641	0.046749501	0.075042343	0.677437176	0.677913556	0.680617729
0.841848952	0.102998084	0.099070944	0.13501431	0.627735862	0.602577072
0.462165167	0.415601558	0.877739415	0.626388541	0.589656465	0.170441933
0.111383734	0.864845945	0.855017751	0.59203162	0.156332085	0.155295864
0.877033912	0.469939419	0.412109593	0.170392708	0.590662687	0.551595645
0.062508634	0.062480234	0.062440178	0.638296498	0.638238724	0.638536125
0.869051595	0.083104736	0.074817456	0.162579	0.673380899	0.659718552
0.854576859	0.079429411	0.071875317	0.149090994	0.64772101	0.627427945
0.102238251	0.841283476	0.083332162	0.605896873	0.134808492	0.631310019
0.060031512	0.06004233	0.059922643	0.639822386	0.640159289	0.639953607
0.056077143	0.044921611	0.074903953	0.674935448	0.674749569	0.675564948
0.881287898	4.86033E-06	4.84717E-06	0.175390654	0.699066601	0.698905527
0.438590659	0.444478889	0.877631589	0.593187216	0.563458995	0.170624616
0.864075025	0.856211561	0.116650357	0.155763555	0.155720865	0.5903494
0.054566299	0.05535094	0.055170161	0.690349075	0.690030952	0.690376899
0.871240953	0.874535088	0.075955926	0.164383867	0.16812682	0.650398649
0.446286931	0.877264994	0.437044634	0.546056079	0.170536804	0.575732494
0.884008964	0.013710052	0.875718328	0.176007104	0.697586969	0.170848947
0.881931132	0.027689473	0.027260696	0.175437793	0.695078734	0.694948309
0.854915642	0.111436908	0.863469969	0.154930159	0.592145791	0.155745544
0.438177401	0.444467716	0.877426982	0.592767366	0.563235141	0.170345827
0.855426797	0.102854726	0.078952368	0.149294472	0.643426143	0.623683653
0.877491632	0.480512165	0.405726281	0.170596028	0.575409082	0.532977186
0.072783161	0.856207254	0.071204932	0.629719885	0.149491765	0.650164672
0.080474765	0.855998253	0.104180559	0.62356419	0.149555664	0.643704123
0.480873226	0.410051272	0.877408071	0.559288662	0.517738757	0.170485924
0.100303174	0.84176016	0.113949015	0.600891811	0.134996432	0.625946595
0.844654012	0.133736564	0.863547237	0.148860819	0.56779585	0.155662828
0.868661639	0.08102308	0.077996554	0.162585137	0.674624754	0.662727086
0.877468423	0.480536557	0.405769227	0.17053394	0.575030215	0.53267677
0.855094628	0.107531191	0.865102046	0.1549158	0.593891378	0.157010215
0.439979301	0.878124388	0.449056549	0.527531664	0.17085349	0.560004121
0.859851817	0.846921944	0.153977076	0.152332226	0.15144199	0.560945552
0.884139574	0.040849562	0.876709955	0.17509531	0.692883661	0.171149465
0.1018802	0.13432709	0.181034608	0.618230327	0.618967546	0.620496634
0.87410486	0.05161028	0.872012921	0.168373145	0.659104508	0.165019399
0.847081107	0.153932947	0.859859954	0.151542854	0.560950969	0.152132301
0.10147139	0.128212483	0.170026024	0.617133382	0.62214422	0.620701075
0.470204813	0.419615668	0.87730996	0.559652147	0.52099155	0.17060275
0.458931575	0.425705311	0.877305251	0.575590862	0.539438611	0.170584633
0.867333299	0.865175644	0.0774854	0.159706803	0.161180429	0.622965894
0.844772689	0.147441767	0.859343654	0.150084065	0.562642306	0.152375582
0.081746919	0.256058133	0.241534945	0.62024735	0.624517819	0.624977213
0.080419866	0.856293774	0.105308166	0.623509628	0.149591288	0.64288165
0.877738176	0.448099532	0.433129943	0.170621294	0.591235933	0.558689979
0.113772245	0.100289987	0.841940234	0.625863458	0.600618121	0.135209833
0.074706674	0.074950324	0.075051738	0.634064595	0.634350765	0.63453281
0.860908354	0.84377585	0.137167487	0.153780524	0.148156295	0.566311349
0.877425828	0.473431092	0.410426801	0.170558865	0.609103409	0.569217125
0.102198288	0.84169266	0.083486883	0.60606428	0.134769469	0.630905395
0.013837833	0.0141445	0.013889227	0.697307167	0.697075721	0.69723574
0.040861773	0.874962754	0.882545925	0.693154816	0.169808704	0.175133282
0.84451598	0.133737799	0.863156419	0.148835673	0.56779826	0.155650752
0.147394341	0.859948207	0.845206414	0.562830062	0.152456804	0.150343934
0.868805896	0.080595544	0.077631692	0.162551498	0.674690536	0.662886657
0.120933328	0.111823402	0.141058686	0.615651358	0.614797662	0.61605153
0.87731981	0.483587868	0.400286103	0.170491011	0.60824491	0.565557677
0.872777601	0.875268142	0.055337216	0.165643925	0.16874192	0.654743157
4.94468E-06	0.881372017	4.82421E-06	0.699390381	0.175127719	0.699072742
0.082538192	0.855697189	0.068381397	0.63344262	0.148969768	0.653843324
0.101577425	0.124341149	0.167010613	0.616636288	0.619477154	0.617332613
0.140608676	0.130674084	0.825795307	0.606045746	0.577307298	0.119216762
0.874876271	0.04719071	0.871948805	0.1685073	0.656913385	0.164873567
0.434996321	0.877389804	0.454909852	0.574037937	0.170555402	0.607674956
0.872500292	0.875114365	0.046034039	0.165105321	0.16852378	0.658231128
0.013787607	0.014290462	0.014053922	0.697288298	0.696918978	0.696806607
0.069623528	0.065176538	0.08470244	0.67037497	0.670998654	0.672868056
0.877459227	0.437848549	0.443640818	0.170570308	0.590761919	0.561146138
0.500591327	0.514863656	0.87762479	0.559520978	0.53022443	0.170678725
0.870985532	0.874050528	0.055338255	0.164399467	0.168122976	0.654884536
0.877485556	0.480503542	0.405824764	0.170591697	0.575397019	0.532974551
0.014274042	0.88113504	0.014528046	0.69726564	0.175359465	0.69765955
0.085762412	0.869183653	0.082289825	0.66487201	0.162341455	0.677171429
0.877205152	0.883715858	0.040855646	0.17100114	0.175409179	0.693025767
0.06250555	0.062484101	0.062432082	0.63835725	0.638398371	0.638523507
0.875117892	0.883685773	5.49603E-06	0.170760323	0.175523243	0.699297167
0.083837497	0.868784897	0.085559359	0.660857299	0.162615309	0.675610062
0.470540941	0.42003587	0.878064941	0.559562015	0.521032217	0.170473398
0.459729607	0.429750311	0.877844869	0.559882396	0.524399761	0.170741239
0.05186116	0.053675861	0.058167339	0.654408662	0.654203601	0.65439946
0.868100262	0.866036764	0.077251236	0.160202894	0.16165429	0.623141183
0.825963628	0.189444544	0.189276249	0.118796927	0.610135545	0.580413516
0.435454252	0.877411738	0.454627349	0.575749981	0.170573024	0.609100009
0.122903495	0.112018253	0.141915719	0.615276381	0.615162611	0.615964676
0.072866619	0.855353339	0.081980176	0.627671348	0.149127651	0.647561073
0.883570457	5.50007E-06	0.874994794	0.17562818	0.699408857	0.170715714
0.484903651	0.393038301	0.877692267	0.625148197	0.58257531	0.17077286
0.081657377	0.867293114	0.86618993	0.621123709	0.159939832	0.161923805
0.059605468	0.064935422	0.063199726	0.652076229	0.651721074	0.652090026
0.081899411	0.30455464	0.289233316	0.619947879	0.618568006	0.61754439
4.81961E-06	0.881564383	4.87857E-06	0.699343829	0.175330295	0.699195893
0.438760629	0.87755205	0.438765377	0.5964826	0.170574569	0.626563304
0.068860996	0.071259895	0.85513412	0.649945162	0.629938929	0.148946013
0.450013266	0.426587072	0.87661453	0.626513665	0.593046666	0.170423208
0.877358119	0.459552519	0.429443423	0.170810649	0.559771299	0.524513251
0.865406713	0.077000182	0.867742728	0.161053466	0.623352366	0.159615455
0.068880739	0.071255195	0.85553972	0.650034529	0.629472864	0.148912835
0.073116612	0.854468205	0.071280039	0.629645584	0.14896162	0.649772518
0.865410534	0.076970149	0.867765328	0.161026478	0.623393174	0.159581795
0.434998606	0.87738874	0.454908944	0.574037108	0.17055546	0.607676145
0.877323768	0.459016965	0.425539908	0.170579189	0.575618187	0.539609234
0.877405246	0.461999008	0.415433378	0.170568428	0.626139735	0.589750358
0.877313465	0.469703331	0.41555645	0.170591675	0.575333728	0.536071496
0.419619607	0.877421782	0.470304866	0.521072395	0.170701109	0.55965847
0.860592747	0.845987596	0.147411549	0.153287134	0.150849671	0.562754041
0.028240551	0.027898416	0.88107791	0.695025537	0.695775726	0.175196573
0.480543903	0.401164898	0.877023178	0.590073848	0.548119549	0.170158293
0.881556182	0.054763836	0.054343025	0.175122287	0.689978285	0.690263349
0.871497574	0.875351133	0.04746944	0.165051593	0.168869349	0.657133274
0.871847454	0.873501934	0.047076034	0.165297779	0.168265675	0.65881272
0.44883583	0.439663401	0.877565859	0.559680905	0.527869103	0.170739423
0.164235287	0.154159413	0.094937076	0.617404656	0.615853355	0.615924166
0.422057741	0.877449614	0.458986529	0.555296983	0.170337812	0.591112776
0.422143492	0.877731032	0.459237658	0.554821127	0.170774351	0.591054275
0.877340119	0.459006091	0.425597296	0.170582086	0.575611268	0.539608915
0.103891723	0.866548672	0.866536872	0.615417395	0.15901185	0.162811149
0.100007278	0.081233827	0.869206062	0.669219509	0.657598914	0.162739837
0.449055676	0.440009415	0.878145595	0.55970869	0.527849172	0.170761128
0.87545314	0.076008463	0.871329791	0.168864137	0.650431626	0.164415645
0.14549897	0.132102966	0.825166936	0.60208472	0.572988396	0.119431559
0.075974555	0.872150069	0.874595639	0.650559988	0.164595674	0.168531987
0.877505021	0.473495282	0.404121256	0.17060531	0.62576246	0.586066299
0.877454886	0.480542177	0.405755463	0.17052588	0.574997739	0.532612573
0.080273113	0.86907743	0.093619192	0.659108247	0.162719657	0.670460183
0.393017523	0.8776394	0.484873758	0.582642817	0.170888904	0.625268587
0.878064589	0.485084884	0.393230674	0.170789635	0.625203013	0.582620703
0.083407339	0.102190884	0.841782175	0.631176166	0.605768028	0.134715271
0.877403074	0.450677859	0.432475739	0.170575747	0.60977187	0.576349286
0.438109692	0.444583922	0.877411084	0.592818134	0.563271868	0.170470724
0.111439533	0.864164317	0.855648513	0.592122498	0.155839216	0.155070085
0.074236723	0.855383484	0.082545895	0.627954659	0.149387123	0.648252146
0.153951197	0.859894545	0.846561102	0.560874369	0.15287306	0.151987392
0.448170381	0.435875188	0.877398641	0.575788442	0.542816856	0.17055953
0.878461007	0.885053781	5.4978E-06	0.171114508	0.175861909	0.699495621
0.419746055	0.877601998	0.470353276	0.521034384	0.170593208	0.559616298
0.422108611	0.877455399	0.458970006	0.555311388	0.17042978	0.591147502
0.153709623	0.140333919	0.097030525	0.618775226	0.617243183	0.615282517
0.060013105	0.060020276	0.059979596	0.639651529	0.640269829	0.639788859
0.070455956	0.071331441	0.074142709	0.650243447	0.649797444	0.650247837
0.459020389	0.425681573	0.877355024	0.575505191	0.539383528	0.170584509
0.473295085	0.403930437	0.877113756	0.625684593	0.585991807	0.170401923
0.067682103	0.067563378	0.067849522	0.636219161	0.636324772	0.636635793
0.877846198	0.437591028	0.444459564	0.17089988	0.59233524	0.562768406
0.131790546	0.825722262	0.148890532	0.575165155	0.118868997	0.603990086
0.133743255	0.861878929	0.844329078	0.567776925	0.155435763	0.148403278
0.877494485	0.47349061	0.404115286	0.170603151	0.625759581	0.586068637
0.413718411	0.877384339	0.475666577	0.566007657	0.170680917	0.605603264
0.338600881	0.825832736	0.328971761	0.581999432	0.118901261	0.61239977
0.137204226	0.860281488	0.844643509	0.56643746	0.153891867	0.148670804
0.875473596	0.075996948	0.871304627	0.168839637	0.650443636	0.164371149
0.862656522	0.856125205	0.130387461	0.154976813	0.156914567	0.586442123
0.091767477	0.07448445	0.856648134	0.645619535	0.625549659	0.150021405
0.054256474	0.881583902	0.054651797	0.690435015	0.175342438	0.689999664
0.448142228	0.435912049	0.877412771	0.57582632	0.54288397	0.170552131
0.877516513	0.448109019	0.432879453	0.170536882	0.590754121	0.557804621
0.87542517	0.065242932	0.871509665	0.168366372	0.652797624	0.164538734
0.076964226	0.868088049	0.86492177	0.623028719	0.160106886	0.161030641
0.85593685	0.091226665	0.074200689	0.149330072	0.645807404	0.625575745
0.414595723	0.877384118	0.474531329	0.56966116	0.170552336	0.608840345
0.080150211	0.86899875	0.093804959	0.65912569	0.162679952	0.670409089
0.060013661	0.060017751	0.059991931	0.639433363	0.640124806	0.639901583
0.877598909	0.438788917	0.438784251	0.170436163	0.626423008	0.596436618
0.473482122	0.404103856	0.877474116	0.625882235	0.58605282	0.170538883
0.881787354	4.84345E-06	4.86347E-06	0.175530859	0.699195672	0.699147377
0.843764492	0.137219877	0.861131122	0.148664172	0.566227402	0.154255345
0.87574181	0.883749826	0.05427659	0.170888251	0.175670824	0.690523194
0.027845923	0.027995572	0.881932075	0.694751923	0.694896528	0.17516719
0.48483527	0.392970898	0.877555034	0.625298326	0.582561965	0.170622364
0.877357909	0.459057104	0.425540953	0.170572619	0.575651176	0.539636953
0.866547612	0.866169574	0.104343621	0.15901951	0.162344332	0.615150475
0.041164192	0.040901473	0.88122057	0.692362344	0.69308507	0.175204816
0.147411304	0.860282713	0.845715007	0.562788582	0.153023913	0.150744796
0.877386106	0.4698568	0.415492652	0.170591014	0.575577905	0.536327115
0.079542072	0.082417895	0.868912548	0.67945645	0.666439408	0.162499795
0.0927631	0.099647953	0.841402382	0.629549717	0.604427707	0.134879609
0.411421044	0.877163445	0.469819601	0.55168997	0.170315042	0.59050394
0.841694618	0.113578439	0.100653097	0.135177824	0.625917904	0.600921144
0.866362727	0.095534163	0.867362119	0.162444197	0.617153607	0.159496709
0.470099021	0.411690211	0.877702017	0.590646802	0.551421401	0.170676878
0.448143871	0.435924636	0.877422227	0.57582509	0.542889528	0.170548911
0.877253895	0.459215403	0.421959868	0.170259772	0.590671741	0.554723822
0.075976128	0.871791549	0.874865597	0.650584258	0.164642585	0.16864007
0.874205632	0.065244241	0.870996173	0.168471213	0.652750059	0.164751264
0.487448746	0.400830672	0.877419514	0.609688656	0.566337305	0.170500333
0.437106847	0.446369373	0.877408253	0.575775077	0.546052023	0.170610276
0.130365373	0.863596605	0.857941057	0.586460411	0.154690252	0.157174181
0.844086179	0.133796381	0.862535072	0.147649563	0.567766965	0.154656955
0.062480803	0.062474945	0.062442098	0.638285358	0.638472183	0.638511617
0.103607271	0.841784956	0.125052308	0.598538538	0.135426028	0.623617706
0.869128579	0.097641271	0.080070495	0.162753229	0.669935066	0.657178236
0.058073352	0.03879145	0.0770404	0.679865542	0.679024129	0.680273758
0.131360579	0.825733245	0.149449522	0.57561914	0.11905029	0.604037276
0.123086701	0.864156212	0.85588658	0.588668361	0.155240144	0.156377857
0.252380116	0.250752842	0.825708895	0.608571361	0.581696005	0.11905304
0.425662711	0.877316872	0.459066906	0.539453532	0.170554742	0.575560909
0.856815672	0.079532687	0.071768537	0.149250623	0.647829893	0.627554013
0.882519302	0.027525685	0.02726173	0.175394472	0.695028186	0.694962159
0.027326606	0.87552708	0.88344614	0.695234254	0.170919149	0.175757038
0.476167577	0.41307648	0.87734973	0.610592587	0.57086622	0.170529875
0.861442873	0.845460033	0.141751294	0.153922692	0.149852071	0.56453846
0.131173588	0.825937343	0.14880042	0.575663206	0.119049109	0.604029816
0.10218494	0.841626914	0.083445182	0.606176943	0.134772373	0.631172292
0.480755362	0.401361858	0.87742388	0.590042502	0.548036337	0.170888417
0.875836594	0.884278642	5.49881E-06	0.170870711	0.176300365	0.69965312
0.141791829	0.860550917	0.84439928	0.564488523	0.153264378	0.149290086
0.469991532	0.415706946	0.877429355	0.575429406	0.536228918	0.170552424
0.875309189	0.047301049	0.872061618	0.168447485	0.656819649	0.16458084
0.027835307	0.027385385	0.027975895	0.695249898	0.694801096	0.695509989
0.051913573	0.0540861	0.058987351	0.654195377	0.654467425	0.653638663
0.054603563	0.055095252	0.055105285	0.690589878	0.689889751	0.689916531
0.459700587	0.429721561	0.877783589	0.559835078	0.524433158	0.170820631
0.069850083	0.071949089	0.073708758	0.64943845	0.649660928	0.649515121
0.11137999	0.864827373	0.854816557	0.592038534	0.15632067	0.155285837
0.866684245	0.866596246	0.095435154	0.159391806	0.162517588	0.617081667
0.124757225	0.103279645	0.84171761	0.624166627	0.598532302	0.135107969
0.85493724	0.064358816	0.078005762	0.14893604	0.653231349	0.632255586
0.137186299	0.861741304	0.844313038	0.566122054	0.154624189	0.149075115
0.401235872	0.877033459	0.480550371	0.548558797	0.169904323	0.590364085
0.842938812	0.13378057	0.861610239	0.14736526	0.567789948	0.154394275
0.08335687	0.102165986	0.841519926	0.631012961	0.606225161	0.134849475
0.846149325	0.153947951	0.85870116	0.150773045	0.560916283	0.151654556
0.491234185	0.522484172	0.877769195	0.558382023	0.529874843	0.170962492
0.09119952	0.076848465	0.869350818	0.670354655	0.660243205	0.162601277
0.868903575	0.075747767	0.078725808	0.16252453	0.676589559	0.664422182
0.448764753	0.439538509	0.877381046	0.559703284	0.527862447	0.170770035
0.415963602	0.878464772	0.462527847	0.589712036	0.170728503	0.626140835
0.826209945	0.218231201	0.222791414	0.118633596	0.611558583	0.581298246
0.111413797	0.864543603	0.855792637	0.592164129	0.156318493	0.155515487
0.044523638	0.049751522	0.051699985	0.658261409	0.658946407	0.658625707
0.068870436	0.071256721	0.855323916	0.649946087	0.629474039	0.148759591
0.041126137	0.04087009	0.881699101	0.692575097	0.693000331	0.175061144
0.877614311	0.448790016	0.439740258	0.170716564	0.559966347	0.52762906
0.437064787	0.446303148	0.877298964	0.575700138	0.545992898	0.170575836
0.87734131	0.462389263	0.420965249	0.170608704	0.609453239	0.572806407
0.856262335	0.079474118	0.071869948	0.149150185	0.647934672	0.627253548
0.874496162	0.05540436	0.871887788	0.168723357	0.655090618	0.164819576
0.435873655	0.877192408	0.447982782	0.542854411	0.17054663	0.57577055
0.100288003	0.84213111	0.114119115	0.600920053	0.135105176	0.625699044
0.877304731	0.459171265	0.422076664	0.170428082	0.590591848	0.554758474
4.79797E-06	0.881174564	4.87771E-06	0.699245078	0.175303886	0.699071105
0.866494953	0.865666836	0.104012561	0.159292454	0.162504431	0.615207969
0.855993359	0.107558892	0.866292399	0.155248348	0.593811886	0.157068496
0.143301949	0.826947681	0.149730716	0.576929779	0.119120469	0.604978551
0.027327042	0.876269848	0.883830472	0.695249849	0.170932697	0.175815777
0.872549099	0.873787116	0.047219403	0.165316798	0.168363182	0.656987382
0.027327585	0.881649253	0.0276642	0.695366721	0.175052526	0.694377128
0.137197407	0.861259665	0.843893959	0.566399287	0.153719158	0.148527227
0.539587356	0.877467486	0.566239083	0.53414767	0.170569577	0.563287908
0.413386143	0.877470932	0.476349929	0.566819196	0.170617569	0.605956372
0.877984357	0.43898155	0.438976741	0.170863312	0.626641196	0.596399532
0.04712191	0.872296911	0.874445618	0.656900279	0.165329557	0.168287492
0.825642853	0.276316206	0.27615466	0.118597978	0.610869626	0.584594774
0.8251924	0.198172242	0.19852596	0.11877578	0.613057238	0.58081397
0.437058325	0.446274613	0.877264128	0.575762061	0.54600639	0.170583569
0.10388919	0.867158246	0.866761268	0.615766502	0.15935412	0.162925273
0.067759922	0.067595983	0.067909336	0.636441941	0.636564331	0.63675756
0.848612807	0.846738982	0.847411972	0.257158556	0.257107771	0.256611046
0.877550121	0.450480853	0.427054609	0.170591432	0.626399445	0.593174655
0.243371199	0.243344426	0.825804515	0.608727454	0.582438817	0.119088876
0.041219241	0.040901625	0.882023248	0.692720477	0.692956489	0.175279443
0.874466454	0.047306669	0.871674189	0.168455976	0.656770382	0.164650169
0.876914102	0.447763819	0.432682841	0.170431043	0.590831111	0.557978373
0.473570034	0.404181302	0.877640051	0.625932797	0.586149756	0.170725752
0.856166593	0.091328352	0.074068395	0.149241348	0.646015487	0.62574625
0.05186116	0.053675861	0.058167339	0.654408662	0.654203601	0.65439946
0.15948521	0.146580714	0.095682267	0.617776989	0.616537089	0.615321461
0.856095674	0.116761671	0.863340352	0.155402877	0.590278677	0.155262811
0.480646157	0.405823578	0.877253698	0.574374214	0.531939606	0.170502341
0.438847375	0.877725799	0.438852094	0.596444115	0.170602453	0.626578473
0.079039583	0.868964974	0.088143898	0.663194605	0.16264114	0.672101214
0.874701674	0.047199102	0.872135913	0.168376384	0.656965199	0.164783757
0.883349812	0.027325772	0.875078357	0.17531346	0.695209335	0.170000386
0.855893978	0.068704037	0.071885657	0.149486966	0.649846649	0.629942577
0.442896891	0.448499438	0.877365998	0.606547034	0.57664613	0.17059617
0.877348768	0.440467259	0.444174307	0.170618521	0.609870679	0.579581155
0.855572526	0.091252615	0.074188243	0.149411292	0.645158269	0.625735561
0.437106888	0.44636951	0.877408433	0.575775018	0.546052125	0.170610236
0.875769115	0.882725351	0.027321369	0.170642692	0.175803158	0.695121405
0.882602042	5.49906E-06	0.875752624	0.174457795	0.699377596	0.170135779
0.131211348	0.82582954	0.149097691	0.575290833	0.118965243	0.603716124
0.040860407	0.876624762	0.88329616	0.693144691	0.170556247	0.175810055
0.09967682	0.841621045	0.092662858	0.604520068	0.134889866	0.62975715
0.486185092	0.402142044	0.877316092	0.607541619	0.56471501	0.17048103
0.054270763	0.876255121	0.88286345	0.690459242	0.171091814	0.175372386
0.841756146	0.092670198	0.099788805	0.134793719	0.629651798	0.604237861
0.8814371	0.041143246	0.040867793	0.175417845	0.692724456	0.692902854
0.099413412	0.080947711	0.869253501	0.66899384	0.656950107	0.162647003
0.877354553	0.44868694	0.439567761	0.170477926	0.559745097	0.527729125
0.82564458	0.137119943	0.130067248	0.118654901	0.605767961	0.576316769
0.01440819	0.881133279	0.014465709	0.69717503	0.175236802	0.697678662
0.067582051	0.079790972	0.854335874	0.65225421	0.632631377	0.148730461
0.842926838	0.845907493	0.846238138	0.256902207	0.25674686	0.257334975
0.131303934	0.309184771	0.209108053	0.621467044	0.623387886	0.622771517
