Va	Vb	Vc	Ia	Ib	Ic
0.864952463	0.85565339	0.111447924	0.156262766	0.155310632	0.592134371
0.469861752	0.415705206	0.877385672	0.575410271	0.536260912	0.170599477
0.87763658	0.475797647	0.476684245	0.170659375	0.562144264	0.533081317
0.066721688	0.078676325	0.855665217	0.653611106	0.633018108	0.149604945
0.865730449	0.087709148	0.866803147	0.161862284	0.619341909	0.159304009
0.864955948	0.854581648	0.107677343	0.156403619	0.154057339	0.593809419
0.039639418	0.0467374	0.073641881	0.676718334	0.676885736	0.677079271
0.856288683	0.123106467	0.86414042	0.156513031	0.588361629	0.155791321
0.877306008	0.437047082	0.446326971	0.17058824	0.575696536	0.546059012
0.487084033	0.401334111	0.877471254	0.60861057	0.565249391	0.170514151
0.868805896	0.080595544	0.077631692	0.162551498	0.674690536	0.662886657
0.137256904	0.861463157	0.84496614	0.56632657	0.154354239	0.149238773
0.757960985	0.761499137	0.759742859	0.383741147	0.385018143	0.384447405
0.825829071	0.147469568	0.13116677	0.119220648	0.602670898	0.575401351
0.84270122	0.137223968	0.860083905	0.148711616	0.566220453	0.154219333
0.08016836	0.855689753	0.104172976	0.623410806	0.149500436	0.643726755
0.86451134	0.857059147	0.130329242	0.155191628	0.157018517	0.586590308
0.419698606	0.877404906	0.470213861	0.520913938	0.170522123	0.559674512
0.855410405	0.102842703	0.079054131	0.149289977	0.643446517	0.623657836
0.859502669	0.846468386	0.153998559	0.152204293	0.151370093	0.560958197
0.077287968	0.080657645	0.868966866	0.67828329	0.666050085	0.162527003
0.448153812	0.435898819	0.877408872	0.575801191	0.542871029	0.170559231
0.459501329	0.429494021	0.877354763	0.559888659	0.524404951	0.170741232
0.446692755	0.877349255	0.444351728	0.576466184	0.170554585	0.606936227
0.877337367	0.437072162	0.446332103	0.170593115	0.575746136	0.546080553
0.486054201	0.402276811	0.87740932	0.609782331	0.566456482	0.17050055
0.059489351	0.063653578	0.062530823	0.652260705	0.652725052	0.652041846
0.874621209	0.0760263	0.871311944	0.168505368	0.650496876	0.164614733
0.422027544	0.877282393	0.458861626	0.555204487	0.170172618	0.590870997
0.877526517	0.474607433	0.481553893	0.170652985	0.560818782	0.532155764
0.864515244	0.855693668	0.111392316	0.156150116	0.155314627	0.592308779
0.859219926	0.845968356	0.153995928	0.152345397	0.151441119	0.560924917
0.111400942	0.865230445	0.856067545	0.592098196	0.156361198	0.155313593
0.874036603	0.05538874	0.87186184	0.168589057	0.654917975	0.164688681
0.475818419	0.413092698	0.877253435	0.609620324	0.570283153	0.170600023
0.855823234	0.116773211	0.863783969	0.155603798	0.590298098	0.155515056
0.826291801	0.226298995	0.230143046	0.11860672	0.610087575	0.581520167
0.028034033	0.027580091	0.028189192	0.694958554	0.695279959	0.695613687
0.111371276	0.864970171	0.85511771	0.592034044	0.156236932	0.155206875
0.846439092	0.847322834	0.844520597	0.256335751	0.256921684	0.256748584
0.041144934	0.040991133	0.881163778	0.69243353	0.693086928	0.175044359
0.862414848	0.84298041	0.133701414	0.154718886	0.147440561	0.567710568
0.014244258	0.013876752	0.881785398	0.697649521	0.697423844	0.175457171
0.070738066	0.051792781	0.083309736	0.673489976	0.672520529	0.674671679
0.877607742	0.438793316	0.438788579	0.170858002	0.626589409	0.596438712
0.100344359	0.842104652	0.113940249	0.600882462	0.135109338	0.625677984
0.571264779	0.877170581	0.547370372	0.537478019	0.170414967	0.563806606
0.055371098	0.870991637	0.874678234	0.654944382	0.164772536	0.168631168
0.877425931	0.469789808	0.415621345	0.17059183	0.575609837	0.536309592
0.877557253	0.877266755	0.877371643	0.170704709	0.170550086	0.170374789
0.866453096	0.095447743	0.867365505	0.16237144	0.617199187	0.159468707
0.826364166	0.225933652	0.22269292	0.118752223	0.611779238	0.583642327
0.438761208	0.438756528	0.877543956	0.626548278	0.596346945	0.170412996
0.841409846	0.083373614	0.102177314	0.134862093	0.631315473	0.60627066
0.855436519	0.123089222	0.864241616	0.156141437	0.588305663	0.155294475
0.855858739	0.068707365	0.072016708	0.1491652	0.650192618	0.629789451
0.069969315	0.071970437	0.073730081	0.649315179	0.649744395	0.649621647
0.758191114	0.757296148	0.754196329	0.38386223	0.383706724	0.3829505
0.044913963	0.049201687	0.051551946	0.657821124	0.658322095	0.658487601
0.079187714	0.868964965	0.088069009	0.663449958	0.162639231	0.672403258
0.058568975	0.038581284	0.077328294	0.679873674	0.679037604	0.680288017
0.103058577	0.078842588	0.856050044	0.643253863	0.623648955	0.149675416
0.099251297	0.841925068	0.103092548	0.602316494	0.134899653	0.627716734
4.82278E-06	4.92725E-06	0.881687952	0.699305248	0.699126686	0.175199906
0.059435863	0.064670596	0.063637933	0.652121983	0.651336371	0.651272519
0.342169744	0.825199374	0.331891267	0.587894685	0.118506048	0.615202435
0.340331804	0.825605974	0.333016122	0.586685298	0.118653885	0.616483485
0.844223994	0.147494655	0.858885975	0.150199479	0.562647106	0.152517167
0.884067215	5.49603E-06	0.875259394	0.175315222	0.699293105	0.170290845
0.882327077	0.040844871	0.876983037	0.175022254	0.692802291	0.170989259
0.051858239	0.053662412	0.058273427	0.654381807	0.654153488	0.654400293
0.419717543	0.877448062	0.470247996	0.520935564	0.170695478	0.559670368
0.867090121	0.865779782	0.077361631	0.159779466	0.161395677	0.622641386
0.470385132	0.419826178	0.877701503	0.559714762	0.521038184	0.17080418
0.878211264	0.481407253	0.401850124	0.170795884	0.589796891	0.547920479
0.141847091	0.861114323	0.844601402	0.56456164	0.154174898	0.150058231
0.841669931	0.113820794	0.100331308	0.135067171	0.62608036	0.600629834
0.099277351	0.841709676	0.103161223	0.602404538	0.134925179	0.62765535
0.874715369	0.049190504	0.872971432	0.168473064	0.659271915	0.165253466
0.028240551	0.027898416	0.88107791	0.695025537	0.695775726	0.175196573
0.124785399	0.103089685	0.841851327	0.623995425	0.598659617	0.135250218
0.875124002	0.076026217	0.870921598	0.168530201	0.650495947	0.164551677
0.081710658	0.079076403	0.868864815	0.675186703	0.663244931	0.162554897
0.877402205	0.483581181	0.400219187	0.170591695	0.608789324	0.566117885
2.77077E-06	2.8928E-06	2.82681E-06	0.699144915	0.69934282	0.69859882
0.473257511	0.403877889	0.877023742	0.625950639	0.586044825	0.170475442
0.843011431	0.133725183	0.861079175	0.14749886	0.567820101	0.154507008
0.841815483	0.113791703	0.100295296	0.135172933	0.62619808	0.600854418
0.054272375	0.877241274	0.882531071	0.690457827	0.171388323	0.1754091
0.877329787	0.451009789	0.432012777	0.170487174	0.608747289	0.575260536
0.75851978	0.758401447	0.761404398	0.384168959	0.383484218	0.383507763
0.872818664	0.87572563	0.055322817	0.165302018	0.168948225	0.654952935
0.10215918	0.841656238	0.08342428	0.606138463	0.134729825	0.631438471
0.299648394	0.825827415	0.292946092	0.58748564	0.118808443	0.617816279
0.480788512	0.405834912	0.877457338	0.574761282	0.532335833	0.170575301
0.881185517	0.02794547	0.027737566	0.175482927	0.694598197	0.695381016
0.027321198	0.876882882	0.882428487	0.695077355	0.170819753	0.17549519
0.054274522	0.881568771	0.054686331	0.690604275	0.175353027	0.690009392
0.876893554	0.438435956	0.438431287	0.170254948	0.626587954	0.596392947
0.880709805	0.054631754	0.054112132	0.17484665	0.689963934	0.690713587
0.845475178	0.141752231	0.859826799	0.150110836	0.564538348	0.153881136
0.447953769	0.432609924	0.877430704	0.590835837	0.558532084	0.170254595
0.083441989	0.102214853	0.841800409	0.631221758	0.605926526	0.134731638
0.070285192	0.071392247	0.07396188	0.64981686	0.650082862	0.650083045
0.402638213	0.877222099	0.486112713	0.564984139	0.17054594	0.607805789
0.414315324	0.877440182	0.475604873	0.566362127	0.170641741	0.605602051
0.866796586	0.866823702	0.095375992	0.159292545	0.162474322	0.617283778
0.415479703	0.877494183	0.462041836	0.589832894	0.170514282	0.626053087
0.100300193	0.841762268	0.113947337	0.600893862	0.134996477	0.625947354
0.047132044	0.872645798	0.874884868	0.656931885	0.165238909	0.168294357
0.127442887	0.11215864	0.145616156	0.616251962	0.614981442	0.616202593
0.841760739	0.102956455	0.098904288	0.134982074	0.628087086	0.602768622
0.140178446	0.131498543	0.824511932	0.604746066	0.57754196	0.118833817
0.350789971	0.826256296	0.331722118	0.583497864	0.118736358	0.612934434
0.45908179	0.422123169	0.877644683	0.59087836	0.555030413	0.17071132
0.410138953	0.877462998	0.480844545	0.517504439	0.170387118	0.559510648
0.875110577	0.051101469	0.872017967	0.168358	0.659089354	0.165016313
0.099687914	0.841595667	0.092652763	0.604546923	0.134822204	0.629790353
0.881426236	4.95029E-06	4.78957E-06	0.175340586	0.699492261	0.699683422
0.130405901	0.863872376	0.857712741	0.586425392	0.155143188	0.157378855
0.871565234	0.874216697	0.048021728	0.165172788	0.168276595	0.658729407
0.102996588	0.099107024	0.841569391	0.627724845	0.60250739	0.135019788
0.825681698	0.267338079	0.279417644	0.11837291	0.611001351	0.582517976
0.153945646	0.85988953	0.846896904	0.56082803	0.15271654	0.151818096
0.861457251	0.843006998	0.137153124	0.154210992	0.148611802	0.566262145
0.095459589	0.866272627	0.866073603	0.617523902	0.158900312	0.162030411
0.462009714	0.415443526	0.877426246	0.626341908	0.589650704	0.170591864
0.856042116	0.091302552	0.074095658	0.149418355	0.645751582	0.625509104
0.051737258	0.0539444	0.058523616	0.653762705	0.654093163	0.653557381
0.429779505	0.877907933	0.459764476	0.524497529	0.17090574	0.559783132
0.854737785	0.107515463	0.864568872	0.154865991	0.593922821	0.156998749
0.426676245	0.876796647	0.45010595	0.593164763	0.170518054	0.626460437
0.432753647	0.877707994	0.448146415	0.558255666	0.170698263	0.591471245
0.040827216	0.046615292	0.074923244	0.677161211	0.678323131	0.680673473
0.87202171	0.873630421	0.048174839	0.16509709	0.168154021	0.658603633
0.86647393	0.865866389	0.088193728	0.159357642	0.161847916	0.619596718
0.881987122	0.027581443	0.027372643	0.175471457	0.694371436	0.694750098
0.080230623	0.869020145	0.093706643	0.659131173	0.162685965	0.670401331
0.476220278	0.412953018	0.877343521	0.61062803	0.570862105	0.170535276
0.877042503	0.469956993	0.411971065	0.17016305	0.591476541	0.552728686
0.883118209	0.054272237	0.876324342	0.175068093	0.690471498	0.170977672
0.147435804	0.859117097	0.844848838	0.56278789	0.152506547	0.150331024
0.068899585	0.07126926	0.855541528	0.650039039	0.629470779	0.148957588
0.079189714	0.082706026	0.868862404	0.677566479	0.665320107	0.162583234
0.877431946	0.878090472	0.877259419	0.170721988	0.170575364	0.170461131
0.88364281	0.054273405	0.875667927	0.175002363	0.690505049	0.17063407
0.130412566	0.863509361	0.857485803	0.58628436	0.155109809	0.157422758
0.866720461	0.087676839	0.867129573	0.161974105	0.619439864	0.159137791
0.846734125	0.846092472	0.847470491	0.257805966	0.257046994	0.257504153
0.868800209	0.075989723	0.079015513	0.162528399	0.676447752	0.664340456
0.877197709	0.447824712	0.432905836	0.170285251	0.590958859	0.558563372
0.427079905	0.877596565	0.450501959	0.593056497	0.170464348	0.626482211
0.07885014	0.868936761	0.088243358	0.660319924	0.162619559	0.670631454
0.877163598	0.438571084	0.438566357	0.170242497	0.626600393	0.596444093
0.866746287	0.866373694	0.095426636	0.159232591	0.162368633	0.617246715
0.862430669	0.843342844	0.133711242	0.155121878	0.147822367	0.567819329
0.866664041	0.865881883	0.088347588	0.15938606	0.161867384	0.619601789
0.480803601	0.410061615	0.877339859	0.559238763	0.51766026	0.170416932
0.877396972	0.462750636	0.420611169	0.170659951	0.609515893	0.572970693
0.881267216	0.041220836	0.040794009	0.175390024	0.692547665	0.692920149
0.34184356	0.825835942	0.332050075	0.583284959	0.118934783	0.612004677
0.877537977	0.47351054	0.404139182	0.170610327	0.625762334	0.586066834
0.865084884	0.08155783	0.867538729	0.161631224	0.62102508	0.159937927
0.877460572	0.440547147	0.44417916	0.170637367	0.609844649	0.57946557
0.455050974	0.435799955	0.877461019	0.61078493	0.576870857	0.170557492
0.438415161	0.444683419	0.877656701	0.593220399	0.563463702	0.170608199
0.825902611	0.135952115	0.128736824	0.119116797	0.605963367	0.577934546
0.130533097	0.320007215	0.220425234	0.622589388	0.623277996	0.621296314
0.877648155	0.471746167	0.476991734	0.170694904	0.561152675	0.532409317
0.103087121	0.078842926	0.855355674	0.643566521	0.6236604	0.149273558
0.424238917	0.877375534	0.46512169	0.573164443	0.170546332	0.609854413
0.41556847	0.877415813	0.469959532	0.536202653	0.170569935	0.575464871
0.826685937	0.265880721	0.274290934	0.11868926	0.608982353	0.583092552
0.405689918	0.87732863	0.480836755	0.53268175	0.170521344	0.575043809
0.874659092	0.047263578	0.872333244	0.168269218	0.657002745	0.16470238
0.013911291	0.014412349	0.013932393	0.696982959	0.697497511	0.697550728
0.841771269	0.092688224	0.09971419	0.134768878	0.629623951	0.604227522
0.130404755	0.863173193	0.857472	0.586307541	0.155097084	0.157382099
0.866880234	0.866658774	0.104156004	0.159253056	0.162616928	0.615537678
0.013707438	0.877681612	0.884314107	0.697316764	0.170912684	0.175701917
0.877773239	0.484932949	0.393092972	0.170714231	0.625194982	0.582601198
0.875779608	0.882692414	0.040862137	0.170357997	0.174882368	0.693168706
0.873075894	0.875951336	0.055318833	0.165433977	0.168774162	0.654898363
0.099479909	0.134917122	0.177436654	0.618233783	0.618618792	0.619693567
0.877487116	0.462037845	0.415476533	0.170514479	0.626088813	0.589818648
0.062491309	0.062482956	0.062432739	0.638285566	0.638236103	0.638493371
0.065215737	0.872344301	0.873842138	0.652765507	0.164750713	0.168392655
0.073018779	0.855852964	0.082404233	0.627821329	0.149383753	0.647605548
0.080760337	0.084315374	0.868917025	0.679600211	0.666566324	0.162514181
0.393121833	0.877843299	0.484973302	0.582645009	0.170720571	0.625165386
0.877347454	0.437184654	0.444245044	0.170343825	0.591471374	0.561967265
0.086361067	0.868923663	0.08316758	0.665075671	0.162497264	0.677414054
0.855241536	0.064398984	0.077541982	0.148992089	0.652943442	0.631860056
0.068961681	0.071335824	0.855269345	0.649829786	0.629521714	0.149185187
0.874907446	0.883578369	5.49679E-06	0.170817499	0.175744096	0.699398068
0.071261682	0.064955896	0.08564258	0.669963033	0.670758132	0.671891355
0.866670555	0.866924835	0.104272954	0.159214687	0.162659294	0.615601525
0.877504945	0.473495253	0.404121208	0.170605232	0.625762371	0.586066347
0.227217685	0.220753579	0.825108356	0.606098413	0.580232826	0.118988806
0.058459129	0.038121644	0.076659076	0.679457229	0.678809251	0.680182236
0.04551294	0.047904153	0.053327409	0.655743259	0.656635517	0.656803175
0.080410602	0.855884329	0.104917705	0.623361871	0.149543157	0.642776291
0.028184245	0.027996676	0.88114594	0.694778743	0.695185917	0.174872226
0.459422326	0.429462991	0.877240105	0.559831582	0.524349763	0.170758292
0.123086701	0.864156212	0.85588658	0.588668361	0.155240144	0.156377857
0.82583195	0.147281532	0.131243524	0.119217706	0.602850973	0.575546304
0.826329044	0.146866833	0.13192079	0.119169428	0.604743371	0.575366915
0.484632049	0.392774404	0.877154372	0.625357494	0.582475604	0.170581665
0.139378185	0.131032773	0.824597223	0.604478431	0.577453559	0.118820746
0.877718771	0.473605914	0.404224401	0.170575801	0.625892319	0.586051933
0.877362252	0.450699942	0.432443341	0.170584857	0.609717132	0.576313839
0.013705783	0.876139491	0.883046739	0.697251555	0.170832544	0.175618235
0.146915934	0.131883925	0.825989012	0.601768024	0.572771665	0.119452477
0.059981266	0.060040119	0.059964406	0.640245138	0.640106157	0.639934966
0.091375094	0.074238382	0.854980353	0.645325793	0.625719223	0.149197974
0.883796527	0.0273259	0.875106105	0.175310804	0.695211043	0.169994166
0.865853437	0.076994534	0.867077008	0.161113472	0.622947469	0.159489386
0.882768318	0.0137066	0.876107937	0.174928645	0.697334602	0.170433661
0.844193404	0.133794282	0.8625888	0.147648728	0.567769772	0.15463017
0.426974088	0.877387256	0.45039874	0.593111691	0.170569725	0.626405877
0.864383375	0.85413732	0.107742716	0.156463488	0.154023878	0.593678465
0.426788634	0.877020806	0.450217392	0.593100537	0.170432079	0.626531578
0.843771769	0.13721078	0.86137822	0.148903166	0.566085233	0.154378046
0.028030628	0.027559256	0.881577535	0.69475094	0.69491328	0.175328426
0.868825464	0.090445921	0.076832296	0.162681577	0.671376418	0.65929456
0.877620054	0.448442035	0.432710347	0.170621535	0.590992555	0.55803132
0.882410435	0.054472363	0.054132615	0.17566305	0.690026836	0.690495144
0.46986188	0.415751579	0.877396561	0.575422585	0.536263128	0.170586795
0.874235735	0.050046226	0.872335717	0.168277703	0.658821866	0.164982989
0.153965231	0.859766217	0.847050647	0.560882622	0.151917026	0.151248573
0.85504472	0.079485954	0.071877177	0.148878724	0.647656818	0.627449237
0.065238095	0.871626495	0.874207096	0.652773818	0.164811963	0.168396462
0.875435152	0.076007961	0.871494468	0.168840651	0.650488045	0.164519513
0.480865596	0.410179305	0.877520528	0.559261912	0.517667544	0.170470711
0.102243779	0.841282362	0.083353016	0.605908045	0.134810467	0.631305945
0.481198789	0.410447236	0.878131928	0.55929377	0.517659488	0.17048684
0.051939221	0.053603283	0.058345195	0.654256354	0.654208743	0.654296912
0.111397122	0.865769809	0.85629488	0.592213115	0.156284657	0.155422883
0.076998345	0.868186593	0.866015998	0.623192086	0.16029757	0.161411551
0.876522309	0.88431212	5.49906E-06	0.171082856	0.176543337	0.69963447
0.883287677	0.054276398	0.87626137	0.175010561	0.690526506	0.170799766
0.439530617	0.877341803	0.448728488	0.527508309	0.170821161	0.559999817
0.07048524	0.071947595	0.075012661	0.650032402	0.649694037	0.649365283
0.877417036	0.459063982	0.422286953	0.170257836	0.590671886	0.554751146
0.876739942	0.883348872	0.040853969	0.170869119	0.175573763	0.693026419
0.090940451	0.078122012	0.868858973	0.668186994	0.657155502	0.162621095
0.867700333	0.86576531	0.082018073	0.159846977	0.161532846	0.621002076
0.877034532	0.480627284	0.401410404	0.170692379	0.590345161	0.548130889
0.856379567	0.068763772	0.072044276	0.149310146	0.649704305	0.629214039
0.091747891	0.074399516	0.855096346	0.645367803	0.625631734	0.148734935
0.860917446	0.844408216	0.137191065	0.153963438	0.148614763	0.566226136
0.107669308	0.864691497	0.854567394	0.593770371	0.156683938	0.15438485
0.860746236	0.84510304	0.147544152	0.152687187	0.15024947	0.562802826
0.111411229	0.864128618	0.855783105	0.592065852	0.156299146	0.155217507
0.874439259	0.04940942	0.871992651	0.168487015	0.659288778	0.16525372
0.470041279	0.411745473	0.877694667	0.590649639	0.551446787	0.170613073
0.083586545	0.080727099	0.86899914	0.675679631	0.663072679	0.162522595
0.113767774	0.10031857	0.84180417	0.626257656	0.600769597	0.134975537
0.054258787	0.876514965	0.883370746	0.690340729	0.171364976	0.175494143
0.470099675	0.41956177	0.877144481	0.559660605	0.521080331	0.170781484
0.866757222	0.866115542	0.081677556	0.159195997	0.16177971	0.62120671
0.014597865	0.881159887	0.01436274	0.697186926	0.175181636	0.697618779
0.070394117	0.071557551	0.074111264	0.650284406	0.649598378	0.650211905
0.133714493	0.862483095	0.844194103	0.567834444	0.155224808	0.148229532
0.131400177	0.826133379	0.149903201	0.576271032	0.118922008	0.604163989
0.051906038	0.053631129	0.058364534	0.65378562	0.654170369	0.653508667
0.877317159	0.878791936	0.878212881	0.170681328	0.170802444	0.170847002
0.058535732	0.03834265	0.077181521	0.679819766	0.679038109	0.680215157
0.105895117	0.1274143	0.177627623	0.616995922	0.618847398	0.61740021
0.092777549	0.099648817	0.841706227	0.62932296	0.604408014	0.134963326
0.075037397	0.856090513	0.091555441	0.625581673	0.149809214	0.645910599
0.845771254	0.141778441	0.861585457	0.150008648	0.564597583	0.153961745
0.876857016	0.470403607	0.411481803	0.17039554	0.589926245	0.551182858
0.841855758	0.113745336	0.100365239	0.135166718	0.626165397	0.600885489
0.868822133	0.081548331	0.078285494	0.162611447	0.673583873	0.661843534
0.473551236	0.404178847	0.877617484	0.625912983	0.586135663	0.170766801
0.086790232	0.078880801	0.868699051	0.672428887	0.660189032	0.162655771
0.883085447	0.054275397	0.875805331	0.174924615	0.690514793	0.170527898
0.082243257	0.869016886	0.099419296	0.656119402	0.162656597	0.668772501
0.045360827	0.047972121	0.053228476	0.655546201	0.656487742	0.6552417
0.486223366	0.402075244	0.877258732	0.607770076	0.564833715	0.170504818
0.10147139	0.128212483	0.170026024	0.617133382	0.62214422	0.620701075
0.130677032	0.308017172	0.208856745	0.621752965	0.622475212	0.621631053
0.217019351	0.826053792	0.217114262	0.580655198	0.119329386	0.608977169
0.860960383	0.846273351	0.147402004	0.153272964	0.150942527	0.562671579
0.877564237	0.459669322	0.429533412	0.170601718	0.559615776	0.524558521
0.087688616	0.867134007	0.866633629	0.619512945	0.159548292	0.162431253
0.102299286	0.123916556	0.166883473	0.616148391	0.620329548	0.617264286
0.132133269	0.825831897	0.149595746	0.576253085	0.118932224	0.604022691
0.462138703	0.415577748	0.877689145	0.626245305	0.589631125	0.170760506
0.041537451	0.04112801	0.042156472	0.69299782	0.692527149	0.692514853
0.133804237	0.86144765	0.842874845	0.567705378	0.154696868	0.147817128
0.855802567	0.091242246	0.074250154	0.149429991	0.645140734	0.625835194
0.413894311	0.877230756	0.47508611	0.568305941	0.170620223	0.6073042
0.866557594	0.86560192	0.10430844	0.159229588	0.162481879	0.615014039
0.866848681	0.866056543	0.088296091	0.159376454	0.161903368	0.619731028
0.083418953	0.102158189	0.841549251	0.630765786	0.605918884	0.134731856
0.48080817	0.405866488	0.877431047	0.574752363	0.532325193	0.170567508
0.045487733	0.048949275	0.051886465	0.657347345	0.65829518	0.658997282
0.476015835	0.413050852	0.877333392	0.61051229	0.570849471	0.17052503
0.153950363	0.859690857	0.84706243	0.560796611	0.152390443	0.151512794
0.878184451	0.470545486	0.420150267	0.170685532	0.559741662	0.52102388
0.841475051	0.124831606	0.103962211	0.135331985	0.622952652	0.597732883
0.826658205	0.184079772	0.191257314	0.118904717	0.611571986	0.581279197
0.877473788	0.450726678	0.432323659	0.170562589	0.609591383	0.576219474
0.086320493	0.868947877	0.083120601	0.665107445	0.162493236	0.677417393
0.855779654	0.068680638	0.071974511	0.149053796	0.650169941	0.629717329
0.86484018	0.854709048	0.111411457	0.156271254	0.155262855	0.592203553
0.88134011	4.88056E-06	4.83025E-06	0.175342709	0.699097441	0.699208742
0.825709798	0.14708776	0.131222835	0.119213686	0.603039868	0.575681034
0.459295482	0.429358087	0.877005938	0.559804759	0.524392566	0.170629982
0.439690155	0.877556881	0.448783448	0.527492569	0.170714718	0.559903745
0.871907527	0.874365047	0.047225646	0.164843363	0.168069541	0.657100491
0.095385196	0.86634411	0.866045411	0.617519011	0.158874655	0.162002118
0.855298951	0.06421806	0.078343118	0.148812283	0.653307571	0.632703865
0.882408387	0.054270919	0.875628773	0.174939384	0.690468804	0.170598894
0.443007163	0.448138798	0.877349213	0.606596315	0.576589974	0.170605861
0.425643716	0.877298805	0.459078139	0.539403198	0.17064415	0.575538423
0.877339105	0.468341833	0.482841188	0.170660479	0.562494651	0.533661266
0.869096995	0.076966116	0.080712244	0.16256315	0.676746795	0.664419091
0.099337657	0.8418591	0.103069052	0.602324504	0.134897421	0.627676167
0.877132295	0.459086184	0.421976698	0.170321615	0.590391908	0.554517127
0.062508634	0.062480234	0.062440178	0.638296498	0.638238724	0.638536125
0.070477789	0.05162885	0.083072784	0.673041865	0.672540187	0.674054882
0.445270605	0.877364676	0.438023742	0.562841908	0.170468683	0.592568913
0.100252169	0.842140596	0.114147617	0.601022083	0.135112857	0.625808284
0.825812077	0.137620191	0.130657104	0.118809006	0.605769288	0.576244658
0.442949323	0.448245454	0.877347343	0.606570189	0.576604476	0.170603107
0.437815366	0.444843709	0.877278914	0.592684884	0.56315158	0.170348394
0.877442985	0.469832959	0.412383655	0.170310883	0.591307236	0.552382901
0.877448739	0.473491825	0.410125115	0.170616335	0.609295876	0.569487715
0.070433226	0.071488516	0.0742216	0.650100872	0.649967464	0.650626838
0.877569571	0.877747416	0.877692253	0.170722782	0.171029469	0.170970076
0.059503333	0.065019521	0.063571206	0.652179539	0.651446858	0.651743994
0.124663471	0.103281224	0.841798772	0.624125979	0.598636983	0.135232014
0.863877928	0.85704785	0.13035665	0.155151842	0.156917841	0.586545168
0.014429447	0.880993567	0.014737264	0.697342327	0.175222673	0.697317642
0.87734744	0.484734293	0.392863791	0.170587444	0.625305924	0.582581511
0.573219174	0.877122518	0.543515016	0.538136032	0.170408531	0.565112887
0.86194773	0.843863443	0.133734505	0.155294273	0.148175345	0.567782644
0.055380762	0.871919792	0.87466337	0.65504641	0.16482763	0.168776144
0.092526898	0.080391331	0.86915727	0.667787084	0.656797527	0.162723137
0.866146711	0.087724461	0.867874166	0.162046796	0.619312203	0.159436701
0.138237296	0.13067923	0.826233058	0.60618266	0.577561641	0.119368838
0.067688398	0.077886226	0.85694916	0.652906664	0.6323905	0.149374998
0.873034841	0.874560758	0.065167898	0.164857692	0.16873256	0.652907097
0.469923681	0.41154974	0.877371706	0.590761937	0.551438029	0.170261326
0.877542295	0.44805575	0.433048827	0.170640974	0.590746944	0.557792432
0.884269944	0.013706967	0.876816612	0.175649753	0.697399404	0.171048203
0.415322181	0.877177074	0.461882073	0.589722981	0.170651922	0.626168687
0.056298783	0.044699462	0.074811609	0.67523009	0.674714935	0.675718128
0.099715527	0.841625423	0.092685884	0.60458831	0.134788045	0.629820387
0.877358119	0.459552519	0.429443423	0.170810649	0.559771299	0.524513251
0.083303469	0.298993233	0.277706639	0.620056178	0.618025477	0.618614405
0.86523122	0.077032029	0.866961001	0.161128776	0.62294763	0.159451584
0.237496497	0.235030052	0.82620408	0.60966361	0.578851925	0.118952244
0.841356063	0.083349087	0.10223325	0.134845556	0.631129731	0.605923476
0.058405711	0.038132935	0.076422647	0.67947129	0.678812165	0.680191398
0.081338982	0.869256543	0.09932918	0.656435029	0.16263799	0.669192813
0.863474055	0.856822098	0.130371712	0.155116518	0.156848019	0.58650534
0.403954406	0.877187617	0.473344406	0.586302033	0.170721237	0.625773362
0.149583387	0.133802554	0.826243903	0.603257272	0.575328385	0.119417263
0.06006181	0.060037418	0.059935025	0.639803849	0.640153726	0.640053243
0.883220937	0.040858168	0.875338383	0.175301594	0.693050862	0.16997876
0.484921699	0.393057076	0.877728998	0.62514585	0.582581161	0.170793322
0.444896513	0.877269576	0.437934636	0.562778689	0.170463611	0.592513757
0.040849235	0.876078135	0.882995477	0.692941569	0.170666994	0.175479169
0.855581802	0.107518458	0.865637471	0.154877448	0.593983858	0.15700254
0.438680938	0.438676193	0.87738339	0.626714621	0.596327867	0.170516847
0.405648806	0.877269074	0.480729377	0.532768269	0.1705539	0.575095252
0.131695165	0.825968514	0.149648351	0.576072883	0.118948996	0.604166308
0.877356386	0.437069941	0.446354445	0.170599338	0.575718618	0.546078928
0.855855725	0.116707745	0.864301343	0.155788174	0.590208773	0.156066829
0.107751352	0.864820703	0.855193766	0.593751167	0.156967267	0.154792773
0.8820158	0.027535521	0.027521574	0.175496021	0.694324879	0.694873412
0.413897952	0.877393789	0.475681544	0.566035553	0.170676454	0.60548428
0.439691931	0.877592948	0.448820138	0.527658352	0.170591802	0.559777305
0.340367397	0.825244866	0.343054082	0.583802162	0.118589031	0.6126027
0.411619	0.877545529	0.470011291	0.551591895	0.170476643	0.590526556
0.078753807	0.869049947	0.089021508	0.66432116	0.162632172	0.674209151
0.014665104	0.880856841	0.014786798	0.697291515	0.175344613	0.69678523
0.014304552	0.881573972	0.014284841	0.69750658	0.175369327	0.696971736
0.104031912	0.866987789	0.867083414	0.615671834	0.159358843	0.162870544
0.107750889	0.865198157	0.854872736	0.593975978	0.156890115	0.15457197
0.054276205	0.876125616	0.883249603	0.690532494	0.170781813	0.175211604
0.869175704	0.098118014	0.080706791	0.162723604	0.669974905	0.65727271
0.855425322	0.107517441	0.865707185	0.1549358	0.593888469	0.157114226
0.841818935	0.102930257	0.099085918	0.134987005	0.627733212	0.602585376
0.041132928	0.040962489	0.880827311	0.692604339	0.693149868	0.174985149
0.069662942	0.064999896	0.084665036	0.670502353	0.670515337	0.672743779
0.104145267	0.86659837	0.866966064	0.61537354	0.159211116	0.162791463
0.466109782	0.424506305	0.877358898	0.608618997	0.572034665	0.170559936
5.49174E-06	0.874302335	0.88232446	0.699392802	0.169914754	0.175449651
0.882834624	0.054271178	0.876564886	0.175081606	0.690459249	0.170965113
0.44541143	0.877495187	0.438137116	0.562995251	0.170554213	0.592671248
0.856323154	0.091327577	0.074135986	0.149295592	0.646301196	0.625303517
0.22651763	0.220864018	0.825121846	0.607255865	0.582762404	0.118888225
0.87546698	0.883949648	0.054271866	0.170578043	0.175299127	0.690447111
0.080659408	0.855893938	0.105009332	0.623345464	0.149590119	0.642781543
0.077477484	0.080852687	0.869033087	0.678274576	0.666187088	0.162519304
0.855096115	0.123091501	0.864156889	0.156381139	0.588324168	0.155589878
0.877591764	0.877890894	0.877504313	0.170728279	0.170763444	0.170770924
0.470356132	0.41982604	0.87766746	0.559626898	0.521025281	0.170809831
0.877335689	0.459145258	0.422067763	0.170405256	0.590591464	0.554770774
0.869032526	0.083144389	0.074900694	0.162594199	0.673705062	0.659934586
0.470331344	0.41990398	0.87771378	0.559725851	0.52103721	0.170776915
0.027322624	0.876506745	0.882840314	0.695131139	0.170833164	0.175489373
0.027322077	0.876476925	0.88294047	0.695106765	0.170731341	0.175278615
0.867014859	0.104042987	0.866559453	0.162868597	0.615452777	0.158937569
0.876221906	0.883510335	0.054274685	0.171070846	0.175603614	0.690522883
0.860478313	0.845459335	0.147405959	0.153344698	0.150836399	0.562853059
0.883982457	0.013706289	0.876575173	0.175636642	0.69735352	0.171073904
0.867120566	0.095303498	0.866935779	0.162532167	0.617687094	0.159410827
0.042059969	0.040946059	0.041891666	0.692966621	0.693087613	0.693671277
0.877292685	0.43704621	0.446315119	0.170596078	0.575721428	0.546056769
0.066219649	0.078888547	0.854464382	0.653822131	0.634235712	0.148930818
0.85558823	0.107529359	0.865649259	0.154918004	0.593895955	0.157003563
0.826382366	0.200497377	0.200735016	0.118949221	0.608333647	0.577976927
0.075976128	0.871791549	0.874865597	0.650584258	0.164642585	0.16864007
0.841775724	0.092692	0.099703147	0.13476885	0.629627168	0.604229851
0.427169944	0.87777958	0.450595109	0.593119598	0.170562793	0.626404589
0.871087313	0.87454085	0.075957688	0.164405839	0.168138377	0.650368698
0.877376618	0.448091037	0.435859229	0.170624874	0.575748355	0.542887013
0.854920298	0.066164368	0.079140824	0.14857806	0.652525503	0.631958322
0.864066334	0.856482268	0.116632481	0.155679777	0.155680603	0.590344997
0.855765	0.107523733	0.865527363	0.155171618	0.593823331	0.157051004
0.877371853	0.450390672	0.426966622	0.170601099	0.62645028	0.5931167
0.87800802	0.485053195	0.393206944	0.170732826	0.625206189	0.58263152
0.841730575	0.102963944	0.099085881	0.13500407	0.628092641	0.602740525
0.133729016	0.86266544	0.84405789	0.567796363	0.155459671	0.148445422
0.877185177	0.459486307	0.429336109	0.170466755	0.559805516	0.52442573
0.872277794	0.874525144	0.065199171	0.165447004	0.169029531	0.652847772
0.059581873	0.064708491	0.06301687	0.652037869	0.651729762	0.652106911
0.102154099	0.841633844	0.08337026	0.605906078	0.134784812	0.630728051
0.882959851	0.054274677	0.875909816	0.17486791	0.690499609	0.170832843
0.410308863	0.877794772	0.48100982	0.51751331	0.170825187	0.559487567
0.867144105	0.866061997	0.081990916	0.159840411	0.161637767	0.621202994
0.874909848	0.047193717	0.871948285	0.168504638	0.656923283	0.164873113
0.099714529	0.841614411	0.092675647	0.604572924	0.134808896	0.629791215
0.099746833	0.841517569	0.092687539	0.604217706	0.134844661	0.629676047
0.861108411	0.844115371	0.141738986	0.15297931	0.149059941	0.564569207
0.076987688	0.867917612	0.865707892	0.623105709	0.160345081	0.161807268
0.062440295	0.062482304	0.062392573	0.638239264	0.63838747	0.638553208
0.107651851	0.864765508	0.855114894	0.593756595	0.156811279	0.154560295
0.454823199	0.435989643	0.877416851	0.611033143	0.577342133	0.170577488
0.076644438	0.079990635	0.868972006	0.678329229	0.665996186	0.162511321
0.864469192	0.855538047	0.111454697	0.15621181	0.155398518	0.592238754
0.43595404	0.877421755	0.448133691	0.542687857	0.170635314	0.57557005
0.87260023	0.874075622	0.055336522	0.165596293	0.168722881	0.654756415
0.099224751	0.841828817	0.103083975	0.602512197	0.134920202	0.627719784
0.429573762	0.877500471	0.459568153	0.52439248	0.170654865	0.559895231
0.470204813	0.419615668	0.87730996	0.559652147	0.52099155	0.17060275
0.868850276	0.075850915	0.078847226	0.162519758	0.676409168	0.664437641
0.065226679	0.871286768	0.875092684	0.652943312	0.164712198	0.168862004
0.055356209	0.8721702	0.874369158	0.654908193	0.165010501	0.168551998
0.446184553	0.877336465	0.444431884	0.576430693	0.1705698	0.606983827
0.87759565	0.876275461	0.876593457	0.17066434	0.170304623	0.170716748
5.4925E-06	0.877172547	0.884112553	0.699291517	0.170580533	0.176062596
0.054274995	0.876838992	0.883026121	0.690492449	0.171213465	0.175221458
0.427194129	0.877828366	0.450619523	0.59310385	0.170836635	0.626462957
0.027321718	0.876530752	0.882815337	0.695092982	0.170751182	0.175408439
0.867019472	0.865498287	0.081829697	0.159502318	0.161638642	0.621289645
0.865459088	0.077054426	0.867660532	0.160929923	0.623433348	0.159528153
0.864874827	0.85559627	0.111447759	0.156267037	0.155305397	0.592120306
0.881450575	0.041191589	0.040849818	0.175500157	0.692506609	0.693074366
0.111439533	0.864164317	0.855648513	0.592122498	0.155839216	0.155070085
0.014658414	0.014359832	0.88229427	0.697136975	0.696840756	0.175657999
0.0731451	0.855143399	0.071784451	0.629155599	0.148728405	0.649073454
0.43475504	0.877503283	0.455024554	0.574472889	0.170569967	0.607881488
0.825658025	0.263759977	0.266181458	0.118858397	0.609676843	0.584793489
0.04085943	0.875765704	0.883629061	0.693101851	0.170535488	0.175505276
0.476794709	0.412917783	0.877426971	0.608509049	0.56809339	0.170573831
0.855734525	0.116699257	0.864925513	0.155372796	0.590227762	0.155691139
0.014031741	0.88135671	0.01414316	0.697093506	0.17532474	0.696921201
0.825596622	0.137240099	0.128548296	0.118693557	0.606571899	0.577712776
0.454988935	0.435901108	0.877402999	0.611036494	0.577420752	0.170587125
0.427188868	0.877820478	0.45061684	0.593100796	0.170580478	0.626389823
0.439835764	0.877853559	0.448930316	0.527529865	0.170853473	0.559933763
0.825954084	0.213919496	0.22558767	0.118707963	0.610646309	0.582273848
0.458943582	0.425707799	0.877325013	0.575517535	0.539381877	0.170589626
0.484902593	0.393039119	0.877691595	0.625163965	0.582583603	0.170762303
0.880502619	0.054567292	0.054177516	0.175454303	0.689919838	0.690650734
0.133796519	0.86083097	0.84247083	0.567780492	0.154746298	0.147818799
0.248695708	0.238192823	0.826223427	0.60896119	0.582903573	0.118989647
0.877482511	0.4736422	0.410137498	0.170564753	0.609302563	0.569464811
0.458996792	0.421943591	0.877382961	0.59077232	0.555087852	0.170402141
0.876612286	0.883973753	0.013706999	0.170763104	0.175992336	0.697368371
0.863913904	0.85675807	0.123109443	0.155664935	0.156500894	0.588560628
0.410261575	0.877816448	0.481068564	0.517494914	0.170623515	0.559353454
0.439021169	0.443960318	0.87751943	0.590983152	0.561625434	0.170377569
0.079309507	0.868728659	0.088291419	0.663145215	0.162685635	0.674650114
0.877382295	0.469844312	0.415526897	0.170593463	0.575602612	0.536331871
0.874929869	0.047291426	0.871877254	0.168451539	0.656796422	0.164625605
0.435878248	0.877307323	0.448049259	0.542880102	0.170540143	0.575825774
0.072926428	0.855946348	0.071338807	0.629644822	0.149579336	0.650189946
0.077069615	0.867833254	0.86528504	0.623141108	0.160404943	0.161216698
0.107851086	0.864904702	0.85539125	0.59371056	0.15665806	0.154530175
0.864405004	0.854710252	0.107783212	0.156326553	0.154395147	0.593897436
0.877274901	0.884577379	0.027329714	0.17061166	0.175796336	0.695283862
0.439272539	0.443505564	0.877464051	0.59276209	0.563216957	0.170488844
0.872397692	0.874629238	0.0476846	0.16526368	0.168454201	0.658863575
0.401228941	0.877053573	0.480539101	0.548585115	0.169923179	0.590436393
0.091741278	0.074263585	0.856434595	0.645330208	0.625910149	0.149691799
0.103029473	0.099073199	0.841572182	0.627752858	0.602522656	0.135024558
0.438701999	0.877435229	0.438706719	0.59644689	0.170521375	0.626593022
5.4925E-06	0.877157657	0.88411204	0.699323707	0.170598785	0.17611116
0.476235183	0.413362794	0.877372971	0.610657815	0.57075994	0.170544451
0.825483739	0.136327734	0.127715889	0.118598185	0.606617688	0.577213485
0.873859054	0.048981968	0.872502637	0.168331645	0.659031776	0.165500728
0.825661382	0.13641521	0.12710081	0.118945355	0.606488477	0.577850865
0.480874555	0.401414856	0.877600495	0.590230472	0.548118276	0.170891233
0.877242832	0.473056823	0.410530342	0.170530452	0.60911869	0.569282518
0.073176127	0.855934846	0.082476962	0.62779067	0.149374622	0.647688751
0.455044236	0.435878403	0.877394087	0.611013853	0.577443118	0.170591148
0.147002888	0.132745387	0.82578982	0.601344976	0.57187895	0.119780775
0.13289435	0.825204369	0.149099674	0.574416985	0.119053393	0.603632307
0.861163809	0.844077756	0.141734198	0.153011654	0.14909616	0.564563923
0.871683008	0.875490691	0.047467248	0.165331771	0.169264417	0.657156688
5.49326E-06	0.876437498	0.883635389	0.69904763	0.171056339	0.175574087
0.111386061	0.864937343	0.855605221	0.592042994	0.156327247	0.155295038
0.419677383	0.877505676	0.4703282	0.521114647	0.170793018	0.559695179
0.447761564	0.432430504	0.877048508	0.590831521	0.558349131	0.170140629
0.446196777	0.877313924	0.445501635	0.577022774	0.170557551	0.607311184
0.444669122	0.877501193	0.43847938	0.561950779	0.170479064	0.591356068
0.059475661	0.06415104	0.06278326	0.652291457	0.65201618	0.651561276
0.470591783	0.420032745	0.878119693	0.559634371	0.521025828	0.170816204
0.08161243	0.078984655	0.868869146	0.675185512	0.663214958	0.162554743
0.877501407	0.876784622	0.877210361	0.170667984	0.170527538	0.170352764
0.841716739	0.113834713	0.100378402	0.135064412	0.626113204	0.600646755
0.876139707	0.881781346	0.040856989	0.170742943	0.175264156	0.693047691
0.079739866	0.86902497	0.093084898	0.658829856	0.16274789	0.670200563
0.869126667	0.080477529	0.077697447	0.162561151	0.674238779	0.663038268
0.863255915	0.845946699	0.137243752	0.154394316	0.149113447	0.566229204
0.826181233	0.148864075	0.130913702	0.11934645	0.601918637	0.574434122
0.149845737	0.137134136	0.097019429	0.618823683	0.617716076	0.615429239
4.8973E-06	0.881414105	4.85718E-06	0.699396619	0.175063512	0.699100143
0.432717509	0.878026211	0.448513848	0.558352933	0.170522212	0.591124524
0.081436831	0.869162601	0.099286888	0.656355339	0.162638158	0.668858808
0.079678044	0.071521981	0.855714458	0.647693417	0.627656663	0.149122213
0.104195723	0.866591377	0.867015208	0.615381498	0.159224566	0.162798762
0.392935023	0.877475266	0.484791764	0.582638463	0.170828535	0.625206929
0.084897268	0.869016135	0.081795477	0.66537092	0.162533317	0.677397676
0.877475896	0.480641803	0.40562835	0.17052922	0.575028475	0.532671844
0.411789248	0.877869769	0.470163719	0.551560477	0.170476765	0.590707283
0.860315108	0.845413317	0.141745299	0.153631273	0.149709855	0.564524026
0.863261582	0.856604507	0.130350134	0.15465992	0.156826796	0.586421107
0.123100094	0.865160849	0.85785429	0.588505565	0.155794276	0.156810291
0.877499825	0.462043821	0.415483327	0.170497708	0.626087697	0.589817597
0.419699536	0.877275352	0.4701004	0.520838297	0.170835857	0.559733118
0.130481289	0.86300611	0.85729139	0.586612965	0.155149744	0.157283253
0.87520059	0.065240784	0.871488764	0.168381543	0.652784354	0.1645629
0.846552902	0.15398341	0.858529948	0.150868078	0.560835708	0.151522438
0.866822961	0.866867726	0.095314142	0.15927793	0.162462087	0.617351123
0.476008076	0.413075799	0.877282526	0.610131955	0.570681656	0.170556973
0.02754958	0.027599348	0.028045103	0.695220386	0.695167394	0.695041921
0.470210662	0.419817768	0.877509345	0.559648052	0.520988547	0.170612624
0.882688498	5.50033E-06	0.876208864	0.175031238	0.699367759	0.170524426
0.062434642	0.062493015	0.06241186	0.638262537	0.638296883	0.638594516
0.866671606	0.86703067	0.104214753	0.159183648	0.162786099	0.615698799
0.113687438	0.100332297	0.841435505	0.626090021	0.600681179	0.135019797
0.86659586	0.866653852	0.104468068	0.159131662	0.162812983	0.615226435
0.865563901	0.081509262	0.867532198	0.161427274	0.621119601	0.15976026
0.107263649	0.124082861	0.175589551	0.616699002	0.619944481	0.616763006
0.432600603	0.877760575	0.448355706	0.558391835	0.170465775	0.591032972
0.062437226	0.062469608	0.062355885	0.638269018	0.638433715	0.638517426
5.49578E-06	0.876167318	0.883969626	0.699274718	0.170593023	0.175529368
0.426997281	0.877427695	0.450415882	0.593023268	0.170608571	0.626439999
0.877078757	0.448622853	0.439366485	0.170670025	0.55977815	0.527810961
0.081813252	0.867553071	0.866278274	0.621270755	0.159942396	0.161793659
0.100336547	0.131714143	0.172860701	0.617273577	0.621553908	0.621698637
0.841632215	0.113828859	0.100353754	0.135067159	0.626015977	0.60056374
0.874420802	0.049830138	0.872263595	0.168430019	0.659257252	0.165229128
2.78725E-06	2.93755E-06	2.84638E-06	0.699193103	0.698954851	0.699180107
0.133725719	0.862007076	0.8439911	0.567842854	0.155214335	0.1481963
0.438400742	0.438395994	0.876822818	0.626549012	0.596312304	0.170427223
0.150001213	0.140788285	0.094331977	0.617801277	0.616189648	0.615237377
0.875401496	0.884127416	0.054271389	0.170629217	0.175350723	0.690440037
0.04547374	0.048360217	0.053719823	0.655900076	0.65614289	0.656161001
0.861409759	0.844943326	0.137234863	0.154427123	0.149243354	0.566292955
0.8556026	0.116691152	0.863687346	0.155261487	0.59026209	0.155621998
0.858936567	0.846404553	0.154047699	0.152250149	0.151268491	0.560776409
0.877415724	0.483568988	0.400427949	0.170588526	0.608638852	0.566075784
0.054594097	0.0542065	0.882444067	0.690143111	0.690533898	0.175808724
0.027547482	0.027596208	0.027813568	0.695209908	0.695585609	0.695410117
0.426960628	0.877364798	0.450389275	0.593088403	0.170435517	0.626509528
0.1027981	0.841926723	0.124988991	0.598606444	0.135206464	0.623655636
0.080150211	0.86899875	0.093804959	0.65912569	0.162679952	0.670409089
0.877205152	0.883715858	0.040855646	0.17100114	0.175409179	0.693025767
0.43473051	0.8774624	0.45518954	0.57535329	0.170564302	0.608670321
0.091370723	0.074276044	0.85492323	0.646004694	0.625509746	0.149088028
0.217019351	0.826053792	0.217114262	0.580655198	0.119329386	0.608977169
0.85568279	0.123093264	0.863664863	0.155848556	0.588341241	0.155038673
0.86662929	0.866547765	0.095513917	0.159158749	0.162655845	0.617771104
0.877337888	0.448061258	0.435866441	0.170611281	0.575737265	0.542862264
0.85574247	0.09125715	0.07426277	0.149382144	0.645137539	0.625834717
0.459143537	0.422181535	0.877762002	0.590882398	0.554985648	0.170869599
0.86074638	0.845103065	0.147544076	0.152687214	0.150249548	0.562802976
0.075976784	0.872072934	0.874560233	0.650553465	0.164637165	0.168623165
0.877819051	0.437339795	0.44449261	0.17055759	0.59194774	0.562697947
0.87722506	0.459144194	0.422057638	0.170296527	0.590456023	0.554575895
0.862869999	0.845812462	0.137235986	0.154408892	0.149188045	0.566296632
0.825777456	0.195814777	0.196739309	0.118384237	0.612837448	0.581858118
0.877584146	0.44788888	0.433184346	0.170733146	0.590774422	0.55775198
0.111412406	0.864105608	0.855797334	0.592067627	0.156320707	0.155234283
0.059494539	0.063846325	0.062957611	0.652047161	0.652335711	0.652313592
0.124668847	0.103199114	0.841582433	0.624085796	0.598387766	0.135115674
0.438777689	0.438772939	0.87757684	0.626709134	0.596326362	0.170521075
0.856003536	0.079452627	0.07185929	0.149110122	0.647861784	0.627306315
0.083412225	0.102166561	0.841456226	0.630948105	0.606171065	0.134850976
0.459155195	0.422025442	0.87760943	0.590918642	0.554966762	0.170867624
0.073212875	0.85543045	0.071802137	0.629290065	0.149647458	0.649514016
0.877645711	0.877756126	0.877904657	0.170708888	0.171034616	0.170979957
0.877426556	0.459021748	0.425670199	0.170606396	0.575727253	0.539677294
0.882520822	0.040847231	0.876915303	0.174601562	0.692846348	0.170595946
0.856795839	0.123126442	0.863731967	0.156555125	0.588558792	0.155561024
0.079811317	0.869073445	0.093519073	0.658933188	0.162739369	0.670308334
0.210651386	0.826220654	0.212428513	0.580048319	0.119335351	0.610140181
0.855539666	0.065460404	0.079215981	0.148547987	0.652417009	0.63184337
0.079732138	0.071554467	0.855636396	0.64815216	0.627356774	0.148978127
0.875093975	0.055407328	0.871816984	0.168510156	0.654987136	0.164529998
0.881290338	4.93147E-06	4.86118E-06	0.175381591	0.699215657	0.699676858
0.447974057	0.43268886	0.877512726	0.590906354	0.558389498	0.170282409
0.86640972	0.087759553	0.867065177	0.162087594	0.619291432	0.159597719
0.882894738	0.040852241	0.875521312	0.17513185	0.692960124	0.170661067
0.153949425	0.85977755	0.847018725	0.560784068	0.152521459	0.151625483
0.080211222	0.855673511	0.105020989	0.623613468	0.149494442	0.643394667
0.866603335	0.104001193	0.866778194	0.162575187	0.615337567	0.159199366
0.10320924	0.099047431	0.841814619	0.627732663	0.602657384	0.134971039
0.841638668	0.113750656	0.10022283	0.135062559	0.625688152	0.600465068
0.047188861	0.871801069	0.874443453	0.656926895	0.164734777	0.168351878
0.883669957	5.50033E-06	0.875634407	0.175551074	0.699414545	0.170691524
0.877143405	0.48071895	0.401517515	0.170450056	0.589626038	0.547709675
0.876836754	0.882588919	0.013706061	0.170595571	0.175493546	0.697285098
0.841355946	0.103027145	0.098995341	0.134982362	0.627657531	0.602677866
0.48086903	0.410202156	0.877545217	0.559261639	0.517666906	0.170464368
0.255242995	0.272621259	0.826118517	0.610689904	0.581481176	0.118624075
0.866744756	0.103985662	0.867267989	0.162587878	0.615622501	0.159172258
0.864311361	0.856047665	0.123132188	0.155757869	0.156567639	0.588378728
0.014690077	0.881147894	0.01457268	0.697268314	0.175415267	0.697537362
0.087822766	0.867090709	0.866424227	0.619364888	0.159516032	0.162518136
0.113760955	0.100286022	0.841646179	0.626031527	0.600600269	0.135019526
0.855294841	0.064243058	0.078166005	0.148892009	0.652938522	0.632608921
0.413554559	0.877234452	0.475447094	0.56809899	0.170621436	0.607107337
0.044524169	0.872328944	0.874070188	0.65929456	0.165008506	0.167942195
0.099686329	0.841619903	0.092683887	0.604567917	0.134859113	0.629777901
0.084952813	0.868985941	0.081628098	0.665400375	0.162544263	0.67736532
0.041228449	0.040955653	0.881247749	0.6926542	0.69305086	0.174926386
0.826019077	0.136804714	0.126666326	0.119156867	0.605511938	0.577894385
0.860967767	0.845283111	0.14177293	0.15381623	0.149940967	0.564511117
0.427013261	0.877465823	0.450437714	0.593042386	0.170486649	0.626488834
0.884156139	0.027325177	0.874869123	0.17573431	0.695214287	0.17034151
0.825662453	0.266377262	0.279012525	0.118386505	0.611018443	0.582803092
0.067672991	0.067609434	0.067928603	0.63648768	0.636353836	0.636726932
0.845923218	0.153952135	0.858219518	0.15084306	0.560917991	0.151671904
0.854134418	0.107621	0.86521946	0.154808523	0.593797293	0.156892962
0.841908124	0.092697085	0.099715456	0.134790173	0.629672083	0.604359529
0.123090218	0.863198097	0.856892397	0.58838582	0.155689684	0.156896021
0.868902486	0.08107827	0.077854353	0.162637757	0.672444846	0.661617521
0.056077143	0.044921611	0.074903953	0.674935448	0.674749569	0.675564948
0.077204998	0.080710722	0.868998143	0.678452628	0.665940497	0.162492373
0.056688389	0.044809105	0.075516416	0.67563741	0.674590355	0.676175205
0.081694872	0.867916965	0.865733937	0.621471849	0.159821187	0.161420701
0.469733214	0.411404437	0.87706502	0.590502044	0.552108842	0.169978065
0.841712524	0.102841427	0.098887408	0.134979285	0.62766753	0.60262358
0.438687912	0.438683214	0.877397367	0.626654397	0.596319977	0.170720773
0.480700481	0.40135266	0.877378552	0.590161166	0.548030337	0.170482426
0.139983468	0.131133756	0.825575214	0.606063206	0.577480572	0.119139137
0.448139712	0.435912283	0.877413101	0.575750095	0.542815555	0.170566585
0.470322203	0.41983894	0.877643324	0.559665173	0.520984618	0.170868269
0.411736302	0.877801484	0.470136029	0.551627454	0.170556614	0.590517
0.87484453	0.047219024	0.871627664	0.168393935	0.656950102	0.164811505
0.868890359	0.080586034	0.076984323	0.162632209	0.672634879	0.661559482
