Va	Vb	Vc	Ia	Ib	Ic
0.875087777	0.055407655	0.87181707	0.168510663	0.654986658	0.164530672
0.877458554	0.437848207	0.443640774	0.170570351	0.590761967	0.561145708
0.144474401	0.131791228	0.096696135	0.618277409	0.617506814	0.615845782
0.855656223	0.107509475	0.86570513	0.155246188	0.593666188	0.157111405
0.865730472	0.087709145	0.866803151	0.161862277	0.619341927	0.159304005
0.393076755	0.877756831	0.484931922	0.582661665	0.170823778	0.625214045
0.139883861	0.131390916	0.826368439	0.605895073	0.577282129	0.119239202
0.877311536	0.459152538	0.422067334	0.170416407	0.59058822	0.554760294
0.826015991	0.223084456	0.227924292	0.118793961	0.610322252	0.583393415
0.826391669	0.197156952	0.202484183	0.11880247	0.611679229	0.578686239
0.841750993	0.092680007	0.099669667	0.134796692	0.629599245	0.604324696
0.447832288	0.432517529	0.877214947	0.590787674	0.55845984	0.170202803
0.113753673	0.100212582	0.841980222	0.625925472	0.600571307	0.135140387
0.092671291	0.099605289	0.84158913	0.629556077	0.604575272	0.134949035
0.059981266	0.060040119	0.059964406	0.640245138	0.640106157	0.639934966
0.044913963	0.049201687	0.051551946	0.657821124	0.658322095	0.658487601
0.056078821	0.044875038	0.074930015	0.674533047	0.674677076	0.675552744
0.872716254	0.873917507	0.055336215	0.164757636	0.167993101	0.654717536
0.040851882	0.876233347	0.88329775	0.692989777	0.17060802	0.175507434
0.39307926	0.877767487	0.484939231	0.582653156	0.170815681	0.625183031
0.080308496	0.855972409	0.104288674	0.62342205	0.149600428	0.643845565
0.858838113	0.84583297	0.153954774	0.151546451	0.150920798	0.560874177
0.841669931	0.113820794	0.100331308	0.135067171	0.62608036	0.600629834
0.855650898	0.068675827	0.072061549	0.148938713	0.650173773	0.629518098
0.09998722	0.081324112	0.869210293	0.669234363	0.657583375	0.162747621
0.872076589	0.874366259	0.047213369	0.164850407	0.168078133	0.657084457
0.139967153	0.131616975	0.82586121	0.60604186	0.577388063	0.119385077
0.881267216	0.041220836	0.040794009	0.175390024	0.692547665	0.692920149
0.867117851	0.866465256	0.088218179	0.159396579	0.162145066	0.619713245
0.866592251	0.095484152	0.867248167	0.162299327	0.61716625	0.159384814
0.85504472	0.079485954	0.071877177	0.148878724	0.647656818	0.627449237
0.846463558	0.847465136	0.844386956	0.256271999	0.256883881	0.256752212
0.877437532	0.450423814	0.426999281	0.170490113	0.626367234	0.593212652
0.081663845	0.078626395	0.868895979	0.675887486	0.663936411	0.162582684
0.866231693	0.087663627	0.866266355	0.161692248	0.619509856	0.159053892
0.425581867	0.877233572	0.459056039	0.539473877	0.170491349	0.575603567
0.439602747	0.877353368	0.448670392	0.527509082	0.170703808	0.559908223
0.028266407	0.028020193	0.882210281	0.694890105	0.695007263	0.175007273
0.868726274	0.08452786	0.076581797	0.162676917	0.672418404	0.661359341
0.484776272	0.392910255	0.877435363	0.625364009	0.582503633	0.170574881
0.826127701	0.181788092	0.192807073	0.118912765	0.609214006	0.578437555
0.867093044	0.866549553	0.095471894	0.159478435	0.162757658	0.617345227
0.067750531	0.067602978	0.067875934	0.636461697	0.636479464	0.636720182
0.877349064	0.483344953	0.400511317	0.170567659	0.608510019	0.565825519
0.141364235	0.129978238	0.825003142	0.605460439	0.577676583	0.118695472
0.869076406	0.097876683	0.080816357	0.162758564	0.667379637	0.654084752
0.081772968	0.85600678	0.068979983	0.633472113	0.149122988	0.654446589
0.095864143	0.866551552	0.866872766	0.617401338	0.159049055	0.162378285
0.072960115	0.855361956	0.071632188	0.629368756	0.148748396	0.649736817
0.411673826	0.877500495	0.469897674	0.551417976	0.170501941	0.590470076
0.28699572	0.287984059	0.825822708	0.616363529	0.586550506	0.118707215
0.062477386	0.062478782	0.062438183	0.638256768	0.638405077	0.638528378
0.841622618	0.113841426	0.100321238	0.135063261	0.625992369	0.600551919
0.419634822	0.877421869	0.47029053	0.521039407	0.170631932	0.559661149
0.46995865	0.415537995	0.877322105	0.575498517	0.53633995	0.170544643
0.096948959	0.138676349	0.176680064	0.618200473	0.619252876	0.621409695
0.044568477	0.872141774	0.874137337	0.659294822	0.165043243	0.167939604
0.454898356	0.436031624	0.877472108	0.61096041	0.577161164	0.170565062
0.23305352	0.222418374	0.825474997	0.606253539	0.581667144	0.119062197
2.75873E-06	0.000002888	2.85854E-06	0.699300052	0.698701121	0.698426913
0.141551171	0.130163731	0.824627825	0.604683411	0.577595185	0.118843959
0.841158321	0.083348709	0.102218002	0.134780875	0.631340149	0.605980534
0.442942319	0.44825545	0.877346768	0.60656967	0.576604892	0.170603103
0.103160814	0.09905488	0.841632087	0.627715053	0.602576788	0.134943732
0.083324746	0.102164233	0.841306193	0.630786165	0.605935353	0.13484544
0.054303971	0.881738652	0.054633186	0.691022117	0.175383854	0.690322055
0.881204948	0.027946735	0.027733474	0.175486943	0.694609086	0.695316804
0.448169882	0.435896595	0.877428511	0.575729806	0.542790209	0.170565821
0.104196862	0.867081509	0.867168555	0.615454021	0.159259697	0.162991546
0.077069615	0.867833254	0.86528504	0.623141108	0.160404943	0.161216698
0.874863613	0.06524939	0.871300367	0.168657938	0.65269266	0.164851784
0.040599737	0.046542592	0.074571562	0.677605939	0.677496423	0.680328794
0.845706703	0.147464936	0.859435537	0.150127227	0.562647141	0.152513991
0.877491316	0.480530489	0.405740276	0.170596641	0.575410391	0.532977512
0.870478466	0.873519364	0.055337927	0.16452579	0.167672094	0.654800936
0.877317302	0.473402818	0.404025812	0.170515854	0.625775779	0.586070518
0.10303159	0.07893836	0.85601366	0.643487545	0.623633409	0.14976022
0.103224381	0.078811157	0.856294455	0.643374954	0.623692522	0.14964139
0.278576452	0.282501577	0.826249597	0.610910576	0.581610565	0.119086492
0.111407947	0.864432121	0.855814078	0.592179121	0.156320705	0.155525914
0.872998712	0.876236246	0.07595843	0.165130479	0.168967999	0.650428232
0.092736249	0.099612972	0.84140888	0.629511318	0.604544641	0.134949807
0.046086195	0.048156016	0.052542587	0.657968137	0.658957661	0.659705619
0.845254012	0.147479876	0.858831573	0.150202284	0.562776498	0.152501779
0.855462082	0.102875545	0.079091828	0.14944055	0.643422708	0.62352322
0.410268799	0.877898252	0.481133454	0.517528435	0.170693832	0.559440602
0.443973632	0.446520576	0.877368699	0.608248784	0.577663425	0.17057887
0.206202069	0.825915475	0.204547537	0.577407835	0.119365194	0.606541584
0.10399617	0.866952453	0.866814821	0.615620204	0.159438258	0.162908385
0.083404669	0.102190922	0.841696049	0.631113342	0.605746539	0.134726369
0.070584277	0.051259093	0.08267779	0.673560314	0.67262848	0.674868769
0.147452496	0.858925797	0.845832879	0.562866303	0.152543619	0.150372023
0.111392154	0.864931985	0.855880514	0.592248198	0.15629679	0.155509156
0.841674923	0.124745901	0.103654799	0.13529801	0.623150482	0.598060894
0.856959507	0.130484326	0.862605737	0.156540324	0.586504279	0.154438618
0.107829201	0.864689713	0.854830577	0.593748851	0.156609293	0.15451048
0.863193954	0.856779975	0.130354103	0.15461621	0.156796186	0.586425581
0.867070218	0.095359165	0.866962262	0.162541528	0.617582448	0.15940761
0.070244497	0.071706971	0.074123262	0.649445782	0.649683571	0.649495639
0.411610397	0.877529135	0.469990315	0.551576338	0.170522872	0.590518528
0.081790264	0.078883238	0.868908058	0.675859484	0.66395858	0.162575438
0.87735148	0.462534226	0.420994967	0.170625819	0.60864378	0.572219273
0.041128541	0.040931835	0.881922741	0.692660767	0.692949258	0.175317451
0.111440033	0.86416531	0.85565735	0.592115653	0.155840618	0.155072463
0.080062903	0.85569303	0.104109486	0.623436495	0.14948439	0.643728469
0.07039464	0.065210162	0.085101834	0.669940353	0.670774461	0.671881687
0.078871105	0.868936232	0.088260082	0.660325147	0.162619735	0.670632215
0.455044237	0.435878366	0.877394136	0.611013819	0.577443124	0.17059114
0.862708716	0.857243439	0.130387063	0.154632684	0.156737528	0.586471949
0.410064248	0.87733061	0.480790765	0.517488814	0.170446311	0.559465237
0.446180765	0.877325171	0.443974862	0.576745394	0.170577393	0.607581656
0.868931579	0.08097994	0.077960183	0.162632566	0.67249795	0.661581971
0.045434434	0.048181545	0.051609546	0.657167757	0.658417996	0.659158088
0.054340802	0.881836815	0.054620733	0.690872235	0.175493232	0.690415529
0.876289515	0.882866488	0.040844926	0.170989522	0.175377002	0.692853525
0.070891811	0.051707373	0.083511304	0.673585472	0.67251315	0.674162957
0.475506566	0.413965479	0.877329904	0.60880319	0.56951327	0.170613483
0.059346111	0.064425024	0.063646924	0.652202308	0.651851787	0.651942068
0.43593672	0.877418493	0.44815256	0.54269275	0.170619718	0.575605674
0.877341683	0.483985893	0.399877537	0.170501608	0.608243156	0.565554256
0.438672765	0.444136997	0.877515811	0.592802079	0.563263305	0.170504347
0.841397872	0.102971819	0.099039153	0.135002987	0.62756118	0.602494623
0.877522643	0.480885806	0.410162298	0.170416094	0.559354403	0.517621891
0.091697359	0.074520074	0.856193347	0.645545411	0.625857749	0.14940073
0.846465056	0.153970488	0.85864742	0.150901993	0.560869506	0.151606914
0.080399034	0.855183847	0.104353987	0.623425439	0.149185344	0.64335936
0.415535836	0.877611202	0.462102228	0.589695214	0.170690934	0.626229027
0.06522037	0.872188895	0.873917866	0.652766295	0.16477067	0.168401142
0.877692444	0.480925787	0.401830956	0.170811487	0.590286746	0.547959973
0.877575637	0.480847885	0.41026375	0.170379055	0.559317803	0.517589283
0.092809852	0.09966907	0.841554644	0.629302577	0.604370939	0.134984762
0.442941206	0.44825721	0.877346736	0.60656951	0.576605	0.17060309
0.877771762	0.48493228	0.393092147	0.170712789	0.625194867	0.58260111
0.877426556	0.459021748	0.425670199	0.170606396	0.575727253	0.539677294
0.08184148	0.0799231	0.868958825	0.67526517	0.662527004	0.162504091
0.432777935	0.877752823	0.448158023	0.558254527	0.170751631	0.591256443
0.87484453	0.047219024	0.871627664	0.168393935	0.656950102	0.164811505
0.087985324	0.867267733	0.865808496	0.619203823	0.159749466	0.161975274
0.871797083	0.874773706	0.065179803	0.164811619	0.168593471	0.652831322
0.856893189	0.130381009	0.862644826	0.156472215	0.586437077	0.154395397
0.877352553	0.483941685	0.399895917	0.170490533	0.60821155	0.56546558
0.425670195	0.877429089	0.459160601	0.539380609	0.170581377	0.575451036
0.877475896	0.480641803	0.40562835	0.17052922	0.575028475	0.532671844
0.876864628	0.469777484	0.412084767	0.170437803	0.590453993	0.551462695
4.83829E-06	4.87686E-06	0.881512373	0.699321403	0.699106078	0.175031307
0.863889544	0.857047205	0.130357908	0.155153834	0.156919372	0.586541438
0.100215386	0.081085594	0.869119788	0.668744997	0.656753126	0.162626869
0.130402824	0.86320003	0.857479631	0.586427666	0.155142049	0.15744499
0.8832737	0.054280384	0.87633878	0.175001184	0.690581784	0.170782189
0.844328621	0.133679845	0.861927172	0.148860946	0.567770598	0.155642086
0.099815444	0.081295328	0.868851284	0.667663611	0.657282917	0.162596038
0.054287747	0.881575316	0.054646055	0.690429731	0.175345202	0.689998493
0.442732797	0.448257073	0.877344136	0.606741974	0.576600955	0.170614036
0.87202171	0.873630421	0.048174839	0.16509709	0.168154021	0.658603633
0.402335189	0.877387454	0.486099783	0.56495221	0.170494925	0.607598854
0.877610958	0.448839483	0.439686108	0.170724019	0.559813431	0.527695713
0.111503059	0.863218901	0.854069397	0.59210703	0.155995862	0.155104959
0.045629433	0.04815654	0.054207586	0.65558911	0.65646508	0.655339306
0.866190262	0.087718001	0.867595172	0.161950732	0.619305619	0.159315739
0.874672477	0.047271076	0.872022343	0.168220358	0.657044424	0.164655576
0.876998365	0.459287083	0.421638237	0.170280686	0.590543473	0.554639386
0.874147499	0.076041755	0.871086923	0.168504724	0.650462417	0.164598339
0.872279114	0.874549816	0.065214544	0.165360119	0.168992809	0.652858751
0.131971715	0.312833747	0.211719431	0.622508703	0.624163806	0.621724564
0.14706196	0.133355536	0.825864317	0.601770056	0.571767622	0.119262345
0.480832683	0.410133635	0.877440394	0.559254229	0.517682381	0.170408689
0.070586556	0.071419503	0.07439371	0.649958664	0.650218159	0.650691123
0.028061851	0.027665447	0.881617112	0.694790747	0.694703666	0.17536542
0.081648456	0.867740182	0.865731084	0.621380968	0.159888527	0.161438831
0.401606	0.877596059	0.480732904	0.548226	0.170460655	0.589948496
0.045627479	0.048286456	0.054332718	0.655382064	0.656490137	0.655476845
0.125218904	0.110235914	0.145340642	0.615724028	0.614470606	0.614755598
0.102193979	0.841674711	0.083415253	0.606000724	0.134775793	0.630829345
0.133010618	0.825646918	0.149690814	0.575041501	0.118898129	0.603955339
0.876564852	0.438271694	0.438266985	0.170326517	0.626518925	0.596469725
0.873783224	0.055345608	0.871427492	0.168124627	0.654948743	0.164511346
0.405914018	0.877343903	0.480604312	0.532755064	0.170554036	0.575083733
0.881213409	4.84488E-06	4.82105E-06	0.175399318	0.699118074	0.699580679
0.062507165	0.062486345	0.062416737	0.638197085	0.638267408	0.638545288
0.883163249	0.013704986	0.875742549	0.175064416	0.697265832	0.170581522
0.866164796	0.104069033	0.866680291	0.162763381	0.615363934	0.159260627
0.854715134	0.107543387	0.864973247	0.154547818	0.593767859	0.156586162
0.054275676	0.875852246	0.883553069	0.690527323	0.170840161	0.175221481
0.054292303	0.881273321	0.054642987	0.690203523	0.175431749	0.6899431
0.87564653	0.883655663	0.054271064	0.17071641	0.175454816	0.690437148
0.131695165	0.825968514	0.149648351	0.576072883	0.118948996	0.604166308
0.825975345	0.188359049	0.192859447	0.118517328	0.613071145	0.580509773
0.867112213	0.86630108	0.088228638	0.15958906	0.162464796	0.619678939
0.336680501	0.825891152	0.330214745	0.585216878	0.118964758	0.610909229
0.861918705	0.844723705	0.137236552	0.154583998	0.148930513	0.566178169
0.014398897	0.014231921	0.882604514	0.697417044	0.69692788	0.175369735
0.877317453	0.46381383	0.493692664	0.170664524	0.56179084	0.532701465
0.866517194	0.865452531	0.087952992	0.159181411	0.161916285	0.619551209
0.08162869	0.869214028	0.099398822	0.656975654	0.162664356	0.66950301
0.081794595	0.867086833	0.866278608	0.621093215	0.159744595	0.161657585
0.059569006	0.064637649	0.063193573	0.652135219	0.651794178	0.651991167
0.058757348	0.038955412	0.077927914	0.679416105	0.679059201	0.679882648
0.841684695	0.113786653	0.100312481	0.135048533	0.625936802	0.600495242
0.846589172	0.153889574	0.859583421	0.15125834	0.560809946	0.152205604
0.426994523	0.87742336	0.450414269	0.593039897	0.170518426	0.626453397
0.825836008	0.187823613	0.191053761	0.118422878	0.612855221	0.581903991
0.844380069	0.137198345	0.862224723	0.149159566	0.566334547	0.154609621
0.448151577	0.435950359	0.877450626	0.57581572	0.542847664	0.170554029
0.881888854	5.49755E-06	0.873900138	0.174917046	0.699352404	0.170004072
0.866115086	0.087680091	0.866475156	0.16157994	0.619348123	0.158972596
0.87756306	0.884337302	5.49755E-06	0.171372609	0.175609856	0.699331949
5.49174E-06	0.873803584	0.882024725	0.699326367	0.170245284	0.175141587
0.081921638	0.869266666	0.099246607	0.656580122	0.162649051	0.669294233
0.091254794	0.074326957	0.854783603	0.645949276	0.62560071	0.149111215
0.133745738	0.86200242	0.844364318	0.567774471	0.154847638	0.147858249
0.867549895	0.865745092	0.081930539	0.159867224	0.16152169	0.620940427
0.869103557	0.082597658	0.074902564	0.162590608	0.672480403	0.65970705
0.045996786	0.04883913	0.052627617	0.657932632	0.658119624	0.659647371
0.12310934	0.863370926	0.857105465	0.58836762	0.155120918	0.156333418
0.87466064	0.047231163	0.871348042	0.168200619	0.65705906	0.164635781
0.141761262	0.860689651	0.844798123	0.56445271	0.153513211	0.149701221
0.435946347	0.877271862	0.447992484	0.54285487	0.170549737	0.575763712
0.455000589	0.435903929	0.877408046	0.611038697	0.57742077	0.170585814
0.871935348	0.87458317	0.055330859	0.164970868	0.168614083	0.654846496
0.099242221	0.841752082	0.103090039	0.60242936	0.134915308	0.62766522
5.49225E-06	0.87719696	0.884111936	0.699295785	0.170586833	0.17607517
0.867025154	0.103999256	0.867071413	0.162730638	0.615331302	0.159230528
0.432808688	0.877708307	0.448077785	0.558191481	0.170717849	0.590994663
0.393071346	0.877741894	0.484923084	0.582669844	0.170839419	0.625246825
0.877194617	0.480687611	0.401521999	0.170647549	0.59040884	0.54810889
0.439691556	0.877592466	0.448820086	0.527658435	0.170592385	0.559777306
0.877764181	0.462796899	0.488558667	0.170431916	0.561883165	0.533119735
0.058246563	0.04525778	0.077154979	0.675429205	0.674645482	0.676289434
0.841753617	0.092684998	0.099719026	0.134772869	0.629606704	0.604234365
0.485837334	0.402453763	0.877321434	0.607717623	0.564755588	0.170501174
0.103087489	0.099122446	0.841742907	0.627776836	0.602666783	0.134958569
0.84314858	0.133784871	0.862493355	0.147898473	0.567805573	0.155077889
0.872558262	0.874176197	0.055326655	0.165388739	0.168630731	0.654684603
0.484689761	0.392825686	0.877263709	0.625235631	0.582641127	0.170684718
0.859793936	0.846100087	0.147443451	0.1531105	0.150752572	0.562531763
0.014199616	0.014468864	0.88176046	0.697617982	0.697572965	0.1752741
0.480897842	0.410261636	0.877635294	0.559430473	0.517535479	0.170706436
0.877516496	0.448109192	0.432879028	0.170536686	0.590754044	0.557804668
0.044654352	0.049597422	0.052076896	0.658467926	0.659256532	0.658795047
0.045860305	0.048429273	0.052477798	0.657863651	0.658806129	0.659916602
0.876478216	0.883817031	0.013707327	0.17037373	0.17547427	0.69735204
0.073908444	0.855354093	0.082281278	0.627888585	0.149376921	0.648261216
0.855116821	0.111411448	0.864865726	0.15499283	0.591974582	0.156040508
0.469737593	0.411397935	0.877081306	0.590503988	0.552109974	0.169977684
0.102206129	0.841691721	0.08346581	0.606033305	0.13477172	0.630873086
0.04112638	0.040876384	0.881679259	0.692572672	0.692987816	0.175058165
0.082374573	0.868936735	0.083679317	0.663514992	0.162492483	0.677190028
0.869124669	0.076600133	0.079877323	0.16255171	0.6767307	0.664445152
0.825937093	0.237097694	0.247435946	0.118985628	0.611968135	0.581796637
0.124574146	0.296621346	0.204622856	0.621709081	0.62707418	0.624871762
0.875550079	0.884126893	0.027331069	0.17034826	0.175485465	0.695381353
0.861014826	0.844911706	0.141737113	0.153613051	0.149694222	0.564456237
0.877334568	0.45902645	0.425562359	0.170588041	0.575672809	0.539640119
0.871683008	0.875490691	0.047467248	0.165331771	0.169264417	0.657156688
0.074850421	0.855793107	0.091322612	0.625997305	0.149449292	0.645675413
0.067566079	0.067706967	0.067845956	0.636172171	0.636322996	0.636818303
0.107690949	0.864318837	0.853971405	0.593816896	0.156853755	0.154462993
0.881182531	4.85976E-06	4.8686E-06	0.175385031	0.69908984	0.699410872
0.873614864	0.055371562	0.871030432	0.168381257	0.654940781	0.164254072
4.89674E-06	4.84717E-06	0.881826746	0.699338509	0.699772714	0.175334674
0.054573359	0.055357044	0.055171988	0.690502539	0.689932982	0.690477723
0.470142741	0.419728055	0.877348009	0.559614857	0.520956058	0.170582583
0.111498894	0.864189716	0.855558996	0.591951624	0.155855152	0.155118896
0.074862325	0.074916967	0.075057887	0.634085174	0.63436338	0.634618057
0.345273429	0.825295344	0.33221438	0.581914158	0.118638001	0.611322688
0.841852739	0.103001884	0.099087025	0.135033614	0.627747271	0.602569489
0.014385583	0.014396687	0.882365578	0.697576908	0.697213653	0.175442756
0.872318027	0.874130287	0.055341329	0.164805167	0.168057294	0.654717555
0.87763658	0.475797647	0.476684245	0.170659375	0.562144264	0.533081317
0.075981663	0.871594069	0.874973739	0.650588287	0.164637906	0.168612351
0.877291859	0.448632967	0.439581318	0.170689171	0.559764487	0.527767308
0.073674826	0.855423011	0.082379183	0.628008116	0.149436094	0.648246669
4.83944E-06	0.88236729	4.93513E-06	0.699256978	0.175356664	0.699318144
0.480760176	0.40144307	0.877522761	0.590207517	0.54809057	0.170482813
0.843877934	0.137130162	0.861624714	0.148845772	0.566231056	0.154332177
0.866593137	0.865635879	0.081745751	0.159246473	0.161348491	0.621469553
0.857444371	0.123023178	0.864639488	0.156472863	0.588514134	0.155798726
0.279013488	0.29918847	0.825835104	0.614813779	0.584361137	0.118730274
0.028180092	0.028160378	0.881766917	0.69471384	0.694894017	0.175439736
0.086928358	0.078457043	0.868937234	0.672449488	0.661318183	0.162616954
0.844537744	0.141822207	0.861051485	0.149882055	0.564572605	0.15401223
0.877342033	0.480778714	0.410099907	0.170935958	0.559631992	0.517374768
0.469907889	0.415689868	0.877379256	0.575507042	0.536277194	0.170607106
0.066542323	0.078544608	0.855903122	0.653413787	0.63327062	0.149547814
0.825928544	0.216168924	0.225521621	0.118682217	0.60999743	0.580541769
0.448185134	0.435882257	0.877430357	0.575726117	0.542784963	0.170565005
0.470312519	0.419908957	0.877703613	0.559665871	0.521025765	0.170661106
2.76676E-06	2.87017E-06	2.81943E-06	0.699145812	0.699392451	0.69863025
0.877891265	0.437500423	0.444452861	0.170921451	0.59237556	0.562803764
0.87731219	0.470441459	0.411806459	0.17040661	0.590697934	0.551655217
0.877604217	0.87703906	0.87766802	0.170686514	0.170270717	0.170757836
0.862587613	0.845513001	0.137239	0.154385062	0.149038239	0.566254646
0.864073571	0.856046003	0.123142174	0.155827416	0.156629426	0.588402362
0.432549316	0.877205906	0.447879877	0.55812832	0.170575062	0.590816737
0.841843869	0.102952523	0.09905967	0.13498828	0.627737432	0.602589935
0.881693267	4.93232E-06	4.80144E-06	0.175531626	0.699165024	0.699154611
0.866432465	0.865352948	0.088258649	0.159193491	0.161970763	0.61947466
0.054597872	0.054258256	0.882029023	0.689936692	0.690742008	0.175148418
0.45500048	0.435903966	0.877408027	0.611038676	0.577420781	0.17058582
0.080159899	0.08378012	0.868944247	0.679546261	0.666525684	0.162497166
0.410282363	0.877927724	0.481148874	0.517503684	0.170764316	0.559442719
0.060082686	0.060001619	0.059894203	0.640009011	0.640610185	0.639918512
0.43587985	0.877312803	0.448086976	0.54288263	0.170528213	0.575829439
0.841708991	0.102985062	0.099082626	0.13503928	0.627702064	0.60256035
0.069975637	0.051703193	0.082331109	0.673470657	0.672601812	0.6748537
0.864363803	0.856011072	0.116638758	0.155764137	0.155661409	0.590380471
0.841807228	0.102969015	0.099141843	0.135044009	0.627729986	0.602566065
0.871634294	0.875270045	0.047483949	0.165028131	0.168862401	0.65713044
0.450235079	0.426808449	0.877057802	0.626529391	0.593028729	0.17043229
0.877620054	0.448442035	0.432710347	0.170621535	0.590992555	0.55803132
0.462486343	0.415919922	0.878379248	0.626144625	0.589788617	0.170591623
0.341156374	0.825328011	0.338549535	0.587921286	0.118521236	0.615279686
0.876093708	0.883347682	0.027319485	0.170574236	0.175814005	0.695061313
4.77448E-06	0.881404543	4.88226E-06	0.69934777	0.175309642	0.699147051
0.877735267	0.484913933	0.393071687	0.170772841	0.625053511	0.582525325
0.405808563	0.877303209	0.48060649	0.532752451	0.170565561	0.575048642
0.435854477	0.877307382	0.448086249	0.542881598	0.170505977	0.575825322
0.869071055	0.097671835	0.080893992	0.162757678	0.667282264	0.654053753
0.438959477	0.877949697	0.438964169	0.596297797	0.170985754	0.626635944
0.439086132	0.444061983	0.877724767	0.593049333	0.562980593	0.170466112
0.081699444	0.867747244	0.865735574	0.621380574	0.159884291	0.161429407
0.445270913	0.877364819	0.43802377	0.56284199	0.170468676	0.592568918
0.465740095	0.424638968	0.877403764	0.60878596	0.572180622	0.170591194
0.081589171	0.856031384	0.068824092	0.633475104	0.148992517	0.654439509
0.404185381	0.877649443	0.473575242	0.586263966	0.170665923	0.625767813
0.102154099	0.841633844	0.08337026	0.605906078	0.134784812	0.630728051
0.087769513	0.867045927	0.865718535	0.61989256	0.159632809	0.161979053
0.124943355	0.301364628	0.209077581	0.622250576	0.624780098	0.623073935
0.875907456	0.883345558	5.49578E-06	0.170611351	0.175229311	0.699305521
0.876729857	0.882825276	0.013706332	0.17067536	0.175538892	0.697303076
0.09061455	0.079045567	0.869223321	0.668406008	0.657118377	0.162652806
0.458980216	0.425700735	0.87733691	0.575652065	0.539475121	0.170591855
0.876258553	0.883763662	0.054272393	0.170848337	0.175639286	0.690454854
0.877878677	0.470419472	0.419972334	0.170659511	0.559759403	0.520976295
0.446375506	0.877410446	0.437100422	0.54610276	0.170607022	0.575745307
0.459216747	0.429267178	0.876838318	0.559852672	0.52438778	0.170635926
0.401605869	0.877595524	0.480732639	0.548225892	0.170460674	0.589948655
0.856730281	0.091272211	0.07419161	0.149368546	0.645840961	0.625593749
0.869060843	0.099060971	0.081585332	0.162775152	0.669076843	0.655363436
0.459014499	0.425712861	0.877361079	0.575891668	0.539694418	0.170582357
0.870499694	0.873514318	0.055338206	0.164517362	0.167612494	0.654786824
0.343401539	0.825285033	0.332219683	0.582218635	0.118455403	0.613209932
0.103089502	0.099113895	0.841683926	0.627711778	0.602605846	0.135005646
0.883786009	0.04084465	0.875684902	0.175492035	0.6928394	0.170338251
0.47650162	0.412686604	0.877201008	0.609843087	0.570469765	0.170585739
0.080039386	0.869006971	0.092857142	0.658265626	0.162640817	0.670070878
0.826244255	0.218749037	0.220463525	0.118608479	0.610183884	0.582724745
0.475978145	0.413518313	0.877408645	0.608693908	0.56939701	0.170613156
0.459827157	0.429846104	0.878040746	0.559816446	0.524321165	0.170776582
0.859380536	0.84539014	0.154009704	0.152239692	0.151263557	0.560787208
0.080144326	0.855750922	0.104238865	0.623512281	0.149425566	0.64373417
0.082440225	0.285649731	0.267644088	0.620198283	0.619573411	0.621551877
0.401236105	0.877047666	0.480541612	0.548573265	0.169914413	0.590399766
0.867419806	0.866737219	0.095423512	0.159246655	0.162566569	0.617825387
0.099715527	0.841625423	0.092685884	0.60458831	0.134788045	0.629820387
0.884708453	5.50058E-06	0.876761425	0.175478777	0.699355698	0.170936215
0.445265731	0.877377573	0.438023201	0.562849978	0.170464075	0.592560514
0.041068596	0.882313895	0.041541636	0.692732136	0.175875591	0.692215463
0.868885391	0.075940657	0.079190519	0.162529676	0.676689786	0.664609608
0.060005221	0.060043934	0.059943774	0.63999884	0.640143958	0.64021456
0.861511956	0.843046846	0.133713143	0.154709973	0.147441131	0.567698101
0.884171156	5.50007E-06	0.876549095	0.175641582	0.699395925	0.170730447
0.287804481	0.285726482	0.825872128	0.612399175	0.583811936	0.118710365
0.0729005	0.856213979	0.07111774	0.629789245	0.149365065	0.649966684
0.423645345	0.87743685	0.465787341	0.573065086	0.170556497	0.609815663
0.877673768	0.450543075	0.427115833	0.170697061	0.626556284	0.593098268
0.04513834	0.872252319	0.874949829	0.659167739	0.165562154	0.168551681
0.446491509	0.877319494	0.443476855	0.577306041	0.170581983	0.608283591
0.863969138	0.857088286	0.123098907	0.155672219	0.156501636	0.588600263
0.877249289	0.43861397	0.438609231	0.170337854	0.626566698	0.596408977
0.113735143	0.100277716	0.841813564	0.626253871	0.600791989	0.134966868
0.014249924	0.01411323	0.881745247	0.697615005	0.697483631	0.175407795
0.099604554	0.841782104	0.092674623	0.604308225	0.13490001	0.629742545
0.405782689	0.877356333	0.480714982	0.532744703	0.170581566	0.575044482
0.877228768	0.45906897	0.422056504	0.170312596	0.590453349	0.554565244
0.103117775	0.078920056	0.85648927	0.643537047	0.623809226	0.149729904
0.882119267	4.84058E-06	4.87686E-06	0.175442695	0.6993392	0.699232917
0.455054022	0.435891576	0.877383154	0.610905071	0.577422475	0.170592202
0.459676918	0.429644635	0.877683193	0.559796631	0.524429563	0.17075261
0.013707776	0.876825852	0.883815377	0.697321229	0.170926939	0.175798039
0.438698277	0.438693549	0.877417886	0.626569474	0.596367686	0.170523132
0.861092453	0.84441109	0.141749396	0.152865933	0.148933837	0.564507632
0.411509951	0.877259647	0.469831104	0.551741919	0.170197643	0.590574678
0.149296073	0.134393435	0.82556865	0.60389171	0.574883464	0.119381719
0.864333459	0.854743044	0.107781466	0.156332224	0.15439217	0.5938997
0.841296046	0.083372083	0.102194351	0.134763089	0.631371289	0.606122381
0.4032076	0.877398169	0.485423653	0.564798634	0.170528762	0.607447044
0.415183691	0.876895465	0.461739458	0.589736716	0.170606572	0.626113094
0.439142534	0.443892931	0.877512413	0.592653609	0.562430733	0.170453038
0.439498003	0.877162154	0.448590898	0.527550331	0.170773633	0.559785674
0.059977464	0.060048334	0.059973094	0.640307931	0.640102886	0.639956783
0.877470539	0.878569416	0.877943298	0.170685001	0.170922169	0.171141852
0.842546033	0.133816893	0.862651199	0.148303018	0.567727153	0.155430091
0.09177178	0.074266523	0.855238563	0.645345606	0.625709654	0.148693036
0.872675736	0.875570557	0.055326534	0.165294001	0.168963553	0.654966407
0.447821476	0.432529614	0.877210981	0.590782845	0.558449592	0.170226687
0.484911965	0.393053224	0.877713567	0.625401244	0.582440062	0.170623005
0.130386784	0.863416688	0.857460989	0.586237368	0.154998848	0.157376009
0.079773337	0.071528895	0.855358796	0.647732525	0.627550867	0.148922973
0.881590573	0.0277181	0.02765464	0.175437745	0.694298502	0.694874609
0.883436224	0.013706697	0.875662856	0.175139828	0.697335909	0.17051631
0.881602566	0.041187528	0.040759512	0.175396992	0.692806312	0.69296825
0.869067863	0.089981954	0.075972432	0.162692183	0.67154931	0.659565868
0.045360827	0.047972121	0.053228476	0.655546201	0.656487742	0.6552417
0.079653611	0.869056335	0.088495581	0.664278807	0.162630711	0.673730231
0.027322049	0.87646699	0.882943474	0.695105922	0.170731244	0.175282835
0.825805061	0.19155844	0.189744024	0.118829355	0.609932537	0.580080299
0.874217221	0.047193408	0.872362784	0.168475194	0.656911892	0.164825344
0.469666183	0.41136211	0.876938876	0.590571883	0.551742497	0.170392626
0.437102335	0.446353082	0.877389897	0.575775717	0.546042525	0.170621437
0.459064586	0.422120281	0.877623228	0.59086461	0.555020713	0.170673408
0.877383454	0.480817302	0.410090782	0.170367498	0.559356052	0.517617226
0.8814833	4.85118E-06	4.86318E-06	0.175359941	0.69928216	0.699758591
0.415416564	0.877378558	0.461989136	0.589906622	0.17066808	0.626092196
0.877624814	0.470354988	0.419777391	0.170757183	0.559652369	0.520961373
0.091355846	0.079386891	0.869402877	0.668160785	0.65707307	0.162652113
0.08340114	0.102223844	0.84158887	0.63098844	0.605737486	0.13473425
0.086471563	0.869353803	0.083312502	0.665442099	0.162465453	0.677516745
0.871866407	0.873532366	0.047580329	0.165233892	0.168257153	0.658644874
0.877577233	0.472035175	0.479057136	0.170692923	0.56126462	0.532266296
0.047133602	0.871863434	0.873747966	0.656843373	0.164528137	0.167755719
0.41139164	0.877022459	0.469711619	0.551675716	0.170279723	0.590530787
0.439041994	0.443988164	0.877601935	0.59046356	0.561127933	0.170378681
0.111392154	0.864931985	0.855880514	0.592248198	0.15629679	0.155509156
0.13720981	0.860360122	0.844431703	0.566359316	0.154129032	0.148926478
0.444474188	0.877457382	0.438651414	0.56187085	0.170413767	0.591285938
0.826253797	0.147976407	0.132219014	0.119146029	0.604657093	0.575408719
0.214005364	0.825998578	0.212554223	0.578495089	0.119282591	0.606246133
0.856073091	0.111418932	0.864540244	0.155055097	0.591989637	0.156007523
0.841658666	0.113792693	0.100341384	0.135067118	0.626075176	0.600606706
0.825518954	0.265829933	0.277402574	0.118506812	0.611749774	0.586260128
0.877668281	0.484893631	0.393024139	0.170734234	0.62519349	0.582606289
0.874885216	0.075999713	0.871180022	0.168849679	0.650401867	0.164373646
0.882536019	5.49957E-06	0.87544683	0.174545923	0.699341245	0.170162233
0.473582643	0.404196258	0.87766742	0.625933443	0.586149511	0.170727404
0.435908368	0.877382762	0.448147463	0.542766349	0.170563108	0.575654503
0.876038916	0.883477072	0.054274294	0.171008749	0.175602901	0.690512664
0.877419931	0.473898767	0.410021681	0.170540198	0.609308664	0.569437665
0.877462744	0.480557922	0.405679108	0.17052334	0.57500682	0.532622856
0.088148776	0.079716767	0.868792451	0.67231534	0.660565029	0.162679437
0.410217007	0.877502789	0.480818184	0.517415483	0.170777168	0.559444153
0.455044236	0.435878403	0.877394087	0.611013853	0.577443118	0.170591148
0.877357476	0.451043625	0.431961786	0.170497134	0.608748004	0.575298442
0.01383369	0.013983496	0.013797606	0.697325829	0.696983968	0.69719879
0.410308212	0.877733867	0.480948256	0.517497166	0.170431176	0.559479569
0.139364049	0.130869892	0.825106171	0.604125406	0.576813124	0.118796633
0.088052451	0.867361575	0.865859786	0.619196899	0.159756827	0.161947261
0.826039644	0.194300373	0.205376128	0.118794912	0.60955081	0.577483972
0.301757059	0.82637835	0.295555198	0.590527595	0.118956782	0.615329001
0.843771769	0.13721078	0.86137822	0.148903166	0.566085233	0.154378046
0.573067176	0.877176864	0.543877181	0.537945877	0.17040177	0.564759625
0.862333045	0.84527434	0.13724033	0.154388243	0.149019254	0.566230937
0.8550807	0.111467431	0.864503952	0.155424739	0.59213824	0.156817874
0.079589849	0.868976474	0.093415509	0.659241571	0.162662906	0.67039393
0.871964027	0.875242472	0.055333533	0.165172487	0.168784301	0.654858877
0.448825427	0.439594203	0.877484536	0.559695197	0.527848964	0.170732276
0.141749832	0.860693747	0.844763464	0.56451402	0.153483663	0.14967028
0.846581584	0.141770327	0.862573048	0.149963418	0.564569036	0.154031652
0.876147045	0.881849813	0.040849414	0.170882812	0.175342696	0.692914055
0.43260614	0.877381767	0.447975842	0.558250942	0.170493591	0.590944464
0.446049921	0.877355205	0.444520955	0.576445028	0.170561489	0.606945545
0.404183667	0.877645576	0.473572999	0.586220599	0.170779552	0.625860493
0.041126088	0.040867387	0.881717034	0.692576325	0.693012719	0.175064825
0.069885315	0.065098465	0.084956296	0.67052092	0.670273735	0.67258594
0.881235115	0.027496604	0.027297896	0.175487613	0.694270115	0.695234235
0.883903263	5.50058E-06	0.876388157	0.175488418	0.699335865	0.171214216
0.442860755	0.448134382	0.877336314	0.60692856	0.576666384	0.170609594
0.079594022	0.86904256	0.089014797	0.664318187	0.162636215	0.673954714
0.415490745	0.877354663	0.469998016	0.536015718	0.170533865	0.575267898
0.413289522	0.877236466	0.475689609	0.568426857	0.170617767	0.607420175
0.868800209	0.075989723	0.079015513	0.162528399	0.676447752	0.664340456
0.846335382	0.153976081	0.85859709	0.150902579	0.560862465	0.15160486
0.432581065	0.877383403	0.44802301	0.558249141	0.170434194	0.590930994
0.867951898	0.865662477	0.077299532	0.160068634	0.161109753	0.623252494
0.876960391	0.480574571	0.401399701	0.170695741	0.590235722	0.548240822
0.82602187	0.192255984	0.200467181	0.118839759	0.611935724	0.581402549
0.459105581	0.425709426	0.877445285	0.57593901	0.539754875	0.170579935
0.877889277	0.448143453	0.433254441	0.170595718	0.591064562	0.558276151
0.882007057	4.91851E-06	4.85461E-06	0.175397111	0.699263597	0.699313266
0.027816657	0.027597917	0.028092478	0.695251715	0.695603249	0.695403149
0.123108685	0.863348804	0.856416161	0.588687059	0.155161354	0.156295511
0.08274093	0.255973169	0.237224054	0.620052146	0.624410019	0.625162823
0.877386812	0.469816466	0.415551765	0.170556831	0.57540487	0.536119633
0.863239369	0.856872356	0.130346018	0.15470066	0.156852391	0.586417715
0.068837993	0.071383504	0.855205148	0.649952032	0.629891412	0.148865071
0.058604439	0.038686046	0.077447874	0.679895359	0.679040517	0.680255358
0.107711423	0.864851501	0.855142481	0.5937561	0.156991176	0.154851826
0.86647393	0.865866389	0.088193728	0.159357642	0.161847916	0.619596718
0.87711731	0.438547831	0.438543188	0.170249266	0.626597606	0.596399872
0.877860909	0.448144873	0.433220563	0.170604124	0.591207316	0.558552853
0.083078191	0.868979238	0.084478657	0.661004085	0.162572796	0.672944219
0.864656014	0.854927245	0.111420363	0.155964933	0.154922321	0.591914804
0.863877928	0.85704785	0.13035665	0.155151842	0.156917841	0.586545168
0.129237784	0.108501014	0.151192891	0.615452755	0.613154403	0.614653098
0.124663471	0.103281224	0.841798772	0.624125979	0.598636983	0.135232014
0.869094696	0.082654488	0.074753664	0.162565375	0.673019162	0.65957183
0.131681801	0.826162374	0.149161338	0.576036579	0.118969131	0.603546391
0.01370577	0.875702348	0.883809702	0.697220311	0.170906615	0.175687754
0.430033645	0.878309814	0.459914923	0.524465349	0.170883459	0.559783962
0.480735376	0.401422671	0.877472806	0.590028503	0.548234185	0.170533538
0.014523835	0.014395485	0.881263908	0.697195254	0.697526252	0.175300621
0.073463049	0.855707206	0.08251985	0.627573395	0.149303962	0.647810329
0.865084884	0.08155783	0.867538729	0.161631224	0.62102508	0.159937927
0.141749942	0.860693629	0.844762935	0.564513345	0.153483935	0.149670582
0.841464036	0.124859401	0.104051165	0.135337206	0.622924383	0.597778763
0.88282188	0.013708118	0.875079665	0.175009624	0.697417478	0.170435257
0.130103247	0.318018444	0.21898114	0.6230864	0.623634859	0.620707367
0.854966711	0.111435392	0.863560012	0.154918735	0.592160371	0.155755139
0.113857117	0.100108235	0.84208439	0.625853282	0.600720371	0.13510525
0.866959568	0.104027518	0.866582874	0.162670408	0.615149325	0.158974084
0.137253081	0.862503665	0.845562382	0.566278667	0.15433976	0.149159084
0.480738896	0.405616299	0.877308355	0.575098148	0.53260648	0.170521518
0.825900507	0.222162519	0.232533489	0.118748114	0.608538349	0.581490074
0.054273133	0.87633097	0.882813099	0.69047271	0.170878248	0.174716105
0.881993576	0.027629022	0.027197305	0.175423578	0.694408704	0.694723491
0.864072546	0.856177871	0.123119504	0.155353056	0.156230498	0.588626863
0.066704927	0.079596468	0.853810909	0.652754563	0.633160341	0.148794033
0.443724226	0.877059636	0.439094009	0.561770379	0.170214385	0.591297708
0.883343474	0.054279363	0.876583316	0.175192177	0.690572566	0.170810479
0.15394914	0.860094661	0.846669867	0.560850308	0.152731428	0.151910954
0.42971195	0.877701102	0.45963571	0.524427553	0.170742784	0.559723272
0.045655791	0.047930307	0.053648449	0.655735698	0.656771677	0.656809249
0.854769103	0.107566605	0.865024658	0.154946681	0.593775216	0.156948155
0.877270918	0.437034102	0.446305738	0.170596035	0.575705962	0.546048651
0.841629699	0.113723475	0.10041972	0.13506545	0.626004482	0.600560938
0.437126774	0.44638482	0.877446326	0.575798981	0.546065751	0.170578921
0.435779873	0.877224539	0.448094113	0.542861177	0.170529951	0.575801447
0.87744874	0.473491758	0.410125428	0.170616322	0.609295883	0.56948771
0.445270605	0.877364676	0.438023742	0.562841908	0.170468683	0.592568913
0.103851296	0.124680472	0.169068904	0.616775421	0.621773212	0.619381054
0.059591586	0.064454419	0.062879439	0.652154984	0.651962604	0.651830964
0.040992566	0.882356472	0.04164034	0.69251745	0.175828821	0.692365141
0.070185506	0.065271804	0.085098959	0.67031824	0.671093285	0.672861171
0.442956889	0.44823408	0.877347787	0.606570955	0.576603891	0.170603153
0.465725316	0.424360126	0.877254998	0.608673726	0.571993608	0.170573177
0.842417599	0.133799567	0.862228514	0.147443611	0.567679586	0.154432869
0.883254381	0.013707977	0.876203514	0.174987475	0.697412712	0.17041852
0.041226487	0.882678521	0.041527454	0.692732161	0.175836087	0.692334083
0.04593053	0.04857977	0.051687132	0.657646507	0.658159243	0.65938151
5.49376E-06	0.876184232	0.88333888	0.699080401	0.170653438	0.175248826
0.877529119	0.45046928	0.427045225	0.170693212	0.626494516	0.593027015
0.079757304	0.869170334	0.093198756	0.65904554	0.162731896	0.670397578
0.107669308	0.864691497	0.854567394	0.593770371	0.156683938	0.15438485
0.080067574	0.869087811	0.093736751	0.659233706	0.162659956	0.670415769
0.444815709	0.877303809	0.438154	0.562787856	0.170448994	0.592515145
0.877631773	0.484867463	0.393014791	0.170706072	0.625106556	0.582578707
0.869075078	0.082884854	0.074566127	0.162570443	0.673139993	0.659605342
0.146730529	0.132717946	0.825878881	0.601358427	0.571886683	0.119895736
0.876751136	0.469748108	0.411982842	0.170435292	0.589999302	0.551179713
0.877283094	0.459128664	0.422064495	0.170405774	0.590658288	0.554821934
0.082804426	0.079941982	0.868780333	0.675381339	0.66377491	0.162585144
0.438701999	0.877435229	0.438706719	0.59644689	0.170521375	0.626593022
0.88353397	0.054269568	0.876237933	0.175081814	0.690440995	0.170958447
0.06521404	0.871535817	0.873902931	0.652808903	0.164647422	0.168229132
0.459040639	0.425797868	0.877413611	0.57550617	0.539384707	0.170572051
4.8549E-06	4.80692E-06	0.881971051	0.699239998	0.699431391	0.175360833
0.861060746	0.844410965	0.141745986	0.152876108	0.148950387	0.564517765
0.864876022	0.854471387	0.107754947	0.156328613	0.154422805	0.593886735
0.448779005	0.439595159	0.877444614	0.559703756	0.527847784	0.170592988
0.087883287	0.867113941	0.866125914	0.619836854	0.159487503	0.162075159
0.422103535	0.877841211	0.459380934	0.555189857	0.1703451	0.590420385
0.103032009	0.078899606	0.855868553	0.643370339	0.623375997	0.149267615
0.028078688	0.02802685	0.881450171	0.694795632	0.695303277	0.174879849
0.757994278	0.761359816	0.759411643	0.384092359	0.383967792	0.384676007
0.874292032	0.055394077	0.872365955	0.168591669	0.655142753	0.164751901
0.865672298	0.087689312	0.866903506	0.161758548	0.619284192	0.159120764
0.405829644	0.877363212	0.480659911	0.532738185	0.170606452	0.575045286
0.082573568	0.86910787	0.099735406	0.656322659	0.162631593	0.668855581
0.392952421	0.877482972	0.484783716	0.582441061	0.170498937	0.625285035
0.149741554	0.133565091	0.826416685	0.603324232	0.575346272	0.119368559
0.099216127	0.841980825	0.103011542	0.602334659	0.134894438	0.627749867
0.856020009	0.068849618	0.071986802	0.148869068	0.650004637	0.629189174
0.470543893	0.419922704	0.877951585	0.559594767	0.521000389	0.170498423
0.392934106	0.877466135	0.48478314	0.582442833	0.170525315	0.625278382
0.825603654	0.148392511	0.132294483	0.119030794	0.604693534	0.575297347
0.151688344	0.141145153	0.097438291	0.619022079	0.616732477	0.615180064
0.841629583	0.113769325	0.100399397	0.135058277	0.625975659	0.600526779
0.487050072	0.4014031	0.877438454	0.607419182	0.56431529	0.170529302
0.081523684	0.253969919	0.240191007	0.620475136	0.626981547	0.622736653
0.825285286	0.147769529	0.131543031	0.119126567	0.603556865	0.575907773
0.062515385	0.062502207	0.062454737	0.638405178	0.638464586	0.638561706
0.85469199	0.111486379	0.864540987	0.154695646	0.592177879	0.155822545
0.088025819	0.079547605	0.868711554	0.672606343	0.660692662	0.162672865
0.027322003	0.876441824	0.882951258	0.695104294	0.170729657	0.175295274
0.047170423	0.871999584	0.87443898	0.656916436	0.164758175	0.168375519
0.413312598	0.877415221	0.47607426	0.56658597	0.170548069	0.606531836
0.065232449	0.871876952	0.873932629	0.652721359	0.165071933	0.168618864
0.028206061	0.028091578	0.881767668	0.694692054	0.694937826	0.175442349
0.448814552	0.439625549	0.877513548	0.559795931	0.52770014	0.170642461
0.86899032	0.098277738	0.080056967	0.162766893	0.666658587	0.653965853
0.825755565	0.264713565	0.264460612	0.118873666	0.611280157	0.584595634
0.060041027	0.060039263	0.059921694	0.639824071	0.640181631	0.639942825
0.442846493	0.44817007	0.877333026	0.606831672	0.5766271	0.170613643
0.877383582	0.462820393	0.420667048	0.170607929	0.609499977	0.572863423
0.877219152	0.459178003	0.421867197	0.170381187	0.590754033	0.554950638
0.104049423	0.866706988	0.867338143	0.615472218	0.159134274	0.162835807
0.092764157	0.099647303	0.841387467	0.629535622	0.604433785	0.134889005
0.863643404	0.856486997	0.123158474	0.155669295	0.15644176	0.588422001
0.877994027	0.470448404	0.420064715	0.170943293	0.559679076	0.521084068
0.875722882	0.883670728	0.027331878	0.170546118	0.175694214	0.69540567
0.101724448	0.126315256	0.169297898	0.616754639	0.622116404	0.619882859
0.132788708	0.825791603	0.148852678	0.575167348	0.118887179	0.604012614
0.39317161	0.877960901	0.485039603	0.582644563	0.170916998	0.625263392
0.085797969	0.869131716	0.082330056	0.664751229	0.16234761	0.677169898
0.140756426	0.128858575	0.825949173	0.604328779	0.576117649	0.119114584
0.86891905	0.09112548	0.077869305	0.162690731	0.671335808	0.659325036
0.864384895	0.855730559	0.111384664	0.156124993	0.155270911	0.592306468
0.872586868	0.87446349	0.065200489	0.165106256	0.168869464	0.652884817
0.09902009	0.841805957	0.103065585	0.602520949	0.134922865	0.627697895
0.874356696	0.048466003	0.872453035	0.168333363	0.658955816	0.165487842
0.868601186	0.865954395	0.077282571	0.160043369	0.161265653	0.623259364
0.136165217	0.32281494	0.216274024	0.622834115	0.625501944	0.622001172
0.439089866	0.439085216	0.878201228	0.626630684	0.596532144	0.170695846
0.874235735	0.050046226	0.872335717	0.168277703	0.658821866	0.164982989
0.104067686	0.866511955	0.866618484	0.615368931	0.159002317	0.162842577
0.87746994	0.87802303	0.877989435	0.170695248	0.170840638	0.171005948
0.883264188	5.49654E-06	0.875049598	0.175090785	0.699331426	0.169781632
0.087911332	0.867594199	0.865937618	0.619248042	0.159734065	0.161942295
0.432746441	0.877752967	0.448198659	0.558273076	0.17084088	0.591357361
0.841718172	0.102956227	0.099030624	0.135025208	0.627691366	0.602586622
4.86888E-06	0.881318038	4.85976E-06	0.699320729	0.175028557	0.699189687
0.43710621	0.446367542	0.877405748	0.57577566	0.546050609	0.170610888
0.855096115	0.123091501	0.864156889	0.156381139	0.588324168	0.155589878
0.877407603	0.483552469	0.400435453	0.170591523	0.608638581	0.566072405
0.090528944	0.075768872	0.869132812	0.669435936	0.65984425	0.16259301
0.08195622	0.303974518	0.288377211	0.620062786	0.619577925	0.61767748
0.103241486	0.078829062	0.856413087	0.643351778	0.623689181	0.14963974
0.393124525	0.877843397	0.484970368	0.582400975	0.170667783	0.625393265
0.126293667	0.294699694	0.201250949	0.621490259	0.623751964	0.623736786
0.877327813	0.448118553	0.435821741	0.170605923	0.575720749	0.54285221
0.103922626	0.84178975	0.125096284	0.598567036	0.1354173	0.623609082
0.059483433	0.064663068	0.063485933	0.652023387	0.651864104	0.652017928
0.877304366	0.438641516	0.438636768	0.170295928	0.626580567	0.596418292
0.429606626	0.877646357	0.459687291	0.524429971	0.170838242	0.559752167
0.883064629	0.054273608	0.876447203	0.175028927	0.69048773	0.170933672
0.877445146	0.480584167	0.405719564	0.170599628	0.575311293	0.532918093
0.877411374	0.450748884	0.432450745	0.170559335	0.609759239	0.576356823
0.87734498	0.459021558	0.425585477	0.1705985	0.575689515	0.539652073
0.871799691	0.874802649	0.046242418	0.165012129	0.168415356	0.658050645
0.070738066	0.051792781	0.083309736	0.673489976	0.672520529	0.674671679
0.854993308	0.123113637	0.861844242	0.156035999	0.588454798	0.154975815
0.480695591	0.40138278	0.87739222	0.590155259	0.548027847	0.170438677
0.088108611	0.867136112	0.865926878	0.619379594	0.159540965	0.16211916
4.7858E-06	4.90806E-06	0.881586758	0.699461887	0.699126917	0.174993984
0.877237564	0.461911866	0.415353198	0.170519237	0.626131272	0.589807716
0.877437494	0.450423795	0.426999261	0.170490156	0.626367236	0.593212656
0.855810272	0.068836232	0.072053215	0.148906559	0.649958637	0.629247094
0.044523651	0.872319653	0.87369864	0.659179367	0.165744477	0.168415833
0.476039883	0.413058609	0.877336042	0.610545318	0.570858877	0.1705246
0.073689285	0.85493526	0.082450097	0.627633696	0.149398547	0.64745428
0.450353869	0.426925329	0.877293709	0.626406537	0.593236988	0.170398369
0.855598384	0.102797717	0.078683327	0.149597545	0.643353772	0.623853134
0.442941808	0.448256165	0.87734672	0.606569638	0.576604919	0.170603104
0.877450419	0.480556059	0.405655391	0.170525917	0.575011611	0.53261982
0.866986219	0.865860887	0.077448407	0.159889162	0.161499106	0.622645964
0.86048884	0.845931201	0.147431782	0.153219825	0.150883605	0.562531804
0.856683116	0.079511121	0.071910144	0.149361973	0.647920194	0.627526648
0.102222764	0.841244235	0.083320735	0.605834857	0.13480531	0.631307239
0.092667082	0.099550467	0.841451722	0.629563332	0.604516965	0.134822156
0.758650223	0.75811115	0.759433481	0.384212749	0.383064029	0.383068107
0.877555025	0.875745327	0.876435845	0.170658937	0.17049879	0.170462225
0.480574575	0.40583789	0.877365682	0.575360016	0.532862019	0.170504994
0.123765217	0.112512503	0.149676607	0.61545848	0.613429574	0.615310842
0.442909743	0.448260252	0.877341115	0.606649029	0.576578789	0.170613021
0.864982199	0.855586678	0.116598124	0.15639258	0.156251554	0.590351543
0.877407666	0.469854582	0.415530529	0.170597782	0.575517912	0.536189869
0.041184845	0.040981339	0.880955051	0.692578882	0.693142498	0.175001747
0.458973021	0.421923177	0.877338093	0.590735581	0.555084924	0.170312496
0.075993834	0.871435703	0.874476762	0.650522885	0.164573842	0.168693494
0.295823912	0.82600246	0.295386474	0.590498925	0.118905783	0.618741099
0.877186568	0.48046454	0.401705651	0.170673596	0.589989435	0.548185712
0.05910151	0.038520166	0.077665965	0.67978064	0.679094346	0.680158258
