Va	Vb	Vc	Ia	Ib	Ic
0.825518954	0.265829933	0.277402574	0.118506812	0.611749774	0.586260128
0.083394038	0.102165265	0.84127261	0.630706696	0.605728717	0.134786221
0.459037865	0.425688738	0.877294328	0.575447159	0.539351019	0.170576059
0.470293948	0.419810529	0.877590716	0.559599525	0.520943643	0.170581591
0.877437532	0.450423814	0.426999281	0.170490113	0.626367234	0.593212652
0.877322049	0.469808222	0.415505455	0.170605989	0.575400809	0.536089159
0.866501382	0.865692666	0.104043461	0.159281801	0.162485405	0.615209429
0.100306207	0.841745245	0.114027759	0.600524876	0.135123829	0.625549902
0.054305921	0.881769763	0.054606062	0.690600608	0.175453459	0.690235815
0.087958974	0.079480825	0.868695556	0.672531632	0.660495643	0.162668191
0.11144982	0.864668634	0.855826628	0.592134059	0.156335173	0.155507721
0.484803444	0.392950586	0.877501047	0.625426275	0.58250237	0.17062738
0.054604175	0.054201788	0.882752577	0.690291797	0.690597403	0.175663455
0.864407602	0.856901369	0.130293941	0.15535935	0.157304874	0.586524961
0.877197709	0.447824712	0.432905836	0.170285251	0.590958859	0.558563372
0.846134445	0.141774568	0.862103629	0.150040347	0.564589861	0.153955657
0.05537579	0.871810873	0.874378323	0.654914614	0.16466638	0.168458761
0.877710847	0.877805037	0.87803205	0.170713686	0.171018621	0.170988751
0.86913071	0.089917047	0.076174592	0.162673521	0.671744966	0.659729098
0.877159403	0.448625015	0.439463303	0.170635418	0.559771947	0.527788392
0.877534995	0.474173378	0.481385544	0.170656959	0.560987392	0.532200958
0.869221362	0.098411313	0.081055888	0.162677373	0.66983503	0.657342383
0.448141506	0.435892161	0.877394894	0.57574786	0.542803479	0.17056701
0.841622618	0.113841426	0.100321238	0.135063261	0.625992369	0.600551919
0.882545377	0.054554851	0.054165033	0.175684179	0.690104457	0.690406765
0.072823455	0.855743208	0.082700377	0.627741595	0.149403369	0.647577641
0.438587821	0.44410555	0.877188489	0.592015623	0.562656414	0.170408443
0.87670743	0.883315092	0.040860447	0.170784671	0.175893233	0.693140756
0.459226043	0.422274408	0.87793848	0.590896006	0.5551969	0.170378287
0.868830292	0.083665045	0.075289662	0.162659938	0.673192829	0.661682911
0.866912019	0.104037099	0.866498784	0.162594142	0.61535562	0.158999964
0.872391367	0.875399747	0.065208188	0.165490233	0.169039598	0.652773102
0.876216363	0.883782989	0.01370655	0.170674377	0.175824458	0.697337561
0.087928996	0.86756407	0.865946029	0.619252856	0.159738049	0.161943075
0.099758428	0.841566727	0.092677741	0.604602395	0.134813201	0.6297891
0.028150296	0.027646071	0.881441708	0.69490266	0.695033308	0.174957089
0.876609079	0.884247889	0.013706798	0.170870284	0.176147508	0.697363614
0.153945827	0.859873488	0.846902658	0.560828023	0.152715533	0.151816878
0.868847951	0.09777066	0.08038562	0.162782486	0.666242239	0.654033203
0.091648888	0.0743179	0.854983735	0.645371196	0.625643971	0.148806437
0.432606995	0.877276031	0.447873647	0.558218516	0.170722303	0.591403293
0.868958796	0.089322613	0.075433105	0.162665618	0.672183753	0.659743643
0.07599673	0.871768154	0.874906806	0.650497143	0.164419226	0.168870876
0.877335113	0.459059581	0.425540538	0.170583558	0.575646828	0.539632965
0.111503121	0.864244873	0.85574601	0.59199073	0.155828345	0.155102599
0.572760499	0.877107461	0.543633161	0.538601537	0.170404872	0.565921784
0.014347288	0.881568901	0.014282842	0.697505457	0.175361646	0.696957071
0.875105671	0.076030471	0.871248408	0.16874608	0.650561443	0.16458863
0.039645942	0.046723289	0.073635946	0.676731185	0.676883705	0.677081871
0.051790796	0.053696551	0.058086343	0.654398667	0.654188148	0.654398942
0.476038974	0.413419547	0.877459272	0.60853368	0.569233402	0.170613722
0.401235872	0.877033459	0.480550371	0.548558797	0.169904323	0.590364085
0.448887576	0.439816536	0.877776425	0.559753874	0.52784728	0.170701502
0.08196077	0.304654417	0.289147021	0.61981537	0.618087232	0.617490241
0.877039881	0.469956703	0.411967824	0.170158399	0.591474595	0.55272966
0.446347395	0.877333588	0.445543879	0.577196414	0.170564051	0.607459772
0.081798076	0.867284677	0.865139714	0.621105752	0.159858746	0.161574541
0.077038968	0.866723771	0.864923635	0.623213562	0.160045456	0.161219354
0.872163123	0.87551535	0.047431171	0.165311376	0.169222657	0.657148734
0.027462324	0.881926937	0.027696978	0.694926569	0.17529365	0.695358566
0.15391511	0.859896073	0.846624805	0.560906727	0.152422642	0.151604963
0.87404056	0.047311974	0.87120674	0.168429404	0.656907648	0.164520389
0.07465358	0.855409294	0.091425538	0.625720654	0.149183826	0.645533177
0.027325897	0.877185065	0.884654978	0.695209272	0.171071133	0.17571289
0.882060369	4.8686E-06	4.86803E-06	0.175455802	0.699273365	0.699228707
0.411486973	0.877252694	0.469843293	0.551641681	0.170214933	0.590539644
0.056234082	0.044491244	0.074584284	0.674367545	0.674799227	0.675709078
0.062469614	0.062477796	0.062424468	0.638258617	0.638409099	0.638525359
0.443924067	0.447530201	0.877370051	0.607215074	0.577777245	0.17058557
0.14742694	0.859820675	0.844964881	0.56279301	0.15308259	0.150747202
0.404253349	0.877765792	0.473624309	0.586214423	0.170659798	0.625708065
0.120580329	0.111835961	0.14119799	0.615822707	0.614784191	0.616059661
0.866308075	0.865606967	0.088233612	0.159421373	0.162016866	0.619492683
0.82597586	0.188604308	0.19396142	0.11855325	0.613103223	0.58041714
0.871762296	0.874757835	0.047429507	0.164637834	0.168553667	0.657103635
0.845506982	0.141825532	0.860153859	0.149763635	0.564504019	0.153537393
0.0823199	0.2806127	0.263620605	0.620301654	0.618165289	0.618849332
0.413696408	0.877417027	0.47574724	0.566110678	0.170658185	0.605899834
0.290316703	0.82583504	0.286317984	0.585629043	0.119052163	0.61170008
0.014451265	0.014550722	0.882204582	0.696724969	0.697200634	0.175659614
0.877430993	0.480825912	0.410140539	0.170570977	0.559408671	0.517405698
0.082903006	0.256147753	0.236598703	0.620087908	0.624745216	0.625108437
0.000004836	0.882409305	4.90099E-06	0.699298135	0.175330511	0.699283508
0.866615684	0.866433338	0.095430796	0.159157348	0.162673927	0.617720119
0.065231661	0.871867857	0.874079944	0.65277197	0.164797325	0.168403134
0.867075402	0.865851418	0.077278383	0.160099339	0.161782556	0.62271043
0.469894536	0.411423787	0.877263121	0.590603435	0.552251107	0.170145972
0.062437226	0.062469608	0.062355885	0.638269018	0.638433715	0.638517426
0.841026683	0.083310981	0.102218727	0.134813004	0.631264165	0.605944273
0.139630121	0.131392036	0.825977685	0.606037836	0.577380352	0.119395158
0.069895519	0.065324458	0.084806521	0.670319199	0.671101834	0.672809281
0.052149953	0.053382421	0.05855286	0.653878719	0.654317104	0.653460713
0.411482314	0.87719977	0.469793116	0.551627012	0.17023702	0.590525829
0.079486944	0.082698568	0.868920011	0.679185265	0.666235493	0.162497611
0.087523719	0.078977026	0.868756226	0.672871835	0.661748365	0.162728727
0.881496743	4.79883E-06	4.91936E-06	0.175287445	0.699672691	0.699544422
0.070542418	0.051452955	0.082411339	0.673524664	0.672674926	0.674860421
0.87800802	0.485053195	0.393206944	0.170732826	0.625206189	0.58263152
4.82278E-06	4.92725E-06	0.881687952	0.699305248	0.699126686	0.175199906
0.877543643	0.473519127	0.404135971	0.170570918	0.625962087	0.586066503
0.299966033	0.825837722	0.291527787	0.588080871	0.118812009	0.61801537
0.875266763	0.075970829	0.871700132	0.168999939	0.650475186	0.164676676
0.877287758	0.437124867	0.444239408	0.170371151	0.591453936	0.561925109
0.092539085	0.080517083	0.869017508	0.667807443	0.657096238	0.16264854
0.444595999	0.877643932	0.43916907	0.56259048	0.170754097	0.592324524
0.470020582	0.41565873	0.877403385	0.575536708	0.536285084	0.170581893
0.435737372	0.877360375	0.454503139	0.576209155	0.170571639	0.609602083
0.871899179	0.875515257	0.047464518	0.165313273	0.169214133	0.657099268
0.459544572	0.429664404	0.877571963	0.55973251	0.524319921	0.17074082
0.073008564	0.854672724	0.07160572	0.629452597	0.148713736	0.649594243
0.083419501	0.102158256	0.841555865	0.630767116	0.605924287	0.134730862
0.841046818	0.08332315	0.10222045	0.134802996	0.631279736	0.60593035
0.841882082	0.092740356	0.099581364	0.13478822	0.629680313	0.604348789
0.082405521	0.85616828	0.067863362	0.631453096	0.149063634	0.652742219
0.099065409	0.841803277	0.10306866	0.602548489	0.134914238	0.627682196
0.040858825	0.876460919	0.883305841	0.693118082	0.170553569	0.175779255
0.438370868	0.444838347	0.877695456	0.593223339	0.563477466	0.170596936
0.054279238	0.875576335	0.883534746	0.690577556	0.170958739	0.175662559
0.862248084	0.842201264	0.133721517	0.154905801	0.147664287	0.56766197
0.045329531	0.04833021	0.053365163	0.655900439	0.656202363	0.656114157
0.141840028	0.861102159	0.844005582	0.564515552	0.153420821	0.149391724
0.863858371	0.856346265	0.123155121	0.15566524	0.156443521	0.588418198
0.881655251	0.041054082	0.040689988	0.17549315	0.692534287	0.693013894
0.059576709	0.064557604	0.062985236	0.652073824	0.65175522	0.652114499
0.469481457	0.411258179	0.876641192	0.590418332	0.551768764	0.17023997
0.854134418	0.107621	0.86521946	0.154808523	0.593797293	0.156892962
0.877271404	0.470158002	0.411873176	0.170215118	0.591517398	0.552814056
0.157715692	0.148801547	0.095957791	0.61841226	0.615683144	0.615464798
0.05944545	0.064087967	0.063021768	0.652108832	0.651407075	0.651193181
0.877488673	0.480606134	0.405700301	0.170539568	0.575047188	0.532700727
0.056137464	0.044949009	0.075052079	0.674728229	0.674770633	0.675524142
0.040856447	0.875997956	0.883176879	0.693061822	0.170456982	0.175426921
0.869093186	0.098866544	0.081486222	0.162759676	0.667892214	0.6543358
0.866756487	0.087694921	0.867471558	0.162092901	0.619341396	0.15968653
0.450541346	0.427111791	0.877667832	0.62648505	0.593109094	0.17040926
0.860924527	0.845358013	0.141715311	0.153848374	0.149997701	0.564595474
0.070861818	0.065336293	0.085873159	0.670258061	0.670628647	0.671872656
0.027615358	0.027692829	0.02809648	0.694983126	0.695095469	0.69571557
0.470041573	0.411746078	0.877695543	0.590649417	0.551447145	0.170612842
0.486099811	0.524511309	0.87770173	0.5605506	0.53176108	0.170660883
0.128550976	0.316264261	0.218780197	0.623750825	0.626581643	0.621161545
0.254277137	0.272376419	0.826071912	0.611746926	0.582364769	0.118623658
0.044950682	0.049767575	0.051741824	0.657542672	0.658049373	0.65859165
0.087654772	0.079195318	0.868720634	0.672670013	0.66091034	0.162681623
0.041594812	0.041056139	0.041951836	0.693165734	0.692071038	0.693036034
0.42217408	0.877569095	0.45902363	0.555355251	0.1704815	0.591136712
0.430152126	0.878605232	0.46008644	0.524406944	0.170862267	0.559789007
0.861002351	0.843699413	0.14172491	0.153464206	0.149531734	0.564540754
0.054587802	0.054243016	0.880973335	0.690079985	0.690350313	0.175109539
0.459516449	0.429519688	0.877395044	0.559786912	0.524452367	0.170581946
0.867211834	0.866956787	0.095457571	0.159343569	0.162489492	0.617561896
0.027392331	0.881887069	0.027759693	0.694873845	0.17533084	0.695400874
0.054272211	0.877123711	0.884848102	0.690490997	0.171115289	0.175549816
0.872480691	0.875678525	0.065179876	0.165252627	0.169095311	0.652770133
0.062496448	0.062480889	0.062420622	0.638304979	0.638315827	0.638486099
0.866419869	0.866780932	0.104271669	0.159090974	0.162810298	0.615434499
0.855777836	0.123106214	0.863950312	0.15568956	0.588332343	0.154951388
0.419789851	0.877660548	0.470381177	0.520974856	0.170612255	0.559585218
0.295169545	0.826011577	0.295783003	0.590807149	0.118886283	0.618359858
0.141782447	0.862647972	0.846861766	0.564525629	0.154168035	0.150313665
0.415535836	0.877611202	0.462102228	0.589695214	0.170690934	0.626229027
0.44765109	0.432300646	0.876807215	0.591061404	0.558169737	0.170484895
0.446388543	0.877428176	0.437105929	0.546099708	0.170607988	0.575747329
0.153945431	0.859767434	0.847157437	0.560819592	0.152119419	0.151326818
0.882446109	5.49831E-06	0.874660318	0.174626098	0.699383061	0.170146039
0.42700943	0.877454255	0.450429942	0.592971062	0.170816078	0.626548266
0.091224013	0.079217724	0.869322092	0.668236154	0.657100941	0.162652617
0.065214183	0.871842716	0.873981617	0.652851737	0.164654048	0.168257889
0.476027002	0.413054445	0.877334648	0.610526996	0.570853715	0.170524826
0.874094095	0.051402623	0.87206631	0.168370481	0.659047056	0.16483323
0.129342702	0.108481535	0.151207566	0.61545096	0.613176399	0.614661097
0.847082691	0.147491248	0.859855311	0.150530003	0.562757341	0.152806175
0.880502619	0.054567292	0.054177516	0.175454303	0.689919838	0.690650734
0.877359176	0.459129964	0.422144681	0.170397173	0.590590347	0.554770609
0.876751136	0.469748108	0.411982842	0.170435292	0.589999302	0.551179713
0.13184207	0.825952789	0.149620162	0.575909945	0.118977088	0.604175518
0.867477737	0.864963069	0.077314964	0.16005433	0.161181758	0.623080197
0.480913467	0.405763576	0.877533292	0.574787144	0.532332209	0.170558585
5.49149E-06	0.87546144	0.884828899	0.699333786	0.170344038	0.175820756
0.014345044	0.881050696	0.0144506	0.697271499	0.175362823	0.696619661
0.147100449	0.133152118	0.825762634	0.601570016	0.571762052	0.119370424
0.220280205	0.219172229	0.825326632	0.606977682	0.580344469	0.118822726
0.826597341	0.262923626	0.283837736	0.118740244	0.611938912	0.584262536
0.86081685	0.84250278	0.133718458	0.154839767	0.147626344	0.567765825
0.826419724	0.13553225	0.127021635	0.119135068	0.605275341	0.577900171
0.07035188	0.072004175	0.074811941	0.650128108	0.649611352	0.649603734
0.877607935	0.438793413	0.438788676	0.170857859	0.626589279	0.596438747
0.455030898	0.43590281	0.877456277	0.610979204	0.577204653	0.170570269
0.841698581	0.124900674	0.103323355	0.135272681	0.623474417	0.598017969
0.866908452	0.866126138	0.081772926	0.159218073	0.161852115	0.621200976
0.075986286	0.871941796	0.874709594	0.650558485	0.164629039	0.168471366
0.14742805	0.86116592	0.846274054	0.562767074	0.15308523	0.150770859
0.877508539	0.459561372	0.429599929	0.170598955	0.559808446	0.524459543
0.877331637	0.459058864	0.425539797	0.1705882	0.575643115	0.539626146
0.459482331	0.429528182	0.877368538	0.559820343	0.524444848	0.170617334
0.419728383	0.877530328	0.470306842	0.521031938	0.170547499	0.559606197
0.84144136	0.113588406	0.100463201	0.1351512	0.625715277	0.600703441
0.051869666	0.053741798	0.058570172	0.653977946	0.653870324	0.653797655
0.872123984	0.874907978	0.046239906	0.165118021	0.168600316	0.658068978
0.876959217	0.480612369	0.409879809	0.170424488	0.559325787	0.517618977
4.88198E-06	0.881970671	4.87344E-06	0.699281374	0.17534272	0.699229342
0.825732609	0.136131432	0.128270252	0.119074149	0.606249425	0.577922239
0.877710576	0.459705007	0.429642169	0.170453833	0.55971112	0.524556776
0.487086343	0.401455109	0.877441851	0.607430818	0.56431904	0.170539265
0.107749051	0.865336993	0.85496827	0.593977435	0.156997022	0.154811398
0.074689587	0.074976971	0.075117604	0.634149564	0.634390594	0.634589467
0.847228475	0.846704387	0.846146296	0.257004126	0.257210581	0.256406464
0.758682679	0.757842916	0.758753856	0.384221352	0.383139334	0.383131689
0.877772209	0.877295842	0.878863998	0.17068226	0.170734796	0.170980624
0.877365754	0.448092607	0.435841044	0.170628054	0.575771476	0.542882992
0.054274807	0.875937312	0.883415272	0.690515115	0.17082427	0.17520695
0.877604671	0.473983208	0.484308458	0.170737492	0.561814705	0.532202208
0.758732795	0.758181941	0.760330625	0.384224512	0.383225049	0.383196771
0.826145645	0.179932578	0.195011905	0.118915679	0.610275795	0.579800784
0.279921463	0.825846178	0.273165149	0.581606525	0.118832388	0.612547306
0.013929236	0.014297267	0.013826196	0.696653534	0.697519611	0.697521056
0.484963566	0.39309247	0.877805773	0.625228277	0.582651761	0.17067686
0.855299826	0.111436953	0.863819866	0.154939318	0.592127873	0.155737046
0.868275778	0.866488892	0.077469105	0.160281905	0.161687083	0.62311818
0.276943835	0.289077706	0.825658201	0.613746683	0.582740027	0.118685466
0.054499163	0.055160074	0.054927235	0.690320767	0.690296117	0.690894092
0.881788432	4.87116E-06	4.84488E-06	0.175529177	0.699215152	0.699128908
0.446245693	0.877346957	0.444389317	0.576456589	0.170558764	0.606937072
0.072797744	0.85434064	0.071697094	0.629533436	0.148890704	0.649770654
0.570370196	0.877208278	0.550669262	0.537497823	0.170419186	0.563935007
0.871397249	0.875752386	0.065165405	0.164898161	0.169191762	0.652721596
0.44814357	0.435901602	0.877406842	0.575818014	0.542883244	0.170553731
0.480970559	0.410292241	0.877736538	0.559258811	0.517677413	0.170466673
0.845159316	0.141759126	0.861400471	0.149952947	0.564566711	0.154078126
4.82882E-06	0.881414622	4.91061E-06	0.699338119	0.175031175	0.699141484
0.040858825	0.876460919	0.883305841	0.693118082	0.170553569	0.175779255
0.414804038	0.877331717	0.474584772	0.569607308	0.170539452	0.608736986
0.844279099	0.137204406	0.861566533	0.148905152	0.566042398	0.154373946
0.444594267	0.877366533	0.438546951	0.561811245	0.170409618	0.591288721
0.861533909	0.84373424	0.137253778	0.154570167	0.148910159	0.566103315
0.082948041	0.274873484	0.254569529	0.620206534	0.623230069	0.624647254
0.104026133	0.86691974	0.866813079	0.615816776	0.15918776	0.162821062
0.432581065	0.877383403	0.44802301	0.558249141	0.170434194	0.590930994
0.438763941	0.877559009	0.438768675	0.596439718	0.170505002	0.626587729
0.08104633	0.855509908	0.066665633	0.630704683	0.148845094	0.652212625
0.090196974	0.076064788	0.869309367	0.669965132	0.660119896	0.162590235
0.877687145	0.480929385	0.401814102	0.170804528	0.590286742	0.547959623
0.393020787	0.877638614	0.484869225	0.582424825	0.170583964	0.625318608
0.040861457	0.875570143	0.883505267	0.693164802	0.170460169	0.175648165
0.881399096	0.041158549	0.041022651	0.175316031	0.692542344	0.693037807
0.863863618	0.855983177	0.116636683	0.155755235	0.155653657	0.590398501
0.826079051	0.22078363	0.227046366	0.118750997	0.608922949	0.580810977
2.77778E-06	2.85271E-06	2.80611E-06	0.699163516	0.699043132	0.699508232
0.411486671	0.877248392	0.46984089	0.55164174	0.170215583	0.590539678
0.46987801	0.415661089	0.877360676	0.575487867	0.53633057	0.170540355
0.429615775	0.87765659	0.459688455	0.524430659	0.170846377	0.55975306
0.82628985	0.191230333	0.187718217	0.118957393	0.611847848	0.581666176
0.873438556	0.875964604	0.055326731	0.16528349	0.169025407	0.654987103
0.487051668	0.401400053	0.877438355	0.607419216	0.564315273	0.170529301
0.415538764	0.877326173	0.469962096	0.536108777	0.170518767	0.575444222
0.077037732	0.868612835	0.866193503	0.623282979	0.160280925	0.161332347
0.104026131	0.866421782	0.866425733	0.615309253	0.159016513	0.162876364
0.869135057	0.08250532	0.074810423	0.162603139	0.674223839	0.660498054
0.070193257	0.071840907	0.074394813	0.649924219	0.649872518	0.65057338
0.090789974	0.076828908	0.868973467	0.667992466	0.65815023	0.162542383
0.075984084	0.871738242	0.875124066	0.650558067	0.164469066	0.168493117
0.877190472	0.440447593	0.443903383	0.170599915	0.608167733	0.577725959
0.041979223	0.041051555	0.042523205	0.692795476	0.691726012	0.692369776
0.877357723	0.437069987	0.446355657	0.170598894	0.575717085	0.546079763
0.882751356	0.040848963	0.876143964	0.174536506	0.692879318	0.17055964
0.083097389	0.080087177	0.86895142	0.675332111	0.66258794	0.162514598
0.877387104	0.469840865	0.41552335	0.170602173	0.575508153	0.536173086
0.401673261	0.877713453	0.480773118	0.548261917	0.170445421	0.589945988
0.487052199	0.401399037	0.877438319	0.607419228	0.564315266	0.170529302
0.103244324	0.078830441	0.856261052	0.643373929	0.623584593	0.149666102
0.867063972	0.104019029	0.866563284	0.16261537	0.615400204	0.158966931
0.059977215	0.060035339	0.059974445	0.640214866	0.64011633	0.639891867
0.419626817	0.877412682	0.470289295	0.521039614	0.170634937	0.559661418
0.09971918	0.081218406	0.869183776	0.669073937	0.657146547	0.162697835
0.054279949	0.875592432	0.883512659	0.690583089	0.170965756	0.175639072
0.0834017	0.102220644	0.841591885	0.630996646	0.605743247	0.134735758
0.860729754	0.844807786	0.13720217	0.154423029	0.14924258	0.566293607
2.79123E-06	2.93897E-06	2.82926E-06	0.699284228	0.69929229	0.699524867
0.876337068	0.882698708	0.040848546	0.171122235	0.17536858	0.692936441
0.081148789	0.869234111	0.09341749	0.658313691	0.162550928	0.670575269
0.153953804	0.860094075	0.846866495	0.560882403	0.152883513	0.151986274
0.02770906	0.027744808	0.028297665	0.695288037	0.694825738	0.695349066
0.09922863	0.841768102	0.103058661	0.602417081	0.134911394	0.627641965
5.49578E-06	0.876775339	0.884830273	0.699205761	0.170708849	0.175516037
0.869126667	0.080477529	0.077697447	0.162561151	0.674238779	0.663038268
0.861951622	0.844664081	0.137224219	0.154586356	0.148932629	0.566176149
0.844829283	0.147509836	0.858948001	0.150240504	0.562723865	0.152648085
0.877468433	0.480518186	0.405821146	0.17052524	0.574998656	0.532630517
0.422331827	0.878066395	0.459339042	0.555348235	0.170559249	0.591192701
0.85630372	0.064662886	0.078314137	0.148955393	0.652783167	0.631683579
0.41558061	0.87734994	0.470048558	0.536011026	0.170508097	0.575258632
0.877431816	0.480832189	0.410128126	0.170445968	0.559327938	0.517587761
0.448142897	0.435916471	0.877417195	0.575823469	0.542886595	0.170551868
0.079691054	0.071538736	0.855035824	0.647921945	0.627707693	0.148940453
0.841668034	0.124716635	0.103667639	0.135296469	0.623174683	0.598062355
0.47393935	0.404548509	0.878377334	0.625766469	0.586180576	0.170628118
0.841752312	0.092694055	0.099698102	0.134778929	0.62963472	0.604230562
0.459883734	0.429983797	0.878238825	0.559907899	0.524400393	0.170627701
0.123110706	0.864079655	0.856364316	0.588564116	0.155724584	0.15673803
0.067653472	0.067609053	0.067879188	0.636355872	0.636308206	0.636681051
0.867168087	0.86597433	0.081927104	0.159857529	0.161615238	0.621174098
0.8666217	0.866268489	0.10433372	0.159236188	0.162888533	0.614984136
0.87665007	0.883345703	0.040860509	0.17078972	0.175885596	0.693142455
0.856865201	0.111465241	0.865988527	0.155543746	0.592161262	0.156741075
0.866832058	0.095203917	0.867402384	0.162491048	0.617746255	0.159380758
0.095391768	0.866767627	0.865591683	0.617456702	0.159249867	0.162149888
0.861888033	0.855176178	0.123155941	0.155127559	0.156137402	0.588462875
0.069810389	0.065021207	0.084776199	0.67050576	0.670370984	0.672757198
0.144240567	0.826027391	0.150672358	0.576114396	0.119145856	0.605670706
0.877024576	0.484577278	0.392698358	0.170763194	0.625308684	0.582671968
0.877539119	0.462064831	0.415501309	0.170712381	0.626247456	0.589613344
0.878216388	0.884764227	5.49982E-06	0.171044603	0.176273834	0.699602699
0.424836213	0.877437984	0.464842226	0.573150647	0.170554036	0.60987227
0.130422234	0.863563871	0.857471552	0.586290829	0.155124866	0.157420042
0.410175847	0.877561372	0.480905929	0.517526376	0.170642677	0.559407404
0.24846618	0.247142351	0.825732399	0.608579971	0.581550519	0.119071112
0.145181968	0.136983871	0.09604829	0.618548409	0.616175743	0.615394702
0.083357011	0.868889361	0.084882532	0.660245494	0.162675625	0.673060963
0.866486736	0.095495732	0.86741545	0.16232968	0.617196201	0.159433218
0.068837218	0.071302849	0.855468404	0.650080699	0.629285984	0.149084855
0.070631756	0.051180716	0.082167723	0.673424666	0.672581232	0.674965499
0.881451634	0.027850262	0.027550891	0.175361624	0.694975777	0.695433115
0.143159786	0.825960847	0.146875853	0.573779978	0.118804795	0.60184921
0.074286172	0.855472294	0.091412708	0.625713533	0.149307765	0.645535321
0.882132372	4.8549E-06	4.87173E-06	0.175440607	0.699327857	0.699246531
0.841344516	0.083372892	0.102215085	0.134787122	0.631363825	0.606209797
0.041845074	0.041070752	0.042229318	0.693088063	0.692354077	0.692270394
0.434922129	0.877459122	0.4548812	0.574186295	0.170568384	0.607695314
0.45952117	0.429551559	0.877432412	0.559815005	0.524374292	0.170644044
0.445265731	0.877377573	0.438023201	0.562849978	0.170464075	0.592560514
0.079774291	0.071506573	0.855761304	0.647820176	0.627337816	0.149396306
0.469726104	0.411428359	0.877073681	0.590506663	0.552094075	0.170015768
0.877411489	0.450725742	0.432460768	0.17057503	0.609785395	0.576354136
0.059578988	0.064008607	0.062546175	0.651928303	0.652380704	0.6523233
0.443893036	0.446458441	0.877362997	0.608508222	0.577899028	0.170580536
0.06006181	0.060037418	0.059935025	0.639803849	0.640153726	0.640053243
0.422027544	0.877282393	0.458861626	0.555204487	0.170172618	0.590870997
0.091801779	0.074428894	0.856554236	0.645545571	0.625842728	0.149390839
0.027327441	0.876588634	0.883906389	0.695245201	0.170933223	0.175814194
0.153968467	0.859596276	0.846761162	0.56082241	0.152061476	0.151294599
0.083995089	0.868966172	0.085731919	0.660109922	0.162626887	0.674243738
0.059591643	0.064682822	0.063102041	0.652086836	0.651794859	0.652118191
0.095401567	0.867041907	0.866278146	0.617363449	0.159260744	0.162413162
0.33878465	0.825483086	0.334813936	0.586735678	0.118621321	0.612841919
0.040861783	0.87577616	0.883499487	0.693144691	0.170617203	0.175525569
0.091857657	0.078983548	0.869257508	0.668292642	0.657084588	0.162657493
0.44632438	0.877311844	0.437055345	0.546029103	0.170623043	0.575736064
0.884297622	0.027325361	0.875497481	0.176150514	0.695222714	0.170625753
0.843020374	0.133841995	0.861292003	0.14740744	0.567711725	0.154427586
0.402686784	0.877385104	0.486004323	0.564731345	0.170536125	0.607384795
0.044549738	0.871474395	0.874095814	0.659340361	0.164843521	0.167957307
0.864073571	0.856046003	0.123142174	0.155827416	0.156629426	0.588402362
0.86659586	0.866653852	0.104468068	0.159131662	0.162812983	0.615226435
0.402743349	0.877259298	0.485873037	0.565176619	0.170559813	0.608081574
0.877356631	0.437079567	0.446344603	0.170588823	0.57575368	0.546081893
0.013703789	0.876375689	0.882911391	0.697134088	0.170726547	0.175521315
0.883612594	0.027325783	0.875097401	0.175310566	0.69520872	0.169993039
0.855726825	0.107570527	0.865130573	0.15530318	0.593755502	0.1570951
0.841908124	0.092697085	0.099715456	0.134790173	0.629672083	0.604359529
0.123107138	0.863559588	0.856798998	0.588389753	0.155360149	0.156514463
0.070419561	0.071358152	0.074170186	0.649886919	0.650100247	0.649937546
0.401611771	0.877570767	0.480716555	0.548225168	0.170454523	0.589948579
0.014059967	0.881438983	0.014340997	0.697285137	0.175418488	0.697058684
0.43986632	0.877927331	0.44897235	0.52753414	0.170852561	0.559938337
0.876726112	0.884241223	0.013708506	0.170886443	0.175933331	0.697422446
0.438801552	0.438796852	0.877624536	0.626686808	0.596322644	0.170715055
0.480516952	0.409960818	0.876931686	0.559227384	0.517577663	0.170588607
0.862622708	0.855856705	0.123151943	0.155173157	0.156060677	0.588537189
0.454981981	0.435957093	0.877422302	0.61103825	0.577414301	0.170581112
0.455028531	0.435834309	0.877423088	0.611041927	0.577397398	0.170578798
0.470276829	0.419751753	0.877506853	0.559580883	0.521016209	0.170478229
0.103497685	0.841321251	0.125303364	0.598448281	0.135245964	0.623414003
0.123103465	0.863702688	0.856337717	0.588685415	0.155205111	0.156342234
0.130569743	0.320082084	0.220470283	0.622417381	0.623149147	0.621470653
0.113742277	0.100088429	0.841996385	0.625823309	0.600790428	0.135201092
0.392823366	0.877263083	0.48468965	0.582488455	0.170516993	0.625292008
0.865731591	0.081476404	0.867214446	0.161513621	0.621427645	0.159349376
0.06667111	0.07965944	0.85561768	0.653455587	0.633441872	0.148919966
0.060017034	0.060023233	0.059995984	0.63970533	0.640314153	0.639780499
0.859793936	0.846100087	0.147443451	0.1531105	0.150752572	0.562531763
0.855440733	0.102882949	0.078893061	0.149301791	0.643347783	0.623584657
0.455049594	0.435893306	0.877388364	0.610951797	0.577439083	0.170590615
0.083347568	0.102170141	0.841522935	0.631063831	0.606229483	0.134853898
0.473462308	0.404084305	0.877435135	0.625801207	0.586052983	0.170434923
0.05426892	0.881278191	0.05459699	0.690858792	0.175468118	0.689966235
0.439820537	0.877881945	0.448971716	0.527484412	0.170753822	0.559913005
0.861530719	0.843354129	0.137134004	0.1539686	0.148397763	0.56625432
0.87736242	0.473586678	0.410176314	0.170543072	0.609096915	0.569259722
0.401356222	0.877465453	0.480887026	0.547679728	0.17072622	0.589333453
0.100444261	0.841339258	0.113938842	0.600646391	0.135090826	0.62579739
0.153936675	0.859867284	0.846029718	0.560861002	0.152797957	0.151953805
4.81615E-06	0.882336986	4.82019E-06	0.69927401	0.175323311	0.699253002
0.860746236	0.84510304	0.147544152	0.152687187	0.15024947	0.562802826
0.435015407	0.877502901	0.454674076	0.574944504	0.17056583	0.608275985
0.884843281	5.50033E-06	0.876857134	0.175465504	0.699344086	0.17099996
0.877362902	0.483860706	0.400132581	0.170494086	0.608193997	0.565458431
0.247072099	0.243485796	0.825976826	0.609243419	0.584226894	0.119073231
0.446328997	0.877334575	0.437071474	0.546066302	0.170568751	0.57572769
0.102178254	0.841460162	0.083442996	0.605751247	0.134779235	0.630642941
0.866862005	0.103980947	0.866668943	0.162594035	0.615226213	0.159057624
0.466089165	0.424466309	0.877325978	0.608525113	0.571947967	0.170558504
0.856519883	0.123173638	0.864273086	0.156620982	0.588640784	0.155662289
0.864426843	0.857243728	0.123147655	0.155812152	0.156567913	0.58847647
0.107696094	0.864442298	0.853877268	0.593744097	0.156809755	0.154471482
0.462138721	0.415577776	0.87768919	0.626245196	0.589631126	0.170760494
0.866415517	0.077087031	0.867995343	0.16154209	0.623097881	0.160375425
0.054276205	0.876125616	0.883249603	0.690532494	0.170781813	0.175211604
0.572803084	0.877111735	0.543610126	0.538590633	0.170404254	0.565903214
0.442941808	0.448256165	0.87734672	0.606569638	0.576604919	0.170603104
0.121823064	0.297981334	0.209233968	0.622448883	0.62701567	0.623250175
0.415503273	0.877551133	0.462074838	0.589941681	0.170687392	0.62607197
0.413760387	0.877450241	0.4758976	0.566937525	0.170615904	0.60605496
0.87684083	0.883904113	0.054269701	0.171527847	0.175183824	0.690451173
0.092661487	0.099570708	0.841410944	0.629562424	0.604451124	0.134827788
0.827193957	0.186004689	0.197190558	0.118934122	0.610438332	0.580481664
0.055326329	0.873126001	0.873982746	0.65476461	0.164805817	0.168385957
0.081506971	0.869235999	0.099475785	0.656671419	0.16266005	0.669373616
0.137198982	0.861322824	0.843665135	0.566280894	0.154023972	0.148707383
0.06251463	0.062475496	0.062432852	0.638284673	0.638257978	0.63855568
0.054614573	0.054203982	0.88256387	0.690164058	0.690558793	0.175780137
0.074952455	0.855950717	0.091388896	0.625931904	0.149355217	0.645644579
0.014048028	0.881104112	0.014134245	0.697072037	0.175381563	0.696783962
0.85497219	0.111438876	0.863890216	0.154933482	0.592055959	0.155754234
0.859307723	0.846104536	0.153989126	0.151985403	0.151159164	0.560976947
0.877266264	0.448123359	0.435751161	0.170599396	0.575684119	0.542808323
0.013705179	0.876151067	0.881720464	0.69727208	0.170732806	0.175159575
0.877431946	0.878090472	0.877259419	0.170721988	0.170575364	0.170461131
0.062453114	0.062488892	0.062410342	0.638260214	0.638342791	0.638561314
0.426816838	0.877076697	0.450245408	0.593154044	0.170496163	0.626525539
0.045482302	0.048638624	0.05448015	0.655671955	0.656901158	0.656274375
0.877583995	0.438781436	0.438776704	0.170912394	0.626587524	0.596434713
0.103203783	0.078868522	0.856376442	0.64368931	0.623583838	0.14962767
0.027832104	0.027762692	0.8813475	0.69480363	0.695016048	0.174886227
0.099311612	0.841801302	0.103076001	0.602313771	0.134907148	0.627638313
0.107870657	0.865071499	0.855613353	0.593709771	0.156694528	0.154546678
0.438711229	0.438706507	0.877443778	0.626564964	0.596363359	0.170534155
0.099703174	0.841588231	0.092691047	0.604557706	0.134841122	0.629776753
0.44787312	0.43260491	0.877327227	0.590919285	0.558491014	0.170247615
0.442894084	0.448502575	0.877365889	0.606547036	0.576645694	0.170596205
0.153938291	0.859875604	0.847364164	0.560804634	0.152261552	0.151418686
0.013818119	0.014011418	0.013814505	0.696616167	0.697367139	0.69683337
0.757927097	0.761437125	0.759537519	0.383841624	0.384617635	0.384380951
0.88222536	0.027697324	0.027278393	0.175388037	0.695173368	0.695208492
0.054257969	0.876227975	0.882227425	0.690312916	0.171288309	0.175476077
0.825580517	0.263825575	0.270674526	0.118844918	0.609260828	0.584886299
0.855890257	0.111413447	0.864481079	0.154994481	0.592037876	0.155917043
0.04107216	0.881682878	0.04139615	0.693099118	0.175578586	0.692591606
0.87263841	0.874391633	0.055334581	0.165620465	0.168733158	0.654754174
0.48072695	0.401441162	0.877483676	0.590001766	0.548167561	0.170749446
0.059573212	0.064478267	0.062980791	0.652081069	0.651685177	0.652092626
0.877342875	0.437071394	0.446338435	0.170588277	0.575737176	0.5460835
0.48076878	0.401474455	0.87755828	0.590035194	0.548257802	0.170414558
0.438702303	0.438697583	0.877425971	0.626568105	0.596354213	0.17054488
0.111478263	0.864127177	0.85526832	0.591995633	0.155859776	0.15510993
0.446346656	0.877321003	0.437042632	0.546068484	0.170578027	0.575705928
0.855954833	0.068870579	0.071663766	0.148868171	0.649799302	0.629099801
0.392922171	0.877446655	0.484775438	0.582451663	0.170493033	0.625308424
0.877638957	0.473570398	0.404179662	0.170690859	0.625823641	0.586175366
0.072703138	0.856010695	0.071176988	0.62963189	0.149623841	0.650248922
0.855910819	0.111436397	0.864381228	0.154941281	0.592108885	0.15573814
0.53708521	0.877286301	0.561924234	0.529056906	0.170577121	0.558237045
0.880406737	0.054687226	0.054422752	0.175051502	0.690078214	0.690355688
0.470181082	0.411853273	0.877974981	0.590592996	0.551574476	0.170434394
0.054624996	0.054304327	0.882040357	0.689925865	0.690426014	0.175660541
0.070445808	0.051870991	0.083582675	0.67288961	0.672499285	0.674273524
0.841817902	0.102871915	0.09923886	0.134998344	0.627741516	0.602579091
0.141486575	0.13201629	0.098259138	0.61939538	0.616731608	0.615912892
0.113649621	0.100336966	0.841415136	0.62610291	0.600684669	0.135008152
0.09920293	0.841801195	0.103115664	0.602311008	0.134907547	0.627634914
0.014355998	0.014270541	0.882081063	0.69763402	0.697456235	0.175470791
0.860310631	0.845015769	0.147503198	0.152712487	0.150291744	0.562880522
0.055352538	0.872443834	0.874761614	0.654936419	0.165097889	0.1685623
0.437127529	0.446383082	0.877446222	0.57579167	0.546065439	0.170585802
0.48083294	0.410152104	0.87745596	0.559266797	0.517541573	0.170656481
0.448144777	0.435924947	0.877418795	0.575828497	0.542887715	0.170549505
0.448106811	0.435949563	0.877405845	0.575743965	0.542766561	0.170563732
0.846149325	0.153947951	0.85870116	0.150773045	0.560916283	0.151654556
0.045629433	0.04815654	0.054207586	0.65558911	0.65646508	0.655339306
0.866782189	0.865803903	0.088343268	0.159278846	0.161955332	0.619059817
0.040858208	0.875557879	0.883632594	0.693110321	0.170388112	0.17557657
0.435947157	0.877432395	0.448156757	0.542705676	0.17060717	0.575618873
0.841669931	0.113820794	0.100331308	0.135067171	0.62608036	0.600629834
0.415476391	0.877487933	0.462038872	0.589833329	0.170520385	0.626053484
0.058180285	0.038074454	0.076282779	0.679650532	0.679032526	0.680242163
0.133725628	0.861856794	0.84399111	0.567841899	0.155202587	0.148178527
0.866891614	0.087686213	0.867157973	0.161956128	0.619458074	0.159166718
0.459701598	0.429729644	0.877792699	0.559835156	0.524433146	0.17082102
0.825737796	0.277178512	0.279767207	0.118329141	0.612336857	0.583828194
0.04121528	0.040959317	0.881230704	0.692461492	0.692979082	0.175260247
0.866833551	0.095526344	0.866862964	0.162307009	0.617417069	0.159347859
0.088072416	0.86713719	0.86545622	0.619026043	0.159627918	0.162172598
0.088055187	0.079572392	0.868773	0.672445158	0.660199287	0.162676569
0.040860156	0.87603209	0.883382538	0.693114151	0.170578524	0.175537673
0.062508634	0.062480234	0.062440178	0.638296498	0.638238724	0.638536125
0.083400693	0.102224456	0.841565934	0.63096145	0.605730502	0.134735011
0.868973401	0.083290438	0.075663615	0.162674351	0.674367696	0.661274815
0.087820784	0.867025307	0.865731879	0.61988616	0.159642634	0.161976257
0.826098664	0.186784216	0.189223831	0.118901541	0.608791623	0.57792215
0.462036143	0.415475931	0.877485053	0.626267723	0.589602394	0.17068557
0.87207936	0.874190591	0.047899899	0.165191361	0.168309446	0.658773192
0.448146044	0.435942301	0.877438633	0.575778944	0.542796687	0.170560949
0.866662265	0.103995581	0.866906118	0.162597531	0.615321309	0.159216337
0.06884339	0.071292706	0.855550585	0.65010043	0.629377303	0.149050117
0.044545521	0.872536399	0.874141415	0.659184038	0.165746008	0.168415898
4.85718E-06	0.8812321	4.85861E-06	0.699263778	0.1752422	0.699082937
0.880688836	0.054586433	0.054239674	0.174951768	0.690185683	0.690399856
0.841464643	0.124847721	0.10401606	0.135336384	0.622929874	0.597767182
0.825724342	0.280294233	0.299655616	0.118476361	0.611665343	0.583232129
0.864363803	0.856011072	0.116638758	0.155764137	0.155661409	0.590380471
0.47618723	0.413236297	0.877452727	0.609600351	0.569249054	0.170557871
0.876857016	0.470403607	0.411481803	0.17039554	0.589926245	0.551182858
0.054287747	0.881575316	0.054646055	0.690429731	0.175345202	0.689998493
0.877524847	0.462058051	0.415493766	0.170714501	0.626247752	0.589613387
0.100397247	0.081693262	0.869249153	0.669228456	0.657591899	0.162711387
0.075971381	0.871791217	0.874519347	0.650543576	0.164589187	0.16855965
0.076976865	0.868165782	0.865422812	0.623133727	0.160434833	0.161437662
0.420067527	0.878162031	0.470598079	0.520982972	0.170807221	0.559739591
0.869044162	0.08250061	0.074880051	0.162595034	0.673833879	0.660050095
0.074787618	0.856488429	0.091284987	0.625720692	0.149961179	0.645575647
0.82606264	0.234727935	0.247801212	0.118961973	0.612423627	0.582707008
0.841855861	0.102972329	0.099122982	0.135020865	0.627735533	0.602576855
0.055672219	0.045066106	0.075060311	0.674387142	0.674654256	0.67568407
0.855036484	0.079641243	0.071690082	0.148837689	0.647841213	0.627994728
0.067058166	0.079758059	0.854239325	0.652559118	0.632840288	0.14872081
0.878060877	0.479910809	0.470554593	0.170511681	0.560378839	0.531449751
0.081699444	0.867747244	0.865735574	0.621380574	0.159884291	0.161429407
0.854975371	0.111475794	0.864516808	0.155250145	0.592131359	0.156513287
0.027451249	0.881991923	0.027719877	0.695252392	0.175357115	0.694854838
0.070927603	0.051614016	0.083482421	0.673428352	0.672534305	0.674071868
0.476039724	0.413058557	0.877336025	0.610545081	0.570858811	0.170524602
0.141784357	0.860047753	0.845752726	0.564454501	0.154106451	0.150330372
0.877352928	0.484740094	0.39286282	0.170639603	0.625305618	0.582598317
0.087941203	0.867069835	0.865923854	0.619400952	0.15952135	0.162127025
0.405699815	0.877254839	0.480682376	0.532755829	0.170560672	0.57506287
0.075987291	0.871361768	0.874494487	0.650558328	0.164631467	0.16847418
0.877338813	0.437068973	0.44633784	0.170592376	0.575739224	0.546069816
0.866793113	0.866388133	0.095443751	0.159249543	0.162240602	0.617261823
0.404224663	0.877709915	0.473596868	0.586191779	0.170703439	0.625716888
0.877503294	0.46204578	0.415484825	0.170489175	0.626080693	0.58982452
0.44243666	0.448179819	0.877336578	0.607829692	0.577290596	0.170588447
0.874126518	0.065234871	0.871394017	0.167887135	0.652667576	0.164476682
0.854496144	0.107524384	0.864656634	0.154947858	0.593839126	0.156968943
0.146783885	0.826142164	0.150310745	0.576788365	0.119360941	0.605020681
0.857597562	0.123138398	0.86356701	0.156281464	0.588560721	0.155258245
0.083403053	0.102222761	0.841811759	0.63120067	0.605794726	0.134715585
0.056469791	0.044756816	0.075306809	0.674667382	0.674751873	0.675523393
0.438865416	0.877761875	0.438870139	0.596457516	0.17057402	0.626585412
0.856710713	0.091343023	0.074183083	0.149438851	0.645792624	0.626030372
0.056068695	0.044848184	0.075124155	0.674658188	0.674735142	0.675524996
0.130405273	0.863411894	0.857446921	0.586305802	0.155092851	0.157378102
0.869100495	0.082486939	0.074667878	0.162597884	0.674098295	0.660344841
0.070751123	0.051313846	0.08228566	0.673368006	0.672638826	0.67479412
0.074895726	0.855887628	0.091435783	0.625853987	0.14972543	0.645548222
0.068907275	0.071216448	0.855242185	0.649596491	0.629621637	0.148977473
0.876137293	0.882892707	5.49578E-06	0.170515618	0.17523375	0.699240329
0.43956419	0.877424031	0.44878617	0.527661019	0.170542612	0.559753382
0.841340788	0.102983217	0.099017049	0.134985434	0.627654988	0.602697481
0.877403119	0.462000892	0.415428803	0.170484527	0.626099711	0.589823872
0.470410405	0.419883313	0.877780381	0.559634795	0.520990298	0.170844937
0.447820766	0.432529012	0.877209272	0.590783072	0.55844948	0.170227254
0.059445987	0.064489207	0.063425844	0.652335086	0.651207431	0.651568041
0.877191729	0.884233856	5.49856E-06	0.171047536	0.17604282	0.699553717
0.444321799	0.445775485	0.877340129	0.608796371	0.578202189	0.17057411
0.877770774	0.484936376	0.393085939	0.170806538	0.62519684	0.582569233
0.865202493	0.856026831	0.111452066	0.156284691	0.155295181	0.592112158
0.437102715	0.446360366	0.877395743	0.575773901	0.546045629	0.170616341
0.877404832	0.47359036	0.410222642	0.170556284	0.609107026	0.569231324
0.100338652	0.841726061	0.113949713	0.60033047	0.135063712	0.62556347
0.140168924	0.130775849	0.824636354	0.604614078	0.577537625	0.118823475
0.877561553	0.466290334	0.485220278	0.170636078	0.559780919	0.531766509
0.11139731	0.865830778	0.856349118	0.592229819	0.156288904	0.155459738
0.434902958	0.877430167	0.454916327	0.574122523	0.170566308	0.60766963
0.860710307	0.845136121	0.141743908	0.153596561	0.149670644	0.564520875
0.877349139	0.483271987	0.400663211	0.170565962	0.608600914	0.565953065
0.484900514	0.393041438	0.877690874	0.625265423	0.582615191	0.170677087
0.825384349	0.137929393	0.128407577	0.118667001	0.605771587	0.576507593
0.42570257	0.877324979	0.459026601	0.53939201	0.170669509	0.575558644
0.146515947	0.131911111	0.825749716	0.601829122	0.57280627	0.119431737
0.448141791	0.435887787	0.877387734	0.575766531	0.54283483	0.17056587
0.484657262	0.392798722	0.87720472	0.625243245	0.582612292	0.170678076
0.204692164	0.826238147	0.202306091	0.579198001	0.11932696	0.606937847
0.43587985	0.877312803	0.448086976	0.54288263	0.170528213	0.575829439
0.027515038	0.881686274	0.027575791	0.695154004	0.175191649	0.694573733
0.095611273	0.866719295	0.866482458	0.61741652	0.15941477	0.162627458
0.074660688	0.075015061	0.07505534	0.634198118	0.634356475	0.63449948
0.059979344	0.06003719	0.059968033	0.640231075	0.640110819	0.639912363
4.86917E-06	4.87828E-06	0.881680625	0.699305414	0.69911263	0.175151472
0.856625906	0.130388352	0.862228783	0.156479185	0.586475592	0.154395213
0.884132178	0.040845039	0.875651345	0.175464522	0.692853004	0.170289531
0.141064671	0.825589347	0.14837503	0.574073498	0.118507392	0.601560838
0.000004836	4.91287E-06	0.881685956	0.699320263	0.699098075	0.175182334
0.868227839	0.865909795	0.07713511	0.16019224	0.161664494	0.623138156
0.855811525	0.068856608	0.071813415	0.148896338	0.649834438	0.629161326
0.414145043	0.877467471	0.475738727	0.566610711	0.170625988	0.605787606
0.087168893	0.078313175	0.868921505	0.672549579	0.661507903	0.162600323
0.103332171	0.078822683	0.856457999	0.643363111	0.623692493	0.149641285
0.444592265	0.877365951	0.438547623	0.561810973	0.170409955	0.591289533
0.040478034	0.046504336	0.074376752	0.677735335	0.677110882	0.679703635
0.826270346	0.148981605	0.131878485	0.119608539	0.60166928	0.573562134
0.054637934	0.054839338	0.054658288	0.690469409	0.689888541	0.690250813
0.041152503	0.040949064	0.881219973	0.692397222	0.693077446	0.175149587
0.059503333	0.065019521	0.063571206	0.652179539	0.651446858	0.651743994
0.086303322	0.868945518	0.08310022	0.665104939	0.16249389	0.677419157
0.079405673	0.869056522	0.093076154	0.658354598	0.162575053	0.670149827
0.013817799	0.013975057	0.013785792	0.69665927	0.697505278	0.696611031
0.856723317	0.091378207	0.074165065	0.149442285	0.645831248	0.625963892
0.051795986	0.053863486	0.058494575	0.654539342	0.654307246	0.654471251
0.051885559	0.053815608	0.058554768	0.653996939	0.654124173	0.654080485
0.415571804	0.87767962	0.462134895	0.589697807	0.170689819	0.626228517
0.101724448	0.126315256	0.169297898	0.616754639	0.622116404	0.619882859
0.083416945	0.102155097	0.841518178	0.630757069	0.605901983	0.134737184
0.874788226	0.076023644	0.871834274	0.168584096	0.650501751	0.164569189
0.877215967	0.473106691	0.410477157	0.170537408	0.609184822	0.569325026
0.877490867	0.470229431	0.419776449	0.170654475	0.559563558	0.520934435
0.882226421	0.041209999	0.040792103	0.175789288	0.692475408	0.692927289
0.863550083	0.844236835	0.133708755	0.155118429	0.147857475	0.5678374
0.841397872	0.102971819	0.099039153	0.135002987	0.62756118	0.602494623
0.87754036	0.459567793	0.429606581	0.170393584	0.559752426	0.524405705
0.867982683	0.865212024	0.077560432	0.160050365	0.161569029	0.623457377
0.062480803	0.062474945	0.062442098	0.638285358	0.638472183	0.638511617
4.90184E-06	0.000004878	0.881420855	0.699404045	0.699130963	0.175030726
0.82614273	0.201983362	0.202669066	0.119115846	0.609428082	0.57807876
0.877351327	0.469763846	0.415558567	0.170601196	0.575436565	0.536117865
0.45955879	0.429653236	0.877572891	0.559817587	0.524391046	0.170626974
0.444474188	0.877457382	0.438651414	0.56187085	0.170413767	0.591285938
0.861580712	0.843882511	0.137233418	0.154538555	0.148883664	0.566150126
0.868016361	0.865214832	0.077633109	0.160072368	0.161580501	0.623452458
0.07048524	0.071947595	0.075012661	0.650032402	0.649694037	0.649365283
0.027322087	0.876481571	0.882938275	0.695106993	0.17073066	0.175278434
0.403229605	0.877273755	0.485355021	0.565114813	0.170548138	0.607990427
0.855274266	0.111425178	0.8643645	0.154997602	0.592010709	0.155904418
0.877301888	0.448099995	0.43580331	0.170583415	0.575626541	0.54273528
0.877714299	0.877922192	0.879057169	0.170727183	0.170874712	0.170924294
0.132841111	0.825403809	0.1483343	0.574246293	0.119102817	0.603556639
0.486884998	0.401208504	0.877366584	0.607627656	0.564661481	0.170501367
0.079591959	0.868854663	0.09235214	0.658449239	0.16274	0.670042644
5.49123E-06	0.87523152	0.883447983	0.699463621	0.169726029	0.175521505
0.841922702	0.133821108	0.862576187	0.148242285	0.567663269	0.155338036
0.845637976	0.141774812	0.861002404	0.150175357	0.564586897	0.153973303
0.423774217	0.877331954	0.465902059	0.572940068	0.17055799	0.609579969
0.432823547	0.877723105	0.448121625	0.558287165	0.170820379	0.591373162
0.079263855	0.869046487	0.088517957	0.659772435	0.162617253	0.670659033
0.841522636	0.10297081	0.098910984	0.134974124	0.62786725	0.602823559
0.123092993	0.863808652	0.85613648	0.588680776	0.15516134	0.156297222
0.103243039	0.078836016	0.856219544	0.64333544	0.62358572	0.149674324
0.073689285	0.85493526	0.082450097	0.627633696	0.149398547	0.64745428
0.861487037	0.846872054	0.147406443	0.153309465	0.150840607	0.56279109
0.844572658	0.141801403	0.860260943	0.149630792	0.564514617	0.153412307
0.865803369	0.081530068	0.86731917	0.161484451	0.621160562	0.15960533
0.877878677	0.470419472	0.419972334	0.170659511	0.559759403	0.520976295
0.133802952	0.861950652	0.843889564	0.567668252	0.154701408	0.147816267
0.864508698	0.856052035	0.116651982	0.155494666	0.155512699	0.590337778
0.081816601	0.8673536	0.865298869	0.621299244	0.159994822	0.161600996
0.855481413	0.079643322	0.071946297	0.148839352	0.648030446	0.627874553
0.059631297	0.064448712	0.062509896	0.652253689	0.651415404	0.651262535
0.079513618	0.869025349	0.088315885	0.664082284	0.162636763	0.673270652
0.343496291	0.825360958	0.329475275	0.583699344	0.1184473	0.61361781
0.056688389	0.044809105	0.075516416	0.67563741	0.674590355	0.676175205
0.123108641	0.86368268	0.856934032	0.58834947	0.155597777	0.156768598
0.088007798	0.867292689	0.86532541	0.618995571	0.159647307	0.162142449
0.459594374	0.429639654	0.877593976	0.559693238	0.524360294	0.170636639
0.102150748	0.841718478	0.083402323	0.606123451	0.134770029	0.631015194
0.869084577	0.09790639	0.081295583	0.16277127	0.668892328	0.655136321
0.841718115	0.103022274	0.099042149	0.134998766	0.627682118	0.602588479
0.140103086	0.82551589	0.148983946	0.573866887	0.118580809	0.601712591
0.082617247	0.856047619	0.069067968	0.631439035	0.149124022	0.652808854
0.877527775	0.480559228	0.405782685	0.170571642	0.575395515	0.532910404
0.874298119	0.055392384	0.872133086	0.168599271	0.654887238	0.164679339
0.054255191	0.881628867	0.054653109	0.690427943	0.175341335	0.690036867
0.876343056	0.883865971	0.0273263	0.170586305	0.175771936	0.695199567
0.877345199	0.437074392	0.446337556	0.170591953	0.575745194	0.546084996
0.863878867	0.856510349	0.123153098	0.155760783	0.156532553	0.588421168
