Va	Vb	Vc	Ia	Ib	Ic
0.414607642	0.877193764	0.474908776	0.569391525	0.170569962	0.608452862
0.855439109	0.116691515	0.864768213	0.15566631	0.590223251	0.155923281
0.078881085	0.08169857	0.868778893	0.677973621	0.665699115	0.162591615
0.111447745	0.864139541	0.855423899	0.592104981	0.15583826	0.155072409
0.873199048	0.875885153	0.047399229	0.165596992	0.168723634	0.656992616
0.865389093	0.855883371	0.111466461	0.15626594	0.155502675	0.592219217
0.864765293	0.854604423	0.107724945	0.156342671	0.154326013	0.593920307
0.883726518	5.49982E-06	0.875875467	0.175560953	0.699396478	0.170686406
0.041229068	0.881870159	0.041556696	0.692947642	0.175193521	0.692874196
0.079642615	0.071534691	0.855664723	0.647692662	0.627660156	0.149152897
5.49174E-06	0.876225626	0.884092718	0.699349052	0.17057702	0.176042744
0.054303913	0.881270054	0.054637678	0.6910545	0.175449825	0.690023877
0.227861368	0.238247679	0.825618973	0.611149318	0.581629822	0.118849932
0.877268016	0.448692596	0.439476158	0.170506686	0.559758786	0.527727761
0.469910526	0.415649161	0.87739223	0.575436016	0.536279802	0.170561021
0.401212203	0.876976128	0.480516935	0.548597461	0.170060421	0.590497393
4.82853E-06	4.91795E-06	0.881697881	0.699277796	0.699183154	0.175245413
0.446376095	0.877347124	0.445562161	0.577542094	0.170567595	0.607775728
0.153945505	0.859904637	0.846891571	0.560828042	0.15271744	0.151819179
0.051611523	0.053479152	0.057128763	0.653729748	0.654194227	0.654025356
0.055376555	0.871549394	0.874597819	0.654898429	0.164566937	0.16838216
0.87737763	0.448720792	0.439564615	0.170556841	0.559756569	0.527756952
0.082732533	0.080584344	0.868975733	0.675420277	0.662708982	0.16251553
0.298598637	0.82565681	0.292076454	0.590494939	0.118840294	0.618948674
0.447710378	0.432440652	0.877010111	0.590790316	0.558319977	0.17012973
0.871611541	0.875858515	0.065173344	0.165071749	0.169386328	0.652708973
0.095530388	0.8660396	0.8662259	0.617639744	0.159033994	0.16228564
0.415340186	0.877229485	0.461915955	0.589869716	0.170522593	0.626054603
0.415749055	0.877346096	0.469788365	0.536128269	0.170517659	0.575455379
0.147428823	0.859635846	0.845339586	0.562746317	0.152508909	0.150365587
0.461840722	0.415283672	0.877096698	0.626086077	0.589665509	0.170479335
0.480634433	0.405664633	0.877267528	0.575179051	0.532683041	0.170521952
0.083397969	0.102155483	0.841541635	0.630805045	0.605843187	0.134735375
0.877937985	0.447975819	0.433495429	0.170595191	0.591182172	0.558484458
0.878243182	0.470617013	0.4201294	0.170841903	0.559724777	0.521017107
0.091801881	0.078989379	0.869302201	0.668295954	0.65711324	0.162652905
0.103151125	0.099133469	0.841635052	0.627687642	0.602581976	0.13498468
0.868892362	0.091034214	0.07823446	0.162694739	0.671338267	0.659345522
0.099157884	0.841928607	0.103096925	0.602331177	0.134908357	0.627727469
0.041632894	0.040950205	0.041537897	0.693057419	0.692137729	0.693312871
0.426988155	0.877409333	0.450406662	0.593031779	0.170549448	0.626440339
0.279718687	0.282164855	0.825813447	0.614236705	0.584694071	0.118723284
0.864851788	0.077119993	0.867286444	0.161044731	0.622902691	0.15984822
0.072817273	0.855718907	0.082705916	0.62773695	0.14940524	0.647567467
0.041198293	0.040957247	0.881196942	0.692697006	0.693041534	0.174914223
0.449193992	0.440152062	0.878425314	0.559737338	0.527763934	0.170682046
0.84389522	0.137132071	0.861625407	0.148849905	0.566223333	0.154336039
0.864681309	0.854457752	0.111440973	0.156355908	0.155270774	0.591884356
0.475733592	0.413563408	0.877475159	0.608346371	0.569019264	0.170610774
0.054582763	0.054238622	0.880819001	0.690012206	0.690390935	0.175159319
0.20922485	0.826014359	0.210788148	0.579063028	0.119186301	0.606041917
0.066724759	0.079434789	0.85563728	0.653469599	0.633471488	0.148822782
0.480439517	0.409819514	0.876706972	0.559347511	0.517514387	0.170712478
0.077035653	0.866772901	0.864806037	0.623177361	0.159969778	0.161293421
0.42987609	0.878124978	0.45988971	0.524311428	0.170874927	0.559863776
0.455004098	0.435888434	0.877399766	0.611029365	0.577432437	0.170589309
0.065209874	0.871682903	0.875367538	0.652775974	0.164427337	0.168663477
0.476220974	0.412949281	0.877342385	0.610629941	0.570861389	0.170535778
0.088189164	0.079882489	0.868809184	0.672295176	0.660737269	0.16267137
0.877064953	0.447809038	0.43279873	0.170259638	0.590822927	0.55849007
0.826107989	0.147151886	0.132531701	0.119185826	0.604972272	0.575538997
0.070051388	0.071482003	0.073647816	0.649863189	0.650001005	0.650145209
0.882448015	0.041133332	0.040821672	0.175802552	0.692532227	0.692893755
0.877683373	0.470317997	0.419882795	0.170745942	0.559654534	0.520957188
0.087722616	0.07926248	0.868538975	0.672859491	0.661835933	0.162797475
0.087673427	0.867192917	0.86574412	0.61989613	0.159665311	0.1619951
0.866765734	0.866001652	0.08840641	0.159440997	0.162018918	0.619132999
0.856594645	0.130471005	0.86215023	0.156446257	0.586480611	0.154433167
0.868017672	0.865349303	0.077624384	0.16045934	0.161701426	0.623353888
0.874443744	0.0492581	0.872857509	0.168360052	0.659147716	0.165342409
0.426654572	0.876752594	0.450083584	0.593149481	0.170508961	0.626483865
0.845180723	0.141820922	0.860393014	0.149686377	0.564550965	0.153605922
0.480729584	0.405983204	0.877482266	0.574768978	0.532341636	0.170575294
0.044449738	0.872403578	0.873401585	0.659259144	0.16570158	0.168343139
0.058757348	0.038955412	0.077927914	0.679416105	0.679059201	0.679882648
0.872351969	0.874400894	0.075940995	0.164379659	0.168176905	0.650451738
0.102216098	0.841595875	0.083423951	0.606125235	0.134711998	0.631431472
0.425487916	0.877206113	0.459115547	0.539473263	0.170537355	0.575537796
0.100371157	0.842053474	0.11403726	0.601055796	0.135125925	0.62588242
0.872125675	0.875383642	0.055326467	0.165274747	0.169100198	0.655020899
0.881931132	0.027689473	0.027260696	0.175437793	0.695078734	0.694948309
0.876736051	0.884154053	0.027327653	0.170654758	0.175930655	0.695231449
0.419843386	0.877731778	0.470397801	0.520970336	0.170807377	0.559747226
0.054673625	0.054330761	0.882373678	0.689918052	0.690569195	0.175378529
0.876053765	0.884083154	0.027330125	0.170610866	0.175853805	0.695287275
0.877520305	0.448100984	0.432907029	0.170545247	0.590757094	0.557803235
0.139628672	0.130687989	0.825468121	0.604085055	0.576534171	0.118831652
0.446912072	0.877365088	0.444139902	0.576607571	0.170544458	0.6069941
0.054339962	0.881777248	0.05462989	0.690683725	0.175474709	0.690326329
0.07707426	0.86746227	0.865774779	0.623100652	0.160259376	0.161728938
0.279148951	0.289395708	0.825686584	0.61220086	0.585057576	0.118724427
0.077839163	0.080902439	0.868959301	0.678511241	0.665944204	0.162492603
0.873508601	0.065230463	0.870675353	0.168721747	0.652753697	0.164469865
0.884318017	0.02732534	0.875187813	0.176112243	0.695222071	0.170606531
0.103072855	0.099095419	0.841803703	0.627739171	0.602645734	0.134979367
0.865270136	0.855039884	0.111369582	0.155697371	0.154625489	0.592010094
0.46985712	0.41575115	0.877396945	0.575418267	0.536266709	0.17059148
0.047127645	0.872335743	0.873680299	0.656861914	0.16453977	0.167796009
0.086456947	0.869171199	0.082927479	0.665295075	0.162463499	0.677296508
0.446048401	0.877355	0.444521654	0.576445074	0.170561489	0.606946115
0.877495851	0.480478267	0.405842872	0.170560778	0.57518014	0.532834213
0.486927047	0.401585161	0.877424552	0.607424184	0.564388808	0.170510892
0.877398031	0.484740328	0.392909918	0.17080978	0.625116014	0.582530567
0.40120861	0.877190825	0.480795588	0.548280899	0.170118865	0.589916679
0.4358782	0.877310567	0.448068055	0.542881156	0.170535377	0.575826458
0.476282754	0.413241822	0.87738517	0.610658982	0.57081743	0.170537527
0.100230612	0.841707959	0.113815128	0.600343882	0.135077175	0.62555455
0.7583452	0.757484572	0.755650209	0.383896393	0.383483326	0.382659752
0.068880739	0.071255195	0.85553972	0.650034529	0.629472864	0.148912835
0.856691353	0.130443353	0.863332851	0.156719057	0.586487653	0.154557752
0.247405542	0.261329812	0.825064505	0.609426124	0.581177499	0.118509757
0.419836624	0.877637807	0.470311801	0.52087374	0.17084875	0.55979425
0.419619607	0.877421782	0.470304866	0.521072395	0.170701109	0.55965847
0.869188613	0.082606521	0.074891528	0.162619859	0.674392597	0.660835788
0.054272699	0.876807762	0.883146088	0.690472608	0.171596712	0.175573666
0.841808844	0.102935545	0.099150101	0.13500477	0.627738297	0.602573944
0.405743816	0.877340472	0.48073307	0.532772344	0.17055927	0.575062169
0.877853796	0.437421669	0.444469712	0.170783684	0.59216764	0.562714076
0.874667948	0.04726959	0.871923965	0.168215471	0.657038246	0.16465254
0.877576302	0.450492239	0.427069526	0.170694388	0.626492839	0.593027766
0.882622606	0.027563566	0.027415366	0.175409458	0.694908257	0.694812402
0.296253081	0.825726281	0.300862735	0.586266679	0.118885822	0.615820255
0.88203944	0.027695689	0.027566163	0.175390934	0.695043845	0.695095598
0.480777382	0.410048434	0.877293259	0.55949685	0.517511028	0.170743569
0.877342875	0.437071394	0.446338435	0.170588277	0.575737176	0.5460835
0.876709063	0.884121599	0.054280006	0.171401193	0.175920065	0.690597704
0.099695509	0.841615149	0.092657819	0.604575468	0.134799496	0.62979271
0.113748701	0.100218216	0.841983149	0.625958998	0.600568692	0.135078597
0.041126088	0.040867387	0.881717034	0.692576325	0.693012719	0.175064825
0.864775532	0.855533253	0.111432075	0.156202396	0.15538535	0.592240403
0.073116612	0.854468205	0.071280039	0.629645584	0.14896162	0.649772518
0.041118236	0.040871825	0.881373226	0.692424917	0.693018893	0.175262262
0.079437087	0.868984802	0.092362874	0.658763939	0.162746193	0.670177493
0.130404689	0.863453417	0.857070769	0.586353985	0.154845644	0.157269115
0.443333399	0.446997271	0.877355423	0.608600092	0.577993946	0.170578299
0.8814833	4.85118E-06	4.86318E-06	0.175359941	0.69928216	0.699758591
0.113767774	0.10031857	0.84180417	0.626257656	0.600769597	0.134975537
0.087958974	0.079480825	0.868695556	0.672531632	0.660495643	0.162668191
0.871986628	0.874638969	0.075951044	0.164398227	0.168128039	0.650408155
0.855794141	0.11670298	0.864296683	0.155871069	0.590280198	0.156167964
0.04137651	0.041210819	0.042291885	0.693126376	0.692424587	0.692383513
0.465750107	0.424146678	0.877408939	0.608782996	0.57209703	0.170561763
0.856396296	0.0645463	0.078454236	0.148961275	0.652764991	0.631643891
0.846945655	0.153924479	0.858772629	0.151525858	0.560954217	0.152111633
0.111383734	0.864845945	0.855017751	0.59203162	0.156332085	0.155295864
0.027661865	0.027522915	0.028174879	0.695353953	0.694862429	0.695333146
0.866602377	0.866635112	0.104510686	0.159152972	0.16281823	0.615223228
0.448167424	0.435905272	0.877432253	0.575833656	0.542882074	0.170549186
0.758641852	0.758375783	0.76131654	0.384203971	0.383354042	0.383366657
0.289817913	0.284788289	0.825864128	0.613742646	0.584677576	0.118708555
0.865301226	0.081459121	0.867059768	0.161487324	0.621404535	0.159296684
0.103145768	0.099128606	0.84163504	0.627693383	0.602570334	0.134983498
0.877372451	0.437083742	0.446356014	0.170588721	0.57574486	0.546085819
0.856169686	0.130381051	0.861712871	0.156351357	0.586409939	0.154383362
4.85718E-06	0.881615999	4.8797E-06	0.699333209	0.175342678	0.699194537
0.054327721	0.881846393	0.054623121	0.690632268	0.175455203	0.690313987
0.862031733	0.846204529	0.141734895	0.153877214	0.149857611	0.564546975
0.842914149	0.133825871	0.861406477	0.147380001	0.567696656	0.154405092
0.877227394	0.470306569	0.41181089	0.17038592	0.59065935	0.551627508
0.841584883	0.125168683	0.103642026	0.135307462	0.623092295	0.597738999
0.855325379	0.064361807	0.078055427	0.148804236	0.653401442	0.632589391
0.028242083	0.028007806	0.881769183	0.694671895	0.694976223	0.175442508
0.04043709	0.046296375	0.074087057	0.677035425	0.678582411	0.680571837
0.077020276	0.867410088	0.865035699	0.623200795	0.160039224	0.160925744
0.06886452	0.071361687	0.855142483	0.649839285	0.62970521	0.14896277
0.869221362	0.098411313	0.081055888	0.162677373	0.66983503	0.657342383
0.422236954	0.878272789	0.459681912	0.555084866	0.170349277	0.59046185
0.877387248	0.469816997	0.415550073	0.17055672	0.575404617	0.53611987
0.081840085	0.86733627	0.865639781	0.621089752	0.159487361	0.161557142
0.877577237	0.472034637	0.479055982	0.170692936	0.56126469	0.532266306
0.868714481	0.075960591	0.079626373	0.162581029	0.676081183	0.664294891
0.056373353	0.044809506	0.07508049	0.675351815	0.674698309	0.675814429
0.153709623	0.140333919	0.097030525	0.618775226	0.617243183	0.615282517
0.059993983	0.060049135	0.059954973	0.640097943	0.640121058	0.640157536
0.446048293	0.877354984	0.444521704	0.576445078	0.170561489	0.606946157
0.459056787	0.425768012	0.877399814	0.575524305	0.539396798	0.170565669
0.866772119	0.087693898	0.867465094	0.162089194	0.619343887	0.15968367
0.877407138	0.450744828	0.432445498	0.170561024	0.60976212	0.576353747
0.414573001	0.877385761	0.474427239	0.569663281	0.170558001	0.608831053
0.844920812	0.137223421	0.861538978	0.148836451	0.566265571	0.154249121
0.876898765	0.469934763	0.419490429	0.17066683	0.559677661	0.520959118
0.014521335	0.881354845	0.014625234	0.697349715	0.175490304	0.697144906
0.083443741	0.102178624	0.841401223	0.630907647	0.606139993	0.134852699
0.079385906	0.869045448	0.088897601	0.664325408	0.162633581	0.674140778
0.874664147	0.076024414	0.870648305	0.168759524	0.650561223	0.164580767
0.075969193	0.871821399	0.874762497	0.65056572	0.164608196	0.168592439
0.877331828	0.451000601	0.432046263	0.170483278	0.60874752	0.575258291
0.866690648	0.095471752	0.866980009	0.162562945	0.617370142	0.159464951
0.873491463	0.876248634	0.047444401	0.165370157	0.168981155	0.657056788
0.87736162	0.473585708	0.410176605	0.170543193	0.609097093	0.569259405
0.459196115	0.422177222	0.877805362	0.590898292	0.554990331	0.170878866
0.013832093	0.013981116	0.013803401	0.697339416	0.696894797	0.697176885
0.070082322	0.07153843	0.073826456	0.649674066	0.650114915	0.650276986
0.450044956	0.42662207	0.876681334	0.626343738	0.5931587	0.170325966
0.058045773	0.045055152	0.076777192	0.675476991	0.674574293	0.676396309
0.881511149	4.88169E-06	4.90919E-06	0.17539721	0.699142629	0.699319838
0.480868687	0.4102001	0.877542965	0.559261693	0.517666962	0.170465074
0.08104633	0.855509908	0.066665633	0.630704683	0.148845094	0.652212625
0.414773681	0.877381793	0.474489334	0.569657715	0.170548032	0.608832394
0.062486909	0.06248006	0.062460491	0.638259067	0.638418444	0.638523136
0.084088133	0.868976846	0.085546717	0.660154513	0.162621088	0.674351899
0.867376437	0.865739979	0.081866824	0.159853012	0.161518125	0.620935187
0.881363309	4.79652E-06	4.87145E-06	0.17536706	0.699325596	0.699691893
0.866507675	0.865405799	0.0880014	0.159180378	0.1619315	0.619525101
0.865635375	0.081503366	0.867167274	0.161505605	0.621401107	0.159322976
0.123111326	0.86330732	0.856434003	0.588686586	0.155171584	0.156309398
0.877336636	0.448128971	0.435820773	0.170600046	0.575708286	0.542847092
0.044672584	0.872690253	0.874848194	0.659193446	0.165634178	0.168413842
0.083928422	0.86862177	0.085030147	0.66208038	0.162589684	0.676773026
0.877889277	0.448143453	0.433254441	0.170595718	0.591064562	0.558276151
0.856101987	0.123041573	0.864075183	0.156485138	0.588509071	0.155821929
0.439038145	0.878107166	0.439042869	0.596310149	0.171215291	0.626726083
0.102889306	0.078830474	0.855437014	0.643795532	0.623762264	0.149249546
0.082860896	0.855975217	0.068768629	0.633566823	0.148955929	0.654291099
0.86898935	0.08016846	0.077233597	0.162545397	0.674715277	0.663105095
0.877577235	0.472034906	0.479056559	0.17069293	0.561264655	0.532266301
0.448166366	0.435880315	0.877399658	0.575795106	0.542823497	0.170558171
0.086957455	0.078381234	0.868918934	0.672617034	0.661532006	0.162593239
0.074631299	0.856393538	0.091410334	0.625658946	0.149777637	0.645875535
0.85517706	0.064259031	0.077857727	0.148817367	0.653235396	0.632695261
0.877455504	0.473474746	0.404091907	0.170612906	0.625921269	0.58602505
0.054273371	0.881635526	0.054684541	0.690587519	0.175345967	0.690012699
0.864268282	0.853723573	0.107683579	0.156451754	0.154062368	0.593729679
0.041124694	0.040954307	0.880741934	0.692625427	0.69314839	0.174968905
0.881451098	4.95029E-06	4.78928E-06	0.175332831	0.69952649	0.699666494
0.099011073	0.135546328	0.177875469	0.617915892	0.618537825	0.618699276
0.841708096	0.103021682	0.099155419	0.135035576	0.627702619	0.602555663
0.867018213	0.866434333	0.081688614	0.159498576	0.161945235	0.621207057
0.429666933	0.877636908	0.459616834	0.524450141	0.170866326	0.559789403
0.045352256	0.048489172	0.053830707	0.655928754	0.656001121	0.656193802
0.43592769	0.877290291	0.448029041	0.542820747	0.170555192	0.575713268
0.88255369	0.02792695	0.027578599	0.175398235	0.694962538	0.694858313
0.85500723	0.111447066	0.86461891	0.154695874	0.592183157	0.155723447
0.855733094	0.068876246	0.071625735	0.148895009	0.649742824	0.629167798
0.013981348	0.881341749	0.014112333	0.697094673	0.175339348	0.696881162
0.059786111	0.039644616	0.079534449	0.679405162	0.679171589	0.67993631
0.856073809	0.116707564	0.863442974	0.15537406	0.590459112	0.155268669
0.864872272	0.855364213	0.111457608	0.15637044	0.155280171	0.591948427
0.438983681	0.877998183	0.438988383	0.596296135	0.171010663	0.626648207
0.442899741	0.44849608	0.87736605	0.606547045	0.576646535	0.170596147
0.877388707	0.46271314	0.420669957	0.17066385	0.609512125	0.572976346
0.130245095	0.318698142	0.219480629	0.622946636	0.623546114	0.620857802
0.074674766	0.856328891	0.091384272	0.625650566	0.149799599	0.645901405
0.462010535	0.415444446	0.877427981	0.626341968	0.589650704	0.170592264
0.047117847	0.872044542	0.873986509	0.656900138	0.165318516	0.168286994
0.270861436	0.290025637	0.825899443	0.616001675	0.586780437	0.118605604
0.055314898	0.872862013	0.874111576	0.654758221	0.164851971	0.168449728
0.429790724	0.877835028	0.459686208	0.524397156	0.170676141	0.559905643
0.480837064	0.410083398	0.877396977	0.559284292	0.517697779	0.17048256
0.82603447	0.221204655	0.221530595	0.118835068	0.611540351	0.582788978
0.081952779	0.855829947	0.068607713	0.633210948	0.149175801	0.65422642
0.469724954	0.411432911	0.877074276	0.590508867	0.552093437	0.170021663
0.866150565	0.095150258	0.867264432	0.162317894	0.617556516	0.15947095
0.877383688	0.878394592	0.877191267	0.170727584	0.170630752	0.17055968
0.421720968	0.877086175	0.4589945	0.55491541	0.170042236	0.590277227
0.141741123	0.860830932	0.845511342	0.564524509	0.153655955	0.149837116
0.882035215	0.027323449	0.874891191	0.175374288	0.695164857	0.170158775
0.278502269	0.283854649	0.825743227	0.612309306	0.585093055	0.118727354
0.569148196	0.877409253	0.543521956	0.539082746	0.170558772	0.5664579
0.877355376	0.473575418	0.410182869	0.170544083	0.609098064	0.569257025
0.860968924	0.844818791	0.141737902	0.153625534	0.149663426	0.56457308
0.462004736	0.415437808	0.87741559	0.626339725	0.589651118	0.170584267
0.153709623	0.140333919	0.097030525	0.618775226	0.617243183	0.615282517
0.07968091	0.071528311	0.855478643	0.647565513	0.627598312	0.149085863
0.442941206	0.44825721	0.877346736	0.60656951	0.576605	0.17060309
0.099334147	0.081046928	0.869184973	0.668881116	0.65685893	0.16263505
0.487052494	0.401398527	0.87743841	0.607419174	0.564315296	0.170529281
0.41023231	0.877629039	0.480923326	0.517422703	0.170788045	0.559466368
0.882070103	0.054275452	0.87529737	0.174905466	0.690520623	0.170709991
0.278525157	0.282356563	0.826112959	0.610898675	0.582996893	0.119092528
0.883064629	0.054273608	0.876447203	0.175028927	0.69048773	0.170933672
0.85532729	0.064255048	0.077943238	0.148797639	0.653397958	0.632607549
0.339229658	0.825850004	0.330781794	0.584958216	0.118965567	0.611090933
0.082153546	0.869129291	0.099721901	0.656309846	0.162632377	0.668879622
0.860710307	0.845136121	0.141743908	0.153596561	0.149670644	0.564520875
2.78775E-06	2.90859E-06	2.81451E-06	0.699436413	0.698789218	0.698961179
0.069986421	0.071985887	0.073910248	0.649617837	0.649566229	0.649461595
0.074536802	0.855675156	0.091532824	0.625986531	0.149386586	0.645591042
0.438765224	0.438760561	0.877552081	0.626612107	0.596333349	0.170691334
0.480680667	0.405939926	0.877404739	0.574715175	0.53216267	0.170543977
0.875799186	0.88359461	0.054275028	0.170931579	0.175620075	0.690515433
0.480768931	0.401475363	0.87755915	0.590035079	0.548257666	0.170412848
0.866501278	0.865693327	0.104043236	0.159281829	0.162485289	0.615210018
0.860748177	0.845103374	0.147543151	0.152687532	0.150250478	0.562804783
0.856273195	0.091255592	0.074149296	0.149414227	0.645823332	0.625466306
0.882143029	0.02732548	0.876500471	0.175685425	0.695194281	0.171270058
0.065218576	0.872335882	0.873799499	0.652790527	0.164669732	0.168272071
0.881511149	4.88169E-06	4.90919E-06	0.17539721	0.699142629	0.699319838
0.444543839	0.877465151	0.438899081	0.56291367	0.170650575	0.592585162
0.091807387	0.074279017	0.855244894	0.645421524	0.625792184	0.148967709
0.404146573	0.87757048	0.473534191	0.586194878	0.170688752	0.625707654
0.862211291	0.845033435	0.137234906	0.154696388	0.148979212	0.566148246
0.404029162	0.877327723	0.473410008	0.586150958	0.170887367	0.625888079
0.884154726	5.49679E-06	0.875359893	0.175188187	0.699386773	0.170103066
4.88652E-06	4.89815E-06	0.881774358	0.699200444	0.699264224	0.175407613
0.878301492	0.449155303	0.440044558	0.170800442	0.559840184	0.527606278
0.861084548	0.844917648	0.14175129	0.153878012	0.149840735	0.564540582
0.054277754	0.881403702	0.054671706	0.690595536	0.175388223	0.690064694
0.066219649	0.078888547	0.854464382	0.653822131	0.634235712	0.148930818
0.083323915	0.102173663	0.841318647	0.630807263	0.605955813	0.134846597
0.43502708	0.877521753	0.454720843	0.5745838	0.170564239	0.607976112
0.877339587	0.459020657	0.425579357	0.170599257	0.575690295	0.539649485
0.882226421	0.041209999	0.040792103	0.175789288	0.692475408	0.692927289
0.877641566	0.448781274	0.439784533	0.170568746	0.559770701	0.527766954
0.855805543	0.091279564	0.074163881	0.149405031	0.64514237	0.625806113
0.091872951	0.074383795	0.85670744	0.64550186	0.625773583	0.149525875
0.102881212	0.078831885	0.855062482	0.643495374	0.623650333	0.149277279
0.132310567	0.82626171	0.149441305	0.576273524	0.118910476	0.604203938
0.876478216	0.883817031	0.013707327	0.17037373	0.17547427	0.69735204
0.86416356	0.855522699	0.111454422	0.156231585	0.15543664	0.592228158
0.878139789	0.439059305	0.439054502	0.170883139	0.626614947	0.596395834
0.151688344	0.141145153	0.097438291	0.619022079	0.616732477	0.615180064
0.85497219	0.111438876	0.863890216	0.154933482	0.592055959	0.155754234
0.856833458	0.068724827	0.072146873	0.149543219	0.650272605	0.62862
0.856486687	0.116708805	0.8644503	0.155883019	0.590253247	0.156184283
0.153975157	0.85916145	0.846449394	0.560861789	0.151933473	0.151248087
0.877342878	0.437071397	0.446338436	0.170588278	0.575737181	0.546083503
0.073152716	0.855308554	0.071454476	0.629342163	0.149565843	0.649534969
0.091070836	0.078581179	0.869056318	0.668438174	0.657120131	0.162637743
0.09965407	0.841767772	0.09263313	0.604307513	0.134843233	0.629779711
0.855506978	0.091105308	0.07419791	0.149320361	0.645792649	0.625623993
0.846138091	0.147495307	0.860336395	0.150742768	0.562864288	0.153012726
0.067558806	0.067732526	0.067833564	0.636185481	0.636272539	0.636751729
0.013819277	0.014072608	0.013851169	0.69660573	0.697366472	0.696852759
0.874424664	0.049702894	0.872274713	0.168425319	0.659289001	0.165223049
0.884113494	0.027325114	0.875029632	0.175566136	0.695216809	0.170293123
0.415521851	0.877574447	0.46207996	0.58968618	0.170684777	0.6262013
0.091645098	0.074266838	0.856327557	0.64536024	0.625774675	0.149793366
0.446693263	0.877348595	0.444352326	0.57646585	0.170554697	0.606936447
0.841586751	0.124697573	0.103678232	0.135323698	0.622941876	0.597985152
0.859485438	0.844150652	0.141766922	0.152950376	0.149369409	0.564552429
0.869076247	0.076613597	0.080193371	0.162540178	0.676625644	0.664496633
0.083388541	0.102164928	0.841209746	0.630701583	0.605817931	0.134836912
0.153945321	0.859906982	0.846890773	0.560828078	0.15271736	0.151819241
0.877645616	0.448785159	0.439778854	0.170686461	0.559776013	0.52777663
0.013703458	0.876371105	0.882922002	0.697113585	0.170702686	0.175508346
0.415625447	0.877785203	0.462186671	0.589616306	0.170840202	0.626190474
0.480867002	0.410030606	0.877383451	0.559260703	0.517670485	0.17045152
0.470020582	0.41565873	0.877403385	0.575536708	0.536285084	0.170581893
0.855653954	0.065371382	0.079198613	0.148935981	0.652646354	0.631353692
0.404245462	0.877397432	0.484265909	0.5650559	0.170511563	0.60766749
0.469989585	0.411504504	0.877431553	0.590542864	0.552123084	0.170197816
0.058604439	0.038686046	0.077447874	0.679895359	0.679040517	0.680255358
0.877076871	0.47576355	0.477485109	0.170780965	0.563046129	0.53411488
0.855095463	0.107512854	0.865294918	0.154945755	0.593699557	0.156961327
0.459653333	0.429668786	0.877689001	0.559849768	0.524461881	0.170754167
0.864494349	0.856051597	0.116651798	0.155495536	0.155514017	0.590338256
0.858123919	0.130495026	0.862496928	0.157387071	0.586572468	0.1552456
0.875779888	0.882691279	0.040862123	0.170356916	0.174883973	0.693168331
0.459060208	0.422131928	0.877623107	0.590856849	0.555017929	0.170580712
0.868016361	0.865214832	0.077633109	0.160072368	0.161580501	0.623452458
0.128169896	0.108595563	0.146836069	0.616357152	0.61471125	0.615648835
0.405960202	0.87734376	0.480587378	0.532755816	0.170554471	0.575083011
0.868895084	0.076172601	0.078615848	0.162527724	0.676641625	0.664557345
0.439691937	0.877592949	0.448820137	0.527658396	0.170591857	0.559777262
0.137214889	0.861001338	0.842824012	0.566271837	0.154131062	0.148762609
0.081790264	0.078883238	0.868908058	0.675859484	0.66395858	0.162575438
0.041159915	0.040964425	0.880756367	0.692636845	0.693111945	0.174959236
0.081672055	0.867494304	0.866297663	0.621313816	0.159702731	0.161734674
0.877516004	0.448722322	0.439716044	0.170884494	0.559862693	0.527570229
0.153938584	0.860039503	0.846793019	0.560832198	0.152720549	0.151830202
0.877374331	0.480730078	0.474318908	0.170672613	0.562101027	0.533303542
0.415456673	0.877242655	0.469962537	0.536064051	0.170525421	0.575386042
0.841787334	0.113987463	0.100561606	0.135121884	0.626200661	0.600738656
0.841847058	0.103023189	0.098988253	0.134990197	0.627739726	0.602590384
0.083376626	0.102169246	0.841530818	0.631109841	0.606271692	0.134855754
0.480844176	0.410041814	0.877367495	0.55924915	0.517669834	0.170418357
0.877686217	0.470317571	0.419885246	0.170739501	0.559639573	0.520957204
0.147449585	0.858948397	0.845821775	0.562865501	0.15253844	0.150368579
5.49351E-06	0.876484867	0.883125268	0.699069439	0.170704295	0.175304161
0.868783323	0.08301397	0.07513798	0.162667733	0.673373483	0.661694307
0.882511541	0.013705069	0.876159666	0.175478666	0.697271396	0.170975909
0.092956974	0.080034759	0.869413559	0.66805693	0.657014598	0.162661566
0.87829117	0.481170655	0.402142577	0.17093523	0.590046118	0.547827901
0.415183691	0.876895465	0.461739458	0.589736716	0.170606572	0.626113094
0.067560784	0.067729225	0.067843886	0.636171087	0.636250407	0.636803519
0.124391475	0.297972122	0.206352596	0.623345966	0.626231451	0.62192372
0.137183004	0.86173746	0.844275117	0.566123687	0.154623757	0.149074241
0.054593532	0.054202254	0.882783406	0.690321639	0.690591749	0.175632978
0.841639571	0.124896099	0.103691151	0.135310995	0.623016573	0.598056153
0.10316116	0.841851488	0.125085605	0.598559766	0.135119453	0.623585146
0.841807228	0.102969015	0.099141843	0.135044009	0.627729986	0.602566065
0.059374902	0.064128266	0.063364738	0.652179925	0.651565923	0.651808619
0.415963602	0.878464772	0.462527847	0.589712036	0.170728503	0.626140835
0.446688212	0.877353614	0.444347774	0.576468379	0.170553853	0.606934741
0.856831976	0.130380334	0.862995581	0.156303646	0.586405856	0.154375916
0.841850568	0.092713464	0.099665891	0.134793241	0.629660114	0.604354853
0.869135896	0.090279552	0.076201608	0.162671121	0.671818077	0.659772504
0.44632438	0.877311844	0.437055345	0.546029103	0.170623043	0.575736064
0.27438867	0.825840487	0.268138939	0.585274418	0.118676682	0.613482575
0.432573891	0.877401313	0.448025612	0.558409516	0.170398732	0.591059084
0.871938929	0.87470163	0.047124349	0.164822254	0.168235358	0.657058
4.8629E-06	0.881412529	4.88255E-06	0.69935387	0.175047118	0.699127521
0.271453271	0.283000572	0.825442461	0.613927272	0.58627745	0.118688691
0.097081381	0.143134689	0.182564596	0.618358248	0.618416058	0.620209765
0.432549316	0.877205906	0.447879877	0.55812832	0.170575062	0.590816737
0.081324103	0.856006966	0.068514525	0.633490322	0.149104057	0.654443261
0.84172046	0.113606053	0.100565392	0.135178354	0.62598022	0.600919096
0.014599099	0.881457871	0.014701289	0.697215825	0.175461271	0.69720106
0.099674625	0.841769279	0.092661	0.604308343	0.134887688	0.629755117
0.876604893	0.883581123	0.027332672	0.170646588	0.175835201	0.695421909
0.448794994	0.439581171	0.877444532	0.559668416	0.527845091	0.170616894
0.877195807	0.447850734	0.432835583	0.170237972	0.590948505	0.558569786
0.866597143	0.866449633	0.095365712	0.159166971	0.162697788	0.617643008
0.87771425	0.877963108	0.879117143	0.17072327	0.1709362	0.170941432
0.068927868	0.07133716	0.855403692	0.649931669	0.629480894	0.149182117
0.014150955	0.014064337	0.882479742	0.697510305	0.697094104	0.175416775
0.854500146	0.116685093	0.86259747	0.155392698	0.590428129	0.1553647
0.081453945	0.869286627	0.098906631	0.656475633	0.162640797	0.669229291
0.141047982	0.1305161	0.824893194	0.605566658	0.577779407	0.118711322
0.448129973	0.435930774	0.877405212	0.575588624	0.542625892	0.170575895
0.877414785	0.459558534	0.429498619	0.170452975	0.559706938	0.524559071
0.44631962	0.877320028	0.437066737	0.546059511	0.170563342	0.575727392
0.411485336	0.877229579	0.469831627	0.551642083	0.170215157	0.590536774
0.437941193	0.444898864	0.877397134	0.592710103	0.563212943	0.170333568
0.450242623	0.426818123	0.877075058	0.626487259	0.593093781	0.170409267
0.299066621	0.826001506	0.297062542	0.591561638	0.118838019	0.617629343
0.470075029	0.419612474	0.877161954	0.559622874	0.520980996	0.170527626
0.825631038	0.277411097	0.28732924	0.118317924	0.610902807	0.582686514
0.125131054	0.110074896	0.145471574	0.615597195	0.614483161	0.614676294
0.871068367	0.875916316	0.065169811	0.165014465	0.169312953	0.652718541
0.854769177	0.079531856	0.071880155	0.148910118	0.647627659	0.627594623
0.147425041	0.861273275	0.846330962	0.562755647	0.153099307	0.150838397
0.077013215	0.868191049	0.864768163	0.622874253	0.160346823	0.161418993
0.877882434	0.473688444	0.40430513	0.170674658	0.625804306	0.586154976
0.099042836	0.841804368	0.10305563	0.60254689	0.134915142	0.627683658
0.429853406	0.877965537	0.459756102	0.524459913	0.170879409	0.559752519
0.825928544	0.216168924	0.225521621	0.118682217	0.60999743	0.580541769
0.137178058	0.861310653	0.843376548	0.56628787	0.153955711	0.14867323
0.073008564	0.854672724	0.07160572	0.629452597	0.148713736	0.649594243
0.470067202	0.415586139	0.87737162	0.575325845	0.536135104	0.170548505
0.877484725	0.480501951	0.405829379	0.170591777	0.575397925	0.532974425
0.877432097	0.451423569	0.431556597	0.170537858	0.60916537	0.575848509
0.446491509	0.877319494	0.443476855	0.577306041	0.170581983	0.608283591
0.437071496	0.446333036	0.87733499	0.575707846	0.54600189	0.17063349
0.070088317	0.051202981	0.082298563	0.673445026	0.672551465	0.674940757
0.088108611	0.867136112	0.865926878	0.619379594	0.159540965	0.16211916
0.854929364	0.111481472	0.86418239	0.154650337	0.592176887	0.155752058
0.826056219	0.224670709	0.224415633	0.11875162	0.609169186	0.581096611
0.099235677	0.841730937	0.103107505	0.602414876	0.134906913	0.627648468
0.059028166	0.039080088	0.078372209	0.679406378	0.679116647	0.679892574
0.411465997	0.87731143	0.469937133	0.551480579	0.170490284	0.590637307
0.491185968	0.52166056	0.878296481	0.561650926	0.533453921	0.170610157
0.439038145	0.878107166	0.439042869	0.596310149	0.171215291	0.626726083
0.081466396	0.867541822	0.865758456	0.621354899	0.159759091	0.161710506
0.437093575	0.446331663	0.877356705	0.575736269	0.546022549	0.170606725
0.881654339	0.041269306	0.040871212	0.175500797	0.692720695	0.692938586
0.438541744	0.877113966	0.438546468	0.596542868	0.1706057	0.626498038
0.05453129	0.05448247	0.05471007	0.690413167	0.689984449	0.690821998
0.868705649	0.081945684	0.078854431	0.162616722	0.67405426	0.662151125
0.86081685	0.84250278	0.133718458	0.154839767	0.147626344	0.567765825
0.877954853	0.481110168	0.41036295	0.170711894	0.559485411	0.517357266
0.027768574	0.027578806	0.02831893	0.694984146	0.694433464	0.695480415
0.01432091	0.014331184	0.881739559	0.696945757	0.697399926	0.175310088
0.450216186	0.426792164	0.877022658	0.626351901	0.593210518	0.170269095
0.446085417	0.877326934	0.444417872	0.576458921	0.170573182	0.607102192
0.865328554	0.077190394	0.867217375	0.161144748	0.622832073	0.160241636
0.07699801	0.080407343	0.868969078	0.678288969	0.666040807	0.162520179
0.825445635	0.20450931	0.197872106	0.118802354	0.610154476	0.578049396
0.860617596	0.844536704	0.137246616	0.153790032	0.148569217	0.566175713
0.877397002	0.46977301	0.415627695	0.170552078	0.575411499	0.536141162
0.091369651	0.074256504	0.854706695	0.64584363	0.625656329	0.149148262
0.863618576	0.85592367	0.116638908	0.155435733	0.155462691	0.590373748
0.877607825	0.438793358	0.438788621	0.170857941	0.626589353	0.596438727
0.877350415	0.45913658	0.422114941	0.170400284	0.590590633	0.554770792
0.424232369	0.877427289	0.465317866	0.573056731	0.170558308	0.609802318
0.062447324	0.062472242	0.062378982	0.638274942	0.638420081	0.638519525
0.402821231	0.877402239	0.485596956	0.564828116	0.170552619	0.607511147
0.055378631	0.871373146	0.874660246	0.654981042	0.164823035	0.168732753
0.419768026	0.87755304	0.47029471	0.52089078	0.17065889	0.559686351
0.87721144	0.470409566	0.411643558	0.170437514	0.590680642	0.551610353
0.233711466	0.245996543	0.826092443	0.607080719	0.580825943	0.119073197
0.062480803	0.062474945	0.062442098	0.638285358	0.638472183	0.638511617
0.045432552	0.048290757	0.053649439	0.655888506	0.656075709	0.65600175
0.841670193	0.124999859	0.103901196	0.135293194	0.623246269	0.597834892
0.144474401	0.131791228	0.096696135	0.618277409	0.617506814	0.615845782
0.078847735	0.86895171	0.088215059	0.662596134	0.162636122	0.671617458
0.100515665	0.841831363	0.113981099	0.601024173	0.13510323	0.625943691
0.062475816	0.062488281	0.062449559	0.638290389	0.638245991	0.638515374
0.876117204	0.883526587	0.027321925	0.170421578	0.175732114	0.695092125
0.855545116	0.102787002	0.078693518	0.149563624	0.643361689	0.623840831
0.409895712	0.876994047	0.48062916	0.517555441	0.170494149	0.559391876
0.882450146	0.040850672	0.875192279	0.17452758	0.692903032	0.170561075
0.855707954	0.091272649	0.074157902	0.149450279	0.645158877	0.625721854
0.473528937	0.404152725	0.877569994	0.625878908	0.586092592	0.170788377
0.218613065	0.825523218	0.209601849	0.577965507	0.118806341	0.606468448
0.459673102	0.429690004	0.877725465	0.559816712	0.524350236	0.170756368
0.480881264	0.401418354	0.877612361	0.590328165	0.548194811	0.170855015
0.147776173	0.132513268	0.825222655	0.602562811	0.572027634	0.119108866
0.877255607	0.462411746	0.420975656	0.170543202	0.608555526	0.572135581
0.153945408	0.859906054	0.846891096	0.560828066	0.152717411	0.151819224
0.414007071	0.877224745	0.474927542	0.568200453	0.170621776	0.607205377
0.0834001	0.102211307	0.84181434	0.631196933	0.605782777	0.134714454
0.273496054	0.825831901	0.269479964	0.585591555	0.118647968	0.613616514
0.871743018	0.874214654	0.048009342	0.165131405	0.16812966	0.658673766
0.272387871	0.825716185	0.271137744	0.585480291	0.118637768	0.61352131
0.864124905	0.856027975	0.116637796	0.155721028	0.155710536	0.590320508
0.446324128	0.877336698	0.437077671	0.546078127	0.170539526	0.57575302
0.868931239	0.091906365	0.077580185	0.162687726	0.671351448	0.65933632
0.864229134	0.856296337	0.116644068	0.155790869	0.155693205	0.590394621
0.868979812	0.090262095	0.076190917	0.16270696	0.671499641	0.659421821
0.826264393	0.14891423	0.13180025	0.119606299	0.601667691	0.573558389
0.877329799	0.451009803	0.432012727	0.170487161	0.608747292	0.575260531
0.080266536	0.855645007	0.104301848	0.623575128	0.14935127	0.643715129
0.14187958	0.860993478	0.84345655	0.564486085	0.15387486	0.149817134
0.087813999	0.867034045	0.865744902	0.619877928	0.1596626	0.161983868
0.86415276	0.855632242	0.123150239	0.155949375	0.156727654	0.588403253
0.860380155	0.845164297	0.147492352	0.152962744	0.150535411	0.562900187
0.103203783	0.078868522	0.856376442	0.64368931	0.623583838	0.14962767
0.095463994	0.866925158	0.866512431	0.617413308	0.159301756	0.162477366
0.877613072	0.877411527	0.878298944	0.170746565	0.170465034	0.17096566
0.041886932	0.04104783	0.042369202	0.692997158	0.691703871	0.692176526
0.446181575	0.877337508	0.444279874	0.576445018	0.170571325	0.607046937
0.040850256	0.876493926	0.883606925	0.692958432	0.170655014	0.175484139
0.057178147	0.044493674	0.075246379	0.675638204	0.674642921	0.676203677
0.074897738	0.07483585	0.074992886	0.634095265	0.634352887	0.634626004
0.435830876	0.877326826	0.448169182	0.542804161	0.170556489	0.575691529
0.123092993	0.863808652	0.85613648	0.588680776	0.15516134	0.156297222
0.082365859	0.869082431	0.09960054	0.656171653	0.16264499	0.668834124
0.825557921	0.14848972	0.130449305	0.118908797	0.604460128	0.57598485
0.865052507	0.855534477	0.111403066	0.156195204	0.155379047	0.592263874
0.040946227	0.882099797	0.041693835	0.692746865	0.175783782	0.692070336
0.862958352	0.856422343	0.123161281	0.155044264	0.156177211	0.588397479
0.083347568	0.102170141	0.841522935	0.631063831	0.606229483	0.134853898
0.149296073	0.134393435	0.82556865	0.60389171	0.574883464	0.119381719
0.425716359	0.877417759	0.459112261	0.539413227	0.170665913	0.575579161
0.473691264	0.404317196	0.877895764	0.625938252	0.586163444	0.17062671
0.866501382	0.865692666	0.104043461	0.159281801	0.162485405	0.615209429
0.84155708	0.113818941	0.10012119	0.13507114	0.625717296	0.600454036
0.437784228	0.444783915	0.877338075	0.592715743	0.563191554	0.170333886
0.087630689	0.079065676	0.868709554	0.672370192	0.660113458	0.162646416
0.884229658	0.027327792	0.875220427	0.176340138	0.695268559	0.170678919
0.08580343	0.869037032	0.082363642	0.664926979	0.162384034	0.677150022
0.111397122	0.865769809	0.85629488	0.592213115	0.156284657	0.155422883
0.133723938	0.862364203	0.843840634	0.567772063	0.155333313	0.148298254
2.77128E-06	2.92192E-06	2.8454E-06	0.69913568	0.69954724	0.698809679
0.877242477	0.459455222	0.429431416	0.170405405	0.559770716	0.524475311
0.864376725	0.855738006	0.11138914	0.156114234	0.155238559	0.5923089
0.87696925	0.480763542	0.401167723	0.170259966	0.589615045	0.547572003
0.876093708	0.883347682	0.027319485	0.170574236	0.175814005	0.695061313
0.877483226	0.480499921	0.405822514	0.170546727	0.575083598	0.532740843
0.013832102	0.014328358	0.01401638	0.697213659	0.697087848	0.697454164
0.469983502	0.41565405	0.877360371	0.575459757	0.536240347	0.170573456
0.825811963	0.137684456	0.131230469	0.118863129	0.605783397	0.576201323
0.083953413	0.310045793	0.286323843	0.619704466	0.617033833	0.61745468
0.424301777	0.87736433	0.464614732	0.57269051	0.170573072	0.609424009
0.075995071	0.871645695	0.875057478	0.65047568	0.164415609	0.168871898
0.862527799	0.843569595	0.133704964	0.155136872	0.147947839	0.567858404
0.844084848	0.133724094	0.863346948	0.148505115	0.567775841	0.155772327
0.864697262	0.856048926	0.116640047	0.155445765	0.155457558	0.590366003
0.881591971	0.041170826	0.040813218	0.175379534	0.692840985	0.692900881
0.868883561	0.075873064	0.078711189	0.16252486	0.676598594	0.664457824
0.131346688	0.825965515	0.149305753	0.57588976	0.118987671	0.604173806
0.856569389	0.079543066	0.071817319	0.149382907	0.647982901	0.627513735
0.874459108	0.049076465	0.872460463	0.168455413	0.659224908	0.16525447
0.877324081	0.437065204	0.446327065	0.170594544	0.575743436	0.546064172
0.059997626	0.06004418	0.059883661	0.639800323	0.640158398	0.639984088
0.401619302	0.877555786	0.480708608	0.548224876	0.170443679	0.589946257
0.125979059	0.303337124	0.209686943	0.623033203	0.623809387	0.621183201
0.083431871	0.10218929	0.841347826	0.630865412	0.606102319	0.134855292
0.272985543	0.283235076	0.825515855	0.614013591	0.586695766	0.118675299
0.867306839	0.865271001	0.077602342	0.159666566	0.161215004	0.622757199
0.87731981	0.483587868	0.400286103	0.170491011	0.60824491	0.565557677
0.081613521	0.869214501	0.099407771	0.657074471	0.162659371	0.669517071
0.8563494	0.123066527	0.864115845	0.156472236	0.588490835	0.155778051
0.473750348	0.404363886	0.878003076	0.625732488	0.586273013	0.170575987
0.07035419	0.071299	0.073826935	0.649785072	0.650001227	0.650590623
0.863300554	0.85645699	0.123131805	0.155731469	0.156503875	0.588467053
0.102989658	0.078894698	0.855767106	0.643354142	0.62338195	0.149257059
0.877398242	0.473594938	0.410169202	0.170546912	0.60910461	0.569258568
0.083097389	0.080087177	0.86895142	0.675332111	0.66258794	0.162514598
0.864103132	0.85706088	0.13031184	0.155388125	0.15733906	0.586553025
0.883046753	0.054279134	0.875972686	0.174872902	0.69054825	0.170761779
0.100324007	0.841960784	0.113883815	0.600746193	0.13512506	0.62561991
0.867190145	0.866505182	0.09545283	0.159513371	0.162717048	0.617301843
0.0770797	0.8675658	0.864545378	0.623203617	0.160093886	0.161135069
0.1284755	0.321523251	0.224301771	0.622409522	0.622588669	0.620877257
0.841334985	0.083369474	0.102212005	0.134778891	0.631383104	0.606159517
0.058822604	0.038962518	0.077957703	0.679378887	0.679081579	0.679881484
0.865084974	0.077029101	0.866619445	0.16108822	0.623090109	0.159516118
0.877355772	0.437069767	0.446354019	0.170599466	0.575718713	0.546078562
0.066202223	0.078991076	0.854490061	0.653840069	0.634227413	0.148944138
0.459067461	0.425682331	0.877314061	0.575451009	0.539351659	0.170577795
0.84529508	0.14181065	0.861279074	0.149700372	0.564665555	0.153689689
0.860773464	0.844199121	0.137263653	0.153841705	0.148606637	0.566182428
0.107775127	0.865079946	0.855988788	0.593920191	0.156962477	0.154693747
0.080078028	0.868811488	0.092886618	0.658301196	0.162734168	0.669996913
0.480837056	0.405873786	0.877511871	0.574762525	0.532253679	0.170543735
0.855493806	0.107527292	0.865510596	0.154957948	0.593812879	0.156942123
0.871134537	0.875501736	0.04744238	0.16509321	0.16895112	0.657137039
0.860329483	0.846092483	0.147397383	0.153279127	0.150979015	0.562634548
0.825527296	0.148451827	0.129857285	0.118926706	0.604433689	0.57600522
0.877617035	0.448790246	0.43974257	0.170717351	0.559966457	0.527628951
0.46609096	0.424412197	0.877305898	0.608463175	0.571883318	0.170558951
0.133743911	0.861986865	0.844228804	0.567775437	0.154835285	0.147849019
0.41145248	0.877160562	0.469777826	0.551569375	0.170498717	0.590648368
0.141844612	0.861133537	0.843981986	0.56448991	0.153489421	0.149468337
0.868073074	0.866446167	0.077441697	0.160207151	0.161811709	0.623096377
0.079747256	0.071489496	0.85576786	0.648222196	0.627149581	0.149240912
0.872782913	0.873760571	0.055341535	0.165203673	0.168495656	0.654679368
0.027322784	0.876845233	0.882763176	0.695123806	0.170665932	0.17520574
0.000005493	0.876417264	0.883187608	0.699082272	0.171135451	0.175585535
0.123092933	0.864961503	0.857538288	0.588488972	0.155743526	0.156884073
0.331000861	0.825952305	0.319469195	0.582538312	0.118800276	0.612444958
0.448142216	0.435911898	0.877412646	0.575826369	0.542883905	0.170552155
0.040840418	0.875810066	0.882208187	0.692782388	0.170543039	0.175502159
0.882441176	0.041247675	0.040890189	0.175572814	0.692364893	0.692924097
0.877089333	0.470324159	0.411670815	0.170208953	0.589683801	0.551199773
0.081618447	0.301644628	0.287679763	0.619713012	0.617619636	0.617276436
0.06760604	0.067729097	0.067914715	0.636304683	0.636586618	0.636770446
0.027322795	0.876695725	0.882785867	0.695124252	0.170612536	0.175116397
0.434876125	0.87747988	0.454703893	0.57487978	0.170567873	0.608213069
0.871970532	0.874019031	0.047125048	0.165353745	0.168304155	0.658660693
0.855061771	0.065553938	0.079226654	0.148534889	0.652340311	0.63187162
0.095577522	0.867068471	0.866392822	0.617422338	0.159531946	0.162564085
0.069034744	0.071364751	0.855479648	0.649898508	0.629513363	0.149184427
0.099150223	0.841812571	0.103089302	0.602559926	0.134921901	0.627689511
0.877391306	0.483899732	0.399998454	0.170532615	0.608525206	0.565952527
0.062434642	0.062493015	0.06241186	0.638262537	0.638296883	0.638594516
0.856530554	0.123156489	0.864251247	0.156649427	0.58862788	0.155671543
0.82576902	0.148863193	0.131712089	0.119201028	0.604726658	0.575482255
0.877610368	0.877406659	0.878806484	0.170692257	0.170539617	0.170855554
0.113753673	0.100212582	0.841980222	0.625925472	0.600571307	0.135140387
0.855460336	0.065380392	0.079217632	0.148523617	0.652420213	0.631852926
0.077331433	0.080826083	0.868981106	0.678448786	0.665946652	0.162493488
0.111503121	0.864244873	0.85574601	0.59199073	0.155828345	0.155102599
0.845686207	0.141778931	0.861114286	0.150192292	0.56455592	0.153991535
4.94356E-06	0.881360617	4.8245E-06	0.699376766	0.175132957	0.699073842
0.415705216	0.877421757	0.469914641	0.536206606	0.170575945	0.575443388
0.055369068	0.871917049	0.873487691	0.654892861	0.164739388	0.168471561
0.153943617	0.860483025	0.847323433	0.56086577	0.152872735	0.151998645
0.041167152	0.040878556	0.881203561	0.69236228	0.693153672	0.175227418
0.027358521	0.881158743	0.027595971	0.695151337	0.175001833	0.69451292
0.07324948	0.855651706	0.071605083	0.62940831	0.149685792	0.649398178
0.877278524	0.440463969	0.443890564	0.170629994	0.608639931	0.578046962
0.858989009	0.846255061	0.153951818	0.152233204	0.151304324	0.560876554
0.014431961	0.8809512	0.014817777	0.697334748	0.17520706	0.697356277
0.103968469	0.866540956	0.866562394	0.615394938	0.159007656	0.162824443
0.866702067	0.087800471	0.866957846	0.16206635	0.619400582	0.159614257
0.404223689	0.877708126	0.473596041	0.586191806	0.170703946	0.625716933
0.841023415	0.083312524	0.102218831	0.134817577	0.63126018	0.605949557
0.075993295	0.871357327	0.875397691	0.65045446	0.164351992	0.168802127
0.080161142	0.869183794	0.092780053	0.659163794	0.162733436	0.670654639
0.044556965	0.049620542	0.051342236	0.657860651	0.658613958	0.658490959
0.142935521	0.826093108	0.149251227	0.576273324	0.119154705	0.605706099
0.091942625	0.074327332	0.857042922	0.645485384	0.625698367	0.149855356
0.884225863	0.027325466	0.876926775	0.175740619	0.695191211	0.171420939
0.081663785	0.867562684	0.865710711	0.621371129	0.159882423	0.161549716
0.869017029	0.082999573	0.07502124	0.162640015	0.67398932	0.661634888
0.841411815	0.113791026	0.100405791	0.135149961	0.625696714	0.600655326
0.480562687	0.40575319	0.877284437	0.575080576	0.532581325	0.170525383
0.027804892	0.027650553	0.028194601	0.694961833	0.694525773	0.695551268
0.458983022	0.425672317	0.877314682	0.575567931	0.539420455	0.170584667
0.404417852	0.878118358	0.473811183	0.586245039	0.170750729	0.625793353
0.242018092	0.247515098	0.825107167	0.612043149	0.581531174	0.118409172
0.877235643	0.440184973	0.444142574	0.17061882	0.608365113	0.577841398
0.877673768	0.450543075	0.427115833	0.170697061	0.626556284	0.593098268
0.877379687	0.459004729	0.425624377	0.170571404	0.575643712	0.539636498
0.294911091	0.826020369	0.295439868	0.591198528	0.118869818	0.617987232
0.470208561	0.419656044	0.877353133	0.559649355	0.520989782	0.17057467
0.465741903	0.424541795	0.87737624	0.608766471	0.572180084	0.170607923
0.329209791	0.826077495	0.327097884	0.586430529	0.118573794	0.613059512
0.877302998	0.448657341	0.439579383	0.170561903	0.559787293	0.527787018
0.11139731	0.865830778	0.856349118	0.592229819	0.156288904	0.155459738
0.014263606	0.013976852	0.882102347	0.697710861	0.697587401	0.175432221
0.845697721	0.846730168	0.845735482	0.255861459	0.256734173	0.256747247
0.857107867	0.123045177	0.864324225	0.156436701	0.588489065	0.155678118
0.874177556	0.047359538	0.871555064	0.168118816	0.657117766	0.164509837
0.079068556	0.868966271	0.08760332	0.663328611	0.162640216	0.672249927
0.855574617	0.107549729	0.865458769	0.154985428	0.593837159	0.157048112
0.439687652	0.87758773	0.44881965	0.527658772	0.170596483	0.559777606
0.874139727	0.055366187	0.871498366	0.168391546	0.654962166	0.164285895
