Va	Vb	Vc	Ia	Ib	Ic
0.856059309	0.111419066	0.864512143	0.155019163	0.591991663	0.155944175
0.572990881	0.877191271	0.544036923	0.537896891	0.170400063	0.564664644
0.410292582	0.877802816	0.481029832	0.517505776	0.170836688	0.559493368
0.103066263	0.099097249	0.841708419	0.627729689	0.602600322	0.135003108
0.877006322	0.480630183	0.401413435	0.170675042	0.590145843	0.548243294
0.055792358	0.044918449	0.074880802	0.674563098	0.674674968	0.675541287
0.077477484	0.080852687	0.869033087	0.678274576	0.666187088	0.162519304
0.041530989	0.882171774	0.041878655	0.692938596	0.175598009	0.692532364
0.470009975	0.415535558	0.877276015	0.57528118	0.53609272	0.170543539
0.868872823	0.081317294	0.078195258	0.162613477	0.673339514	0.661698744
0.866500464	0.866129123	0.104231597	0.159349448	0.162630663	0.615344452
0.497008506	0.512421713	0.877472373	0.559547744	0.531390942	0.170609447
0.10334918	0.841807997	0.125014806	0.598693109	0.13541194	0.623549705
0.074848761	0.074906255	0.075096249	0.63410435	0.634373369	0.634444933
0.170742686	0.161450877	0.09455477	0.617781476	0.616401553	0.615884084
0.572797951	0.877111423	0.543613704	0.538592028	0.170404291	0.565905542
0.082212081	0.302299948	0.285669474	0.620132513	0.620466805	0.617768875
0.415642975	0.87743723	0.469954389	0.536204569	0.170553091	0.575467221
0.877685002	0.48102775	0.401594332	0.170720529	0.59028783	0.547992152
0.882787379	0.054275415	0.875814659	0.175013421	0.690517198	0.170793924
0.08191097	0.855994568	0.068410334	0.631631443	0.149080465	0.652774348
0.877385176	0.469842643	0.415538012	0.170594155	0.57560479	0.53633273
0.013705758	0.876151566	0.882299654	0.697262809	0.170784494	0.175582839
0.141910274	0.826086637	0.148178261	0.57615851	0.119229157	0.605685591
0.127007926	0.293674131	0.19902619	0.622726529	0.626974562	0.62333593
0.44279584	0.448618723	0.877331454	0.607336824	0.577935671	0.170587663
0.877549991	0.448746968	0.439715967	0.170839502	0.559844971	0.527566864
0.425647418	0.877412402	0.459168672	0.539415031	0.170550172	0.575462954
0.081366893	0.856226303	0.068143611	0.631528336	0.149024468	0.652638281
0.091174998	0.078282912	0.86915483	0.668424459	0.657111038	0.162654012
0.82568856	0.251956067	0.2536378	0.118973831	0.612764999	0.584710077
0.87724363	0.484252356	0.399480751	0.170518348	0.608289411	0.565628958
0.067623145	0.067598045	0.067780101	0.636598284	0.636396315	0.636747768
0.101166383	0.12664951	0.169376542	0.616474227	0.622095806	0.619604387
0.079625146	0.071586772	0.855816546	0.64786754	0.627749272	0.149038
0.882450146	0.040850672	0.875192279	0.17452758	0.692903032	0.170561075
0.438940969	0.438936315	0.877903423	0.626742899	0.596294452	0.170465218
0.877338861	0.459016754	0.425573309	0.170582805	0.575640079	0.539629293
0.869086712	0.090241862	0.076393023	0.162664389	0.672149868	0.659829017
0.083398961	0.102160143	0.84154418	0.630798187	0.605856844	0.134735243
0.081184543	0.084497983	0.868951225	0.67959045	0.666562416	0.162499941
0.877722225	0.470369595	0.419865988	0.170659628	0.559639007	0.520964337
0.448082583	0.432838471	0.877771849	0.59089842	0.558245982	0.170298473
0.877339105	0.468341833	0.482841188	0.170660479	0.562494651	0.533661266
0.867007188	0.104050493	0.866729717	0.162687366	0.615471043	0.159138609
0.059414241	0.064347718	0.063658562	0.652103294	0.651413352	0.651189251
0.438617985	0.438613295	0.877257454	0.626629037	0.596361147	0.170683667
0.875907396	0.883345595	5.49578E-06	0.170611414	0.175229312	0.699305462
0.348658942	0.825467043	0.342318375	0.585643991	0.11849522	0.612889588
0.027360852	0.881651126	0.027661273	0.695426301	0.175016126	0.694344151
0.841643437	0.113700715	0.100386126	0.135149936	0.625800252	0.600881593
0.072518077	0.855218497	0.071502	0.629758331	0.149124707	0.649540324
0.845796106	0.141776163	0.861442505	0.15019269	0.564571825	0.153979168
0.480708529	0.410105796	0.877274844	0.559199987	0.517630814	0.170480574
0.065234087	0.871842458	0.87430681	0.652749833	0.165043242	0.168595391
0.013708227	0.876779527	0.884005558	0.697396849	0.171112334	0.175276906
0.877584624	0.480855308	0.410263007	0.170416649	0.559314653	0.517597424
0.874108654	0.048535754	0.872260169	0.168269652	0.658964181	0.165334051
0.066704927	0.079596468	0.853810909	0.652754563	0.633160341	0.148794033
0.857301204	0.13047515	0.862653725	0.156726779	0.586557334	0.154579499
0.873034841	0.874560758	0.065167898	0.164857692	0.16873256	0.652907097
0.111392154	0.864931985	0.855880514	0.592248198	0.15629679	0.155509156
0.278823368	0.28544601	0.825807541	0.615580536	0.584647888	0.118731522
0.099668459	0.841717539	0.092685831	0.604495267	0.134894925	0.629760583
0.103597367	0.841634805	0.125042083	0.59859619	0.135290012	0.623461943
0.056322253	0.044750073	0.074990518	0.675533791	0.674668692	0.67590088
0.133713829	0.861697246	0.843704649	0.567836989	0.15521622	0.148204329
0.877487941	0.480539774	0.405726836	0.170593986	0.575407269	0.532966497
0.435890859	0.877312011	0.448074386	0.542880691	0.170518651	0.575825978
0.056216126	0.044582957	0.074517601	0.675412362	0.674690208	0.675881097
0.415441595	0.87741694	0.462002521	0.589668789	0.170762078	0.626166619
0.14025104	0.13379193	0.825434508	0.605604063	0.5776186	0.118716394
0.874914891	0.051123255	0.872048078	0.168369127	0.659088619	0.165019256
0.876549409	0.882935569	5.49553E-06	0.171319385	0.175600272	0.69911737
0.447763111	0.432434732	0.877054338	0.590833014	0.558349362	0.170149243
0.14743977	0.859988494	0.845205867	0.562793453	0.152706474	0.150593045
0.072992425	0.855306903	0.071498862	0.629437529	0.149103021	0.649530725
0.147438464	0.860747627	0.845760874	0.562692936	0.153129627	0.150838459
0.877147616	0.484625929	0.392773626	0.170781208	0.625249344	0.582632404
0.079649901	0.071598047	0.855814933	0.647811108	0.627753376	0.149080177
0.079611949	0.071566007	0.855748608	0.647838993	0.62775555	0.149030498
0.860003373	0.845978482	0.147449318	0.153070517	0.150705386	0.562535024
0.882567063	0.040847755	0.876429319	0.174544499	0.692855388	0.17055738
0.877028901	0.884078715	0.054268124	0.171550472	0.175178502	0.690432359
0.863768353	0.85723392	0.130319573	0.155230306	0.157094308	0.586597891
0.877601232	0.884458807	0.054283006	0.171337983	0.175677005	0.69064238
0.4811254	0.410386547	0.877996878	0.559292542	0.51771282	0.170478004
0.437653314	0.445161118	0.877398196	0.591322497	0.561969504	0.170389868
0.864812353	0.076942875	0.867307836	0.161016515	0.622745008	0.159826708
0.88142133	4.88738E-06	4.84546E-06	0.175501581	0.698868263	0.69929569
0.014131441	0.881441699	0.014307726	0.697309307	0.17541341	0.69703812
0.877719404	0.484917808	0.393052872	0.17071116	0.625267877	0.582651925
0.878015117	0.470451246	0.420083104	0.170938012	0.559678837	0.521083508
0.497021277	0.511941945	0.877506326	0.560743151	0.531737189	0.17063465
0.401354057	0.876999908	0.480406455	0.54801565	0.170238696	0.589684569
0.415476391	0.877487933	0.462038872	0.589833329	0.170520385	0.626053484
0.141486575	0.13201629	0.098259138	0.61939538	0.616731608	0.615912892
0.083420618	0.102225967	0.841806576	0.63120917	0.605850443	0.134724958
0.147452595	0.858925046	0.845833249	0.562866331	0.152543791	0.150372134
0.414706063	0.877218382	0.474816711	0.569272244	0.170577334	0.608305124
0.124278784	0.113527023	0.151482427	0.61671965	0.614158026	0.615168397
0.083666026	0.276378425	0.253204107	0.620154974	0.621427662	0.623418304
0.863205497	0.85612776	0.123150787	0.155173094	0.155979175	0.588585403
0.448136913	0.435929209	0.877411581	0.57582742	0.542884485	0.170550461
0.881267216	0.041220836	0.040794009	0.175390024	0.692547665	0.692920149
0.072952883	0.854665105	0.071239985	0.629276364	0.148753394	0.649003367
0.437104571	0.446324967	0.87736187	0.575764266	0.546057014	0.170594476
0.877044929	0.469900867	0.412190456	0.170409489	0.590598458	0.551540804
0.05426029	0.881605147	0.054649363	0.69050269	0.175342822	0.68997963
0.869021218	0.090389105	0.07645755	0.162696976	0.67153066	0.659367169
0.040861311	0.875345966	0.88362559	0.693160044	0.170493167	0.175740923
0.226918871	0.227453554	0.825471043	0.606917672	0.579904831	0.11883422
4.87601E-06	4.81212E-06	0.882082253	0.699251119	0.69961571	0.175329524
0.027780831	0.02740891	0.028029229	0.695291834	0.69483585	0.695434277
0.475967984	0.41352669	0.877338739	0.608904458	0.569599919	0.17061859
0.86386574	0.857048393	0.130355504	0.155150009	0.156916405	0.586548632
0.445339516	0.877646317	0.437915927	0.562355494	0.170518092	0.592037373
0.473064027	0.403688314	0.876640017	0.625882175	0.586022579	0.170469342
0.450263059	0.426838017	0.877115675	0.62662874	0.592950563	0.170413585
0.149758121	0.133561774	0.826448475	0.603319143	0.575348148	0.119347871
0.142550815	0.82610907	0.148869539	0.576296153	0.119158002	0.605710326
0.864502038	0.856844366	0.123139258	0.155775008	0.156557383	0.588499148
0.845973324	0.147495744	0.859980708	0.150241722	0.562813659	0.152696332
0.877443496	0.462768512	0.420753392	0.170637493	0.609522902	0.572978083
0.132786688	0.825566296	0.149438176	0.574827147	0.118937188	0.603886572
0.882079735	0.027640442	0.027468508	0.175581297	0.694426566	0.69484082
0.06695405	0.078582218	0.854673736	0.654003227	0.633774291	0.14902683
0.869131181	0.079988895	0.077379916	0.162565818	0.674375781	0.663115055
0.058491047	0.038630248	0.077059114	0.679889094	0.679027802	0.680307508
0.239533108	0.239101567	0.825197602	0.611118888	0.581745399	0.118359812
0.040337987	0.046509888	0.074239653	0.677755114	0.677056307	0.67936791
0.092956974	0.080034759	0.869413559	0.66805693	0.657014598	0.162661566
0.868800824	0.08400761	0.075751708	0.162661504	0.673073674	0.661664608
0.841524079	0.133803519	0.862548981	0.148033836	0.567672622	0.15507356
0.415479272	0.877493367	0.462041447	0.589833011	0.170515787	0.626053177
0.872145426	0.874303259	0.047246446	0.165070536	0.168170351	0.656980303
0.826704169	0.190217839	0.189235071	0.119014608	0.613231687	0.58167991
0.866833551	0.095526344	0.866862964	0.162307009	0.617417069	0.159347859
0.872022355	0.875943042	0.065177333	0.16509792	0.169447283	0.652782834
0.436016562	0.877438369	0.448132887	0.542687792	0.170603018	0.575493952
0.08772428	0.079248005	0.868626343	0.672870001	0.661847676	0.162777984
0.41558268	0.877241689	0.469826462	0.535946602	0.170512141	0.575167831
0.8550807	0.111467431	0.864503952	0.155424739	0.59213824	0.156817874
0.153946425	0.859709503	0.846653357	0.560775997	0.15235337	0.151486766
0.87575912	0.075991556	0.871352426	0.168838987	0.650468221	0.164383463
0.882834243	0.013706573	0.876017689	0.174922886	0.697332713	0.170412604
0.87488736	0.04719171	0.871948623	0.168506437	0.656916591	0.164873422
0.095577522	0.867068471	0.866392822	0.617422338	0.159531946	0.162564085
0.868861119	0.075524008	0.078680542	0.162527043	0.676641959	0.664500919
0.874273788	0.076034314	0.870908564	0.168404876	0.65052524	0.164792173
0.877699784	0.480940278	0.401721107	0.170941722	0.59032499	0.547972795
0.883064629	0.054273608	0.876447203	0.175028927	0.69048773	0.170933672
0.860588344	0.844603133	0.137246425	0.154253536	0.149003567	0.566213648
0.87505485	0.055372879	0.871918267	0.16854487	0.654866919	0.164329847
0.877377988	0.450395052	0.426968455	0.170469613	0.626359436	0.593236458
0.074636751	0.856106059	0.091415483	0.625516485	0.149745628	0.645949882
0.864197353	0.856107309	0.123115044	0.155384229	0.15626284	0.588626275
0.462110133	0.415553284	0.877636331	0.62606571	0.589577441	0.170588811
0.877672393	0.877860645	0.878584461	0.170715249	0.171004728	0.170964363
0.439013407	0.878057534	0.439018092	0.596286511	0.170961931	0.626604737
0.447448378	0.8773259	0.4442946	0.577073464	0.170559627	0.607352821
0.081613521	0.869214501	0.099407771	0.657074471	0.162659371	0.669517071
0.883254381	0.013707977	0.876203514	0.174987475	0.697412712	0.17041852
0.410102029	0.877375698	0.480800169	0.517484892	0.170441335	0.55946111
0.876340818	0.88410669	0.054282872	0.17133865	0.175833915	0.690633194
0.84625585	0.147482627	0.860159628	0.150803852	0.562799163	0.153127633
0.877292627	0.440342216	0.44404749	0.170516205	0.608050118	0.577724063
0.111521422	0.863624892	0.854380193	0.592034408	0.155874592	0.155114535
0.081148789	0.869234111	0.09341749	0.658313691	0.162550928	0.670575269
0.877421482	0.473891623	0.410054618	0.170541267	0.609305734	0.569436394
0.087836188	0.866936911	0.866317329	0.619422257	0.159682972	0.162428698
0.137253338	0.861948605	0.845184153	0.566244833	0.154348998	0.149102159
0.137186299	0.861741304	0.844313038	0.566122054	0.154624189	0.149075115
0.06249653	0.062483639	0.062494324	0.638290814	0.63848318	0.638504553
0.876170739	0.882468302	0.040860261	0.170532406	0.175146809	0.693128436
0.081816601	0.8673536	0.865298869	0.621299244	0.159994822	0.161600996
0.877395918	0.448011907	0.432920679	0.170738566	0.59064391	0.557687188
0.855412003	0.102776128	0.078687065	0.149273929	0.643441383	0.623679029
0.06759349	0.067722354	0.067855574	0.636165876	0.636263592	0.636824232
0.124663471	0.103281224	0.841798772	0.624125979	0.598636983	0.135232014
0.141409645	0.825064032	0.150897089	0.57476001	0.118792948	0.601675575
0.103077429	0.09911094	0.841579156	0.627707774	0.602462617	0.13500693
0.437053886	0.446298827	0.877284589	0.575713687	0.545996874	0.170577508
0.047164551	0.871500472	0.874174074	0.656871397	0.164575706	0.168170432
0.104115063	0.866186963	0.866523685	0.615393442	0.159104843	0.162906207
0.0834001	0.102211307	0.84181434	0.631196933	0.605782777	0.134714454
0.881462438	0.027691854	0.027695242	0.175377892	0.694817136	0.69534907
0.877326341	0.459020317	0.425558473	0.170600837	0.575692629	0.539643165
0.863258551	0.856727515	0.130368164	0.155106717	0.156826166	0.586512127
0.139470872	0.131526771	0.826339644	0.605862803	0.577303304	0.119243457
0.841609121	0.124713921	0.103638824	0.13531679	0.622957787	0.598032871
0.444547268	0.877406494	0.438594491	0.562892705	0.170495653	0.592587747
0.841463227	0.102868607	0.099107579	0.13499513	0.62782482	0.602818169
0.113780257	0.100249896	0.841847588	0.626007251	0.600586661	0.135010883
0.410363233	0.877908307	0.481063052	0.517398662	0.170874398	0.559521357
0.856180867	0.111436783	0.864650715	0.154938055	0.592091444	0.155752343
0.079721212	0.071546898	0.855123529	0.647828739	0.627410559	0.148973595
0.841345498	0.083370311	0.102220632	0.134802586	0.631356536	0.60622869
0.139687289	0.131338719	0.825610507	0.60616201	0.577338177	0.118938361
0.874530403	0.047243371	0.870702197	0.168537893	0.656845788	0.164429357
0.099751035	0.08125085	0.869046489	0.6671938	0.656662555	0.162594096
0.877384989	0.46984253	0.415538053	0.17059417	0.575604824	0.536332669
0.44577526	0.877355022	0.445430364	0.576702074	0.170544988	0.607060137
4.9171E-06	4.74796E-06	0.88172728	0.699337707	0.69911434	0.175357827
0.874396448	0.051303605	0.871832666	0.16833723	0.659095174	0.165035225
0.082663669	0.869004119	0.084003817	0.66095374	0.162536034	0.672982194
0.866880686	0.866076658	0.081768455	0.159510464	0.161865514	0.621434219
0.877328399	0.437064183	0.446331541	0.170587494	0.575729897	0.546074209
0.099421291	0.841925487	0.10324495	0.602321817	0.134908308	0.627729956
0.85651172	0.116695523	0.864518089	0.155867629	0.59037239	0.155946527
0.215866827	0.82612466	0.21520979	0.578950906	0.119162853	0.60892181
0.432570566	0.877604412	0.448231254	0.558396989	0.170460439	0.591014204
0.438777689	0.438772939	0.87757684	0.626709134	0.596326362	0.170521075
0.1042294	0.867103472	0.867338194	0.615482146	0.159262471	0.162969009
0.844829283	0.147509836	0.858948001	0.150240504	0.562723865	0.152648085
0.041807177	0.040997794	0.041848886	0.693030006	0.692971422	0.693689286
0.877262939	0.440899678	0.443470055	0.170628465	0.608601922	0.578017331
0.087180094	0.868565416	0.084101837	0.664514601	0.162572749	0.677257931
0.06005014	0.060040927	0.059939218	0.639834485	0.640168077	0.63994097
0.410334929	0.877679743	0.480879689	0.517468494	0.17056087	0.559455646
0.153941937	0.860102651	0.84699557	0.560901748	0.15284578	0.15198642
0.855739317	0.079510511	0.071800698	0.149084001	0.647969699	0.627449776
0.878016585	0.470451499	0.420084315	0.170937593	0.559678852	0.521083588
0.448334653	0.439226303	0.876626225	0.559660241	0.527773125	0.170425289
0.864558793	0.856353417	0.123141509	0.155262056	0.15610836	0.588593188
0.874701674	0.047199102	0.872135913	0.168376384	0.656965199	0.164783757
0.082349373	0.289005982	0.271572071	0.620370233	0.619323036	0.616563506
0.085888571	0.869144881	0.082628977	0.665418377	0.162530416	0.677435544
0.419776181	0.877544061	0.470278883	0.520889686	0.170653669	0.559684285
0.826619029	0.263212724	0.282949104	0.118717737	0.610411729	0.583707598
0.113742277	0.100088429	0.841996385	0.625823309	0.600790428	0.135201092
0.85572453	0.066463905	0.079136047	0.148621334	0.652382511	0.631752836
0.100382963	0.841300714	0.113656055	0.600690609	0.135111391	0.625764303
0.868739222	0.084762687	0.076616063	0.162676894	0.672357763	0.661295242
5.49098E-06	0.875637591	0.884139908	0.6992859	0.170203491	0.175741206
0.013778199	0.014085552	0.013949214	0.697162126	0.697152491	0.69749559
0.465733167	0.424683842	0.87739405	0.608793657	0.572154002	0.170586587
0.47620603	0.412972629	0.877340598	0.610630223	0.57085857	0.170536815
0.439870012	0.877971807	0.449012014	0.527501009	0.170703861	0.559899282
0.25664904	0.263381095	0.825741727	0.61305706	0.58341242	0.118626151
0.410138953	0.877462998	0.480844545	0.517504439	0.170387118	0.559510648
0.855670254	0.065254094	0.079040059	0.148992015	0.652629802	0.63136695
0.210831848	0.826018136	0.211127579	0.581413921	0.118866986	0.609981675
0.825975345	0.188359049	0.192859447	0.118517328	0.613071145	0.580509773
0.871859385	0.874766324	0.055324132	0.164953978	0.168614683	0.654806557
0.393162784	0.877919405	0.48500887	0.582639839	0.170831166	0.625176427
0.437784228	0.444783915	0.877338075	0.592715743	0.563191554	0.170333886
0.872923176	0.876212871	0.075956715	0.164932378	0.169024225	0.65050722
0.047146882	0.871589789	0.87508149	0.656976498	0.164493876	0.168112584
0.874313373	0.055388543	0.87302256	0.168645035	0.655128882	0.164779704
0.475733592	0.413563408	0.877475159	0.608346371	0.569019264	0.170610774
0.866387014	0.8663003	0.104349371	0.15896234	0.162462282	0.615187322
0.01370573	0.875990819	0.883884773	0.69721966	0.17081954	0.175566845
0.868833747	0.075880153	0.078867612	0.162521408	0.676424102	0.664420588
0.480603827	0.406154915	0.87753401	0.574783518	0.532292302	0.170546516
0.140183095	0.131125163	0.826010199	0.606083435	0.577339443	0.119225751
0.877219335	0.450315122	0.426889444	0.170593663	0.626390931	0.593168357
0.881341669	0.041217989	0.040789378	0.175357065	0.692554203	0.692967116
0.758393896	0.757550358	0.756447576	0.383912132	0.383416563	0.382580193
0.260215259	0.255114887	0.825345025	0.612045788	0.582814125	0.118614852
0.860093675	0.844810833	0.137278501	0.15409473	0.148834418	0.566209521
0.87733215	0.451000333	0.432025391	0.170488059	0.608741419	0.575262208
0.865563901	0.081509262	0.867532198	0.161427274	0.621119601	0.15976026
0.054552653	0.055183883	0.055084424	0.690357108	0.69005219	0.690321888
0.280073161	0.292553399	0.825663704	0.613533921	0.583252326	0.118694327
0.111370212	0.864792459	0.854711374	0.592048698	0.156249819	0.155228347
0.054260259	0.881605125	0.054649316	0.690506169	0.1753428	0.68997784
0.459008475	0.421980386	0.877432347	0.590783177	0.555093031	0.170453097
0.04085232	0.875872385	0.882830336	0.693001237	0.170604896	0.175505819
0.437106828	0.446369319	0.877408178	0.575775093	0.546051981	0.170610295
0.230017753	0.238107325	0.825781562	0.61137388	0.582170892	0.118872728
0.873276751	0.876092408	0.047459589	0.165338529	0.169146515	0.657147971
0.05428943	0.88156449	0.054645407	0.690424435	0.175348152	0.689994715
0.877383442	0.469795609	0.415576746	0.170566334	0.575398509	0.53611351
0.856262335	0.079474118	0.071869948	0.149150185	0.647934672	0.627253548
0.876183031	0.883608532	0.027321934	0.170432635	0.175724137	0.695090725
0.875512337	0.065231083	0.871320602	0.168678554	0.652795426	0.164278242
0.469937323	0.415586877	0.877284366	0.575163604	0.535942948	0.170534043
0.843188886	0.133784647	0.86160148	0.147632533	0.567796744	0.154606121
0.102163766	0.841620683	0.083406864	0.605874776	0.134784019	0.630716271
0.87466064	0.047231163	0.871348042	0.168200619	0.65705906	0.164635781
0.855581802	0.107518458	0.865637471	0.154877448	0.593983858	0.15700254
0.054272026	0.876268968	0.882801644	0.690459164	0.170891233	0.174731109
0.856634628	0.123132443	0.863806088	0.15652063	0.58856907	0.155541523
0.074855364	0.074914962	0.075090324	0.634147862	0.63438691	0.634424236
0.438984448	0.444143127	0.877650371	0.592993281	0.563373895	0.170575748
0.876532883	0.883117388	0.013706198	0.170809238	0.175617565	0.697305007
0.099512503	0.080866688	0.868976131	0.667466021	0.657036675	0.162565623
0.446468545	0.877357409	0.443632615	0.5770384	0.170573399	0.607951687
0.103244324	0.078830441	0.856261052	0.643373929	0.623584593	0.149666102
0.868600064	0.865979002	0.077144814	0.160059378	0.161350514	0.623236872
0.859142493	0.846187061	0.153958384	0.151541319	0.150923537	0.560856092
0.826082104	0.191465866	0.193755157	0.118913637	0.611517092	0.5816673
0.86891387	0.090130453	0.076009455	0.162711353	0.671517409	0.659233687
0.079681511	0.071527594	0.855638312	0.647692398	0.627658814	0.149207325
0.872140709	0.87426684	0.047555253	0.165271045	0.168448601	0.658871443
0.574275447	0.877371914	0.539397394	0.538661084	0.170571409	0.566187965
0.872317403	0.875271722	0.065196906	0.165265521	0.168965492	0.652846606
0.130854859	0.825973903	0.149674595	0.576238767	0.118934971	0.60404883
0.875803821	0.883290336	0.013707254	0.170385397	0.17531509	0.697343494
0.154568444	0.143774749	0.094395101	0.616788865	0.616296183	0.615175114
0.877485137	0.480620407	0.405655251	0.170569922	0.575396169	0.532902851
0.079654734	0.868943722	0.088926358	0.661201804	0.162628983	0.670818082
0.045740927	0.048149013	0.054175553	0.655567879	0.657090902	0.656736285
0.496917315	0.512356699	0.87747195	0.559584428	0.531393799	0.170613508
0.092226368	0.079393615	0.869018511	0.667800087	0.657134033	0.162632602
0.435949446	0.877393155	0.448113681	0.542740926	0.170570672	0.57563729
0.437106888	0.44636951	0.877408433	0.575775018	0.546052125	0.170610236
0.123109625	0.863246378	0.857143796	0.58834588	0.15548478	0.156648413
0.841695857	0.102934275	0.098965171	0.135024647	0.628086154	0.602730303
0.027512032	0.881956606	0.027631579	0.694940994	0.175237971	0.695300082
0.014208345	0.88110991	0.014532828	0.697222166	0.175308526	0.697672496
0.845862351	0.846925435	0.845630202	0.255825491	0.256713016	0.256737878
0.877280562	0.448089274	0.435793802	0.170592734	0.575681233	0.542800585
0.856735627	0.130440707	0.862901426	0.156785618	0.586481215	0.154562635
0.877534967	0.462065199	0.415496495	0.170756506	0.626240423	0.589644415
0.411674518	0.877646264	0.470060784	0.551409143	0.170733068	0.590647183
0.454897	0.435871386	0.877360827	0.609697584	0.576445507	0.170594948
0.435820256	0.877257881	0.448083599	0.542872115	0.170511604	0.575822013
0.480803601	0.410061615	0.877339859	0.559238763	0.51766026	0.170416932
0.095459589	0.866272627	0.866073603	0.617523902	0.158900312	0.162030411
0.877376589	0.448091377	0.435858062	0.170624934	0.575749523	0.542887108
0.86740089	0.865722333	0.082041866	0.159828629	0.161518562	0.620936836
0.881629854	4.84832E-06	4.86432E-06	0.175405384	0.699154644	0.699316267
0.841930966	0.092712735	0.099668401	0.134787307	0.629639999	0.60439194
0.070721447	0.065141011	0.085724151	0.670225221	0.670629217	0.6718825
0.131444356	0.825967624	0.149526447	0.576042785	0.118948347	0.60418129
0.435062735	0.877342715	0.454881475	0.574026292	0.170539235	0.607697545
0.055374813	0.871410213	0.874512736	0.655019884	0.164890194	0.168902984
0.062434642	0.062493015	0.06241186	0.638262537	0.638296883	0.638594516
0.074811365	0.07497563	0.075164712	0.634209605	0.634355423	0.634488325
0.846362461	0.147445792	0.858818596	0.150321614	0.562651635	0.152730976
0.446693844	0.877348564	0.444352317	0.576465845	0.170554699	0.606936468
0.279519415	0.282663963	0.825733283	0.614631224	0.584664575	0.118736476
0.872558262	0.874176197	0.055326655	0.165388739	0.168630731	0.654684603
0.865829114	0.077138629	0.867985708	0.161591259	0.623258929	0.160335072
0.877635595	0.459673981	0.429597271	0.170629	0.559632585	0.524557986
0.877607523	0.470358403	0.419754425	0.170809821	0.559661471	0.520963267
0.877245047	0.483519001	0.400255018	0.17052165	0.608311138	0.565661708
0.045348726	0.872799216	0.875216194	0.659170245	0.165555318	0.168713613
0.438870246	0.877771532	0.438874969	0.596463252	0.170563543	0.626587001
0.401221104	0.876972699	0.480505741	0.548588553	0.17002888	0.590487229
0.059592039	0.064472844	0.062964215	0.652027823	0.651711127	0.652072584
0.877445034	0.462021224	0.415450625	0.170742795	0.626297732	0.589682301
0.84791169	0.846440221	0.847631364	0.257795274	0.257056579	0.257449215
0.123087052	0.864033385	0.856990618	0.588457057	0.155736867	0.156957311
0.099399988	0.841915498	0.103252522	0.602277837	0.134908497	0.62773208
0.415469734	0.877475471	0.46203301	0.589833647	0.170525469	0.626053827
0.86681389	0.087829007	0.867355585	0.162096496	0.61955896	0.159520321
0.866255577	0.087734643	0.867673044	0.162112897	0.619312159	0.159602492
0.880809915	0.054439629	0.054164805	0.175111443	0.690047424	0.690269219
0.039710493	0.04667368	0.073655103	0.677035085	0.676723813	0.67726733
0.422447543	0.878161968	0.459360565	0.554995965	0.170373615	0.590576771
0.075968559	0.87174281	0.874962118	0.650521187	0.164498147	0.168493883
0.095574466	0.866521198	0.86677592	0.617452469	0.158973317	0.162307807
0.08140979	0.869030874	0.098653932	0.656160706	0.162656065	0.668796795
0.855859469	0.130476169	0.861612697	0.156573355	0.586468559	0.154407346
0.215591182	0.825518159	0.209721975	0.577869232	0.118794178	0.605969721
0.102969647	0.07884127	0.85557086	0.643499316	0.623562095	0.149212356
0.44629994	0.877286014	0.43705175	0.546059305	0.170537205	0.575732982
0.068868109	0.071224908	0.855200872	0.649975389	0.629535906	0.148781331
0.087693713	0.86731829	0.865747827	0.619933273	0.159664123	0.162000993
0.448142631	0.435913612	0.877414724	0.575825414	0.542885128	0.17055207
0.123718179	0.111774682	0.149505943	0.615735958	0.613434289	0.615018929
0.841218209	0.083325545	0.102217432	0.134842564	0.631177482	0.605930959
0.869067863	0.089981954	0.075972432	0.162692183	0.67154931	0.659565868
0.054553296	0.055355127	0.054919477	0.690250156	0.690092002	0.69036638
0.062532117	0.06248079	0.062468378	0.63840403	0.638420859	0.638521312
0.143127779	0.826084914	0.14944869	0.576259179	0.11915308	0.605702998
0.856795839	0.123126442	0.863731967	0.156555125	0.588558792	0.155561024
0.480593981	0.401314253	0.877225191	0.590271571	0.547920951	0.170470537
0.863098251	0.856849701	0.130390436	0.154899941	0.156911377	0.586384595
0.86535729	0.077184817	0.867246966	0.161372723	0.622881895	0.160346074
0.137141523	0.861574099	0.8437247	0.566092295	0.154297756	0.148792854
0.877388287	0.483690462	0.400180625	0.170612397	0.6086401	0.56606427
0.855506978	0.091105308	0.07419791	0.149320361	0.645792649	0.625623993
0.48076878	0.401474455	0.87755828	0.590035194	0.548257802	0.170414558
0.29761649	0.826003476	0.295987768	0.591694776	0.118843989	0.617586232
0.099251297	0.841925068	0.103092548	0.602316494	0.134899653	0.627716734
0.401633214	0.87764452	0.480749653	0.548241601	0.170453254	0.5899297
0.425575117	0.877193804	0.459018585	0.539492345	0.170523952	0.575594472
0.054534877	0.054830296	0.055041269	0.690165852	0.690303892	0.690234089
0.866952084	0.866488119	0.088347286	0.159490758	0.161982788	0.619347803
0.092667082	0.099550467	0.841451722	0.629563332	0.604516965	0.134822156
0.08109089	0.266248179	0.254561656	0.620216101	0.621983029	0.62335929
0.877307921	0.470423206	0.41180235	0.170403626	0.590699612	0.551657291
0.111447745	0.864139541	0.855423899	0.592104981	0.15583826	0.155072409
0.873391257	0.055344117	0.870980385	0.168025675	0.654886322	0.164498458
0.055371098	0.870991637	0.874678234	0.654944382	0.164772536	0.168631168
0.054281223	0.876178467	0.883858029	0.690595873	0.170965062	0.17563919
0.041155835	0.040963609	0.880908177	0.692640803	0.693104304	0.174947618
0.883570457	5.50007E-06	0.874994794	0.17562818	0.699408857	0.170715714
0.111412406	0.864105608	0.855797334	0.592067627	0.156320707	0.155234283
0.082478298	0.868940944	0.08368883	0.663574732	0.162497266	0.677167995
0.874488313	0.047172723	0.871945664	0.168512828	0.656900915	0.164878601
0.8559903	0.116691167	0.863528803	0.155882457	0.590402051	0.155938275
0.872430556	0.874470821	0.075942861	0.164525269	0.168398955	0.650432368
0.855072425	0.107510244	0.865299113	0.154945343	0.593712656	0.156965262
0.860096148	0.84477829	0.137288856	0.153944856	0.148682441	0.566209709
0.059442884	0.063779353	0.062795264	0.652231881	0.65276086	0.652031319
0.884726931	0.040855643	0.875641036	0.175349449	0.693028617	0.17009939
0.872362591	0.87372789	0.047368592	0.165763065	0.168655073	0.656863446
0.841787811	0.092721659	0.099729253	0.134808833	0.629660737	0.604279702
0.414816245	0.877359879	0.474475002	0.569648551	0.170536811	0.608833039
0.866494953	0.865666836	0.104012561	0.159292454	0.162504431	0.615207969
0.498569121	0.518977763	0.877358271	0.559501037	0.531088185	0.17064181
0.392923152	0.87743141	0.484760508	0.582370895	0.170675579	0.625378496
0.437094231	0.446338	0.877364314	0.575743281	0.546039276	0.170600649
0.124713571	0.11291733	0.150171235	0.616428285	0.61507816	0.615798658
0.882119267	4.84058E-06	4.87686E-06	0.175442695	0.6993392	0.699232917
0.245571327	0.243320379	0.826220761	0.607113147	0.580705388	0.119014335
0.470293948	0.419810529	0.877590716	0.559599525	0.520943643	0.170581591
0.443973632	0.446520576	0.877368699	0.608248784	0.577663425	0.17057887
0.014600069	0.014463724	0.882145692	0.696909402	0.69706654	0.175747113
0.857051163	0.130438711	0.862844887	0.156820293	0.586479452	0.154616951
0.054291378	0.881786938	0.054616901	0.690922324	0.175529618	0.690427703
0.84675761	0.147473436	0.859742529	0.150287351	0.562776207	0.152421107
0.882622606	0.027563566	0.027415366	0.175409458	0.694908257	0.694812402
0.130481289	0.86300611	0.85729139	0.586612965	0.155149744	0.157283253
0.083419127	0.102157291	0.841545862	0.630764265	0.605918468	0.134732331
0.123091492	0.863403884	0.856488226	0.588453786	0.155093109	0.156291716
0.855214175	0.107536119	0.865324737	0.154959374	0.593721397	0.15698748
0.140208151	0.134021776	0.825506215	0.605764227	0.577575814	0.118755789
0.09181832	0.074424557	0.85683639	0.645446544	0.625702297	0.149923181
0.084066643	0.868566154	0.085414988	0.662357486	0.162581273	0.676909494
0.846193835	0.147491618	0.86063594	0.150935015	0.562832769	0.153234113
0.862431999	0.844121377	0.133718348	0.154849618	0.147813119	0.567802425
0.877320872	0.480667873	0.401664254	0.170528652	0.590058688	0.548391386
0.877316004	0.459022676	0.425550562	0.170591076	0.575629429	0.539605817
0.878064589	0.485084884	0.393230674	0.170789635	0.625203013	0.582620703
0.85934089	0.845825173	0.153942343	0.151592897	0.150766802	0.561019166
0.871935348	0.87458317	0.055330859	0.164970868	0.168614083	0.654846496
0.123103161	0.86286716	0.855725377	0.58847036	0.155067186	0.156251879
0.864073571	0.856046003	0.123142174	0.155827416	0.156629426	0.588402362
0.055351402	0.872878616	0.87398185	0.654788594	0.165401043	0.168840091
0.14644987	0.131332493	0.825219637	0.602140109	0.573081922	0.119431566
0.876038916	0.883477072	0.054274294	0.171008749	0.175602901	0.690512664
0.874825773	0.049040883	0.872875657	0.168329957	0.659046782	0.165474165
0.758654357	0.757717681	0.758815431	0.38420551	0.383043935	0.383052891
0.088026482	0.867485106	0.865956083	0.619245263	0.1597471	0.161940685
0.10407754	0.867135958	0.866779613	0.61574791	0.159267199	0.162884725
0.469906573	0.415674704	0.877426428	0.575424926	0.536281762	0.170568715
0.095663169	0.867507506	0.866431397	0.617539514	0.159488656	0.162264197
0.056122851	0.044706655	0.074888951	0.674353198	0.674653513	0.675770252
0.137253456	0.862582231	0.845643681	0.566295962	0.154344438	0.149192588
0.459155195	0.422025442	0.87760943	0.590918642	0.554966762	0.170867624
0.882911704	0.054275021	0.875876696	0.174958145	0.69051774	0.170596229
0.424230654	0.877384473	0.465158269	0.573170022	0.170546104	0.609859608
0.131915365	0.826003829	0.149762496	0.576192057	0.118942285	0.604101653
0.0798423	0.869057909	0.088777981	0.664330331	0.162632611	0.674069976
0.103557181	0.841801993	0.125143347	0.598675157	0.135403129	0.623545116
0.438870742	0.43886607	0.877763114	0.626645619	0.596304693	0.170725931
0.877368846	0.451182759	0.431791213	0.170511001	0.608785159	0.575368183
0.855696509	0.10757921	0.864981523	0.155266146	0.593725347	0.157082677
0.279675982	0.300833271	0.825786541	0.613770159	0.583885863	0.118711182
0.865730423	0.087709151	0.866803143	0.161862291	0.619341887	0.159304014
0.446357276	0.877371872	0.437080884	0.546087615	0.170600227	0.575723703
0.105895117	0.1274143	0.177627623	0.616995922	0.618847398	0.61740021
0.458838071	0.421757523	0.877036303	0.590949835	0.555025718	0.170307072
0.877300484	0.438639576	0.438634832	0.170318099	0.626574931	0.596423558
4.86603E-06	4.83226E-06	0.881930422	0.699230921	0.699386501	0.17537308
0.443595546	0.447781078	0.87732387	0.607551173	0.578194189	0.170588908
0.47313535	0.403774008	0.876796915	0.625735099	0.586019361	0.170410381
0.435959453	0.877434751	0.448148901	0.542696971	0.170633069	0.575585635
0.130423443	0.863570816	0.857470669	0.586292123	0.155126406	0.157419229
0.874863046	0.065249378	0.871301666	0.168658114	0.65269266	0.164851914
0.87238213	0.875824332	0.075943701	0.164777767	0.169240898	0.650533636
0.419626817	0.877412682	0.470289295	0.521039614	0.170634937	0.559661418
0.286232234	0.297880043	0.825562286	0.616211256	0.588360283	0.118716972
0.432802346	0.87770535	0.448108693	0.558281632	0.17082886	0.591380573
0.42552945	0.877217824	0.459083788	0.539481818	0.17053224	0.575563856
0.014563537	0.880888355	0.014615474	0.697296353	0.175339082	0.696818344
0.475135128	0.414115379	0.877343865	0.609074314	0.569772288	0.170620562
0.402789211	0.877408523	0.48557128	0.564933572	0.170518021	0.607566652
0.444745121	0.877346103	0.438321017	0.562829776	0.170437712	0.59259344
0.060041027	0.060039263	0.059921694	0.639824071	0.640181631	0.639942825
0.099684685	0.841627986	0.092676738	0.604578453	0.134852112	0.629783937
0.140878922	0.131002853	0.824481045	0.60468068	0.57748143	0.118843151
0.08304001	0.868922602	0.084780034	0.660939694	0.162527796	0.672981275
0.87749123	0.480645126	0.405701554	0.170577969	0.575277956	0.532903759
0.841354628	0.102910737	0.099023925	0.134981021	0.627646725	0.602667963
0.074787618	0.856488429	0.091284987	0.625720692	0.149961179	0.645575647
0.104047636	0.867100078	0.866664472	0.615543113	0.159450631	0.162976408
0.883697748	0.040851203	0.876431816	0.175073396	0.692898941	0.170774107
0.439666257	0.877571563	0.448822028	0.527486119	0.170756437	0.559986869
0.877790315	0.437484485	0.444456075	0.170675283	0.591268697	0.561600144
0.424373747	0.877404445	0.465146931	0.573179869	0.17054642	0.609863869
0.877227394	0.470306569	0.41181089	0.17038592	0.59065935	0.551627508
0.480793169	0.401511162	0.877626436	0.590158756	0.548110177	0.170474902
0.410308863	0.877794772	0.48100982	0.51751331	0.170825187	0.559487567
0.857338097	0.130442904	0.86283062	0.156800122	0.58645403	0.154567848
0.133723544	0.862135619	0.84413699	0.567732474	0.155240625	0.148235779
0.841876424	0.092729121	0.099618423	0.134789195	0.629677501	0.604353027
0.438969662	0.438964912	0.877960974	0.626640237	0.596308005	0.170732177
0.856094613	0.116695999	0.863967207	0.155857617	0.590377319	0.155947086
0.475791923	0.413862639	0.877393682	0.60895049	0.568527392	0.170567079
0.877398636	0.450703963	0.432504605	0.170565985	0.60976139	0.576346544
0.876247858	0.883754771	0.054276496	0.171064696	0.175596773	0.69054576
0.881480864	0.054659971	0.054153712	0.175537506	0.690317587	0.690286767
0.068844714	0.071291609	0.855560916	0.650102225	0.62938871	0.149047111
0.868931579	0.08097994	0.077960183	0.162632566	0.67249795	0.661581971
0.841345416	0.083371771	0.102218819	0.134793533	0.631361158	0.606218225
0.099151592	0.841865061	0.103147368	0.602329529	0.134896385	0.627677392
0.060074769	0.060004214	0.059928141	0.639766241	0.640446049	0.639931188
0.411756865	0.877823919	0.47014345	0.551603201	0.17038015	0.590509978
0.874958681	0.049215502	0.872978332	0.168338719	0.659102817	0.165417834
0.424351397	0.87737257	0.464546284	0.57273173	0.170572648	0.609477195
0.877765631	0.450589078	0.427162094	0.170577324	0.626409077	0.59326398
0.438750095	0.438745396	0.87752177	0.626665566	0.596309808	0.170655969
0.84178328	0.113874304	0.100443962	0.135149332	0.626211834	0.600786476
0.14129417	0.826690732	0.151568147	0.576227623	0.118876704	0.60317078
0.876650092	0.883345692	0.040860509	0.170789723	0.175885598	0.693142451
0.081982381	0.856080913	0.068519415	0.631819331	0.149034437	0.652787128
0.091645098	0.074266838	0.856327557	0.64536024	0.625774675	0.149793366
0.44474125	0.877351515	0.438144164	0.562833078	0.17043946	0.59260229
0.070266217	0.071585504	0.074054147	0.649796727	0.650253381	0.65050503
0.077075971	0.867553936	0.864462726	0.623178978	0.160115449	0.161149555
0.865323147	0.081542796	0.867500655	0.161675995	0.621043676	0.160009016
0.092628529	0.08045666	0.869081735	0.667826741	0.656866378	0.162713259
0.877283296	0.438630979	0.438626236	0.17032435	0.626573871	0.596417339
0.863600151	0.85647011	0.123136733	0.155722713	0.156482149	0.588452183
0.84529508	0.14181065	0.861279074	0.149700372	0.564665555	0.153689689
0.877473424	0.480837806	0.410166463	0.170443574	0.559328531	0.517587116
0.014363476	0.880681768	0.014216683	0.69726665	0.175300865	0.697059113
0.078613989	0.868816761	0.087814456	0.66376811	0.162663659	0.674600082
0.883854764	0.027330403	0.876480439	0.175696413	0.695317607	0.170956538
0.863600151	0.85647011	0.123136733	0.155722713	0.156482149	0.588452183
0.868963373	0.083341612	0.07576251	0.162679709	0.674410041	0.661049447
2.77528E-06	2.94133E-06	2.87065E-06	0.699301657	0.698820301	0.698686577
0.877344261	0.459021436	0.42558466	0.170598598	0.57568961	0.539651729
0.12787348	0.111988109	0.149739592	0.615319887	0.613712315	0.615770591
0.863954862	0.856371192	0.123126701	0.155304695	0.15618203	0.588620054
0.473480381	0.404101373	0.87747001	0.625876814	0.586048347	0.170540277
0.486759551	0.401540767	0.877314438	0.607666138	0.564797202	0.170477495
0.091664553	0.074320413	0.854876892	0.64535709	0.625618681	0.148878586
0.087688616	0.867134007	0.866633629	0.619512945	0.159548292	0.162431253
0.877490353	0.480495872	0.405828562	0.170552932	0.575122498	0.532776888
0.429477661	0.877291746	0.45946284	0.524400885	0.170587062	0.559737696
0.404018679	0.877316994	0.473409751	0.586251262	0.170741001	0.625793931
0.133720718	0.861954128	0.843872727	0.567815507	0.155242372	0.148219003
0.131695165	0.825968514	0.149648351	0.576072883	0.118948996	0.604166308
0.111375225	0.864770276	0.855058264	0.592016827	0.156217339	0.155210114
0.875406661	0.883708743	0.054273345	0.170856127	0.175657966	0.690470569
0.411465997	0.87731143	0.469937133	0.551480579	0.170490284	0.590637307
0.013738383	0.014115543	0.014007051	0.697058753	0.696738634	0.696332725
0.877956671	0.43829747	0.443793718	0.170661758	0.591155232	0.561539082
0.103891723	0.866548672	0.866536872	0.615417395	0.15901185	0.162811149
0.877376627	0.448091212	0.435858647	0.1706249	0.575748933	0.542887072
0.450342596	0.426913341	0.877270495	0.626405266	0.593236934	0.170390547
0.435035315	0.87746171	0.454734901	0.574217878	0.170569079	0.607711391
0.859415453	0.845881479	0.153942293	0.151758824	0.150941378	0.560988642
0.124457652	0.113703936	0.14812431	0.616734757	0.614330937	0.615774688
0.087652539	0.079195467	0.868738209	0.672382401	0.660117121	0.162641793
0.435898856	0.877312109	0.448074166	0.542880434	0.170516843	0.575826351
0.877278845	0.470147236	0.419650636	0.170659067	0.55975244	0.520967185
0.869093437	0.077103619	0.080580839	0.162565183	0.676759908	0.664402554
0.459548161	0.429562619	0.877469925	0.559865188	0.524447172	0.17076108
0.070196521	0.065619327	0.085900621	0.670338081	0.670937339	0.672372248
0.882847077	0.054280987	0.875576317	0.175017877	0.690582324	0.170779007
0.877375446	0.45903562	0.425601254	0.170602672	0.57570726	0.5396693
0.079886584	0.071455167	0.855783779	0.64771452	0.62752644	0.149356116
0.079790641	0.071477349	0.855635168	0.647648533	0.627703519	0.148938983
0.758461621	0.757380578	0.757714432	0.383940445	0.384086812	0.383681444
0.075971557	0.871795222	0.874546645	0.650549805	0.164590388	0.168558751
0.438693242	0.438688546	0.877408002	0.626591758	0.596275111	0.170730917
0.107696386	0.864749806	0.854526481	0.593873361	0.156891275	0.154429195
0.088013842	0.866848485	0.866976021	0.619420363	0.159561653	0.162132256
0.877561225	0.459213529	0.42225433	0.1703481	0.590892215	0.555064521
0.045483928	0.048858874	0.051969072	0.657182131	0.658385831	0.659067465
0.147982589	0.132240218	0.825626191	0.602013158	0.571806771	0.119144402
0.877329782	0.451009784	0.432012794	0.170487179	0.608747288	0.575260537
0.863836405	0.854565201	0.107703077	0.156282446	0.154240887	0.593782362
0.130474964	0.86362543	0.857300827	0.586599562	0.155248737	0.157357756
0.864229789	0.856147843	0.116578549	0.155800274	0.155750758	0.59044559
0.343589643	0.825286113	0.328935481	0.585661436	0.118466887	0.614271467
0.447820954	0.432529189	0.877209732	0.590783043	0.558449488	0.170227114
0.480416392	0.405870435	0.877269304	0.575050243	0.532554528	0.170526504
0.825852483	0.264488624	0.265381052	0.118869935	0.61205444	0.584581694
0.843929034	0.133772972	0.862327724	0.147770254	0.567840068	0.154933824
0.863299783	0.846262428	0.137240629	0.154442898	0.148953248	0.566219985
0.014327395	0.881087074	0.014153786	0.697480782	0.175520821	0.696673666
0.140762559	0.131200636	0.825211257	0.605372092	0.577648586	0.118673211
0.864092637	0.854641481	0.107735849	0.156222778	0.15426753	0.593730342
0.855815983	0.107577941	0.865643513	0.155321337	0.593767719	0.157104294
0.884044452	0.040852313	0.876914339	0.175106241	0.692944692	0.170699135
0.469940016	0.415657723	0.877326819	0.575353375	0.536160378	0.170551175
0.869099142	0.0812451	0.078243585	0.162560145	0.674194107	0.663026688
0.866433521	0.866818804	0.104348924	0.159191233	0.163006369	0.615613158
0.86889161	0.081120853	0.078023877	0.162637308	0.672412294	0.661647554
0.858303233	0.845192383	0.153945475	0.151588313	0.150796001	0.560980065
5.49629E-06	0.876437819	0.884230382	0.699381609	0.170531005	0.175542952
0.881792517	4.8245E-06	4.87572E-06	0.175528747	0.699193271	0.699153685
4.9202E-06	4.9123E-06	0.881955776	0.699230843	0.699345976	0.175077699
0.104149392	0.86700291	0.866787786	0.615527584	0.159455846	0.16295408
0.066724759	0.079434789	0.85563728	0.653469599	0.633471488	0.148822782
0.085760258	0.868985982	0.082509122	0.66531474	0.16250344	0.677378479
0.055326451	0.873129157	0.873981259	0.654764649	0.164805216	0.168385362
0.875070735	0.055412764	0.871674654	0.168428876	0.654887176	0.164338437
0.882409328	0.041026296	0.040877692	0.17574519	0.692444926	0.692930318
0.446288964	0.877272089	0.437049954	0.546070665	0.170532644	0.575744686
0.082538192	0.855697189	0.068381397	0.63344262	0.148969768	0.653843324
0.103673799	0.841793444	0.125085445	0.598603327	0.135406842	0.623582382
0.410301508	0.87783764	0.481054904	0.517511297	0.170892987	0.559493177
0.883201392	0.054273965	0.87603068	0.175026222	0.690504442	0.170771445
0.435903929	0.87730847	0.448009684	0.542857271	0.170619944	0.575855956
0.062496448	0.062480889	0.062420622	0.638304979	0.638315827	0.638486099
0.128399213	0.321517893	0.224373758	0.622439824	0.622650881	0.620880874
0.410308863	0.877794772	0.48100982	0.51751331	0.170825187	0.559487567
0.069975637	0.051703193	0.082331109	0.673470657	0.672601812	0.6748537
0.066742112	0.079279255	0.855683369	0.65351382	0.633465944	0.148801878
0.054582606	0.055087287	0.054778235	0.690462773	0.690019413	0.690431114
0.459594374	0.429639654	0.877593976	0.559693238	0.524360294	0.170636639
0.825503964	0.136601188	0.127922389	0.118597801	0.606628635	0.577250919
0.10288706	0.07882688	0.855436249	0.643796584	0.623765894	0.149250875
0.404173334	0.877614227	0.473552176	0.586219954	0.17063346	0.625713561
0.447763008	0.43243431	0.877053863	0.590832922	0.558349368	0.170148701
0.573027761	0.877193095	0.543943559	0.537921181	0.170399308	0.564711703
0.040858208	0.875557879	0.883632594	0.693110321	0.170388112	0.17557657
0.877248191	0.470372411	0.411768676	0.170409546	0.590671363	0.551623715
0.87665007	0.883345703	0.040860509	0.17078972	0.175885596	0.693142455
0.065218511	0.871480693	0.874361079	0.652679523	0.1644254	0.168661754
0.099327305	0.841805626	0.103035627	0.602373415	0.134903827	0.627662951
0.028134608	0.028300667	0.881789202	0.694734943	0.694856366	0.175406859
0.059623743	0.064891104	0.063062017	0.652036514	0.651764116	0.652040325
0.067625305	0.067631798	0.067862819	0.636204421	0.636345673	0.636633403
0.103113543	0.099104572	0.841751074	0.627733821	0.602615229	0.134996757
0.855906463	0.11146236	0.865099779	0.155428509	0.592135958	0.1568154
0.86890394	0.092021321	0.07767008	0.162691995	0.671340827	0.659311002
0.124439508	0.298371984	0.206683716	0.623294481	0.626184405	0.621966963
0.856250054	0.130480969	0.861955653	0.156556356	0.58647931	0.154430544
0.425668188	0.87743603	0.459168184	0.539397959	0.17056353	0.575458772
0.013793722	0.014081044	0.013927329	0.6971024	0.697317226	0.69753031
0.877485556	0.480503542	0.405824764	0.170591697	0.575397019	0.532974551
0.095616563	0.866974171	0.866388798	0.617420768	0.159522435	0.162594947
0.062489196	0.062476266	0.062461262	0.638326144	0.638502258	0.638484311
0.415561701	0.877660104	0.462125436	0.589695288	0.170692273	0.626230875
0.045247808	0.872601693	0.874871453	0.659153562	0.165534707	0.168776977
0.059628975	0.063943474	0.062271202	0.652111879	0.651787825	0.652080458
0.87574181	0.883749826	0.05427659	0.170888251	0.175670824	0.690523194
0.4477269	0.432442109	0.877020693	0.590815994	0.558337932	0.170117914
0.153945505	0.859904637	0.846891571	0.560828042	0.15271744	0.151819179
0.153933096	0.860284048	0.846770446	0.560837132	0.152719546	0.151830821
0.883769576	5.50007E-06	0.875511019	0.175667439	0.699407031	0.170724654
0.465932808	0.424025246	0.87724782	0.608487934	0.571851446	0.170565593
0.884479164	5.50033E-06	0.876649256	0.175457511	0.699332468	0.171060384
0.039801691	0.046567662	0.073642802	0.677350865	0.67664221	0.677759762
0.469856719	0.415748297	0.877394628	0.575419136	0.536265811	0.170592047
0.841655328	0.113711317	0.100254415	0.135120579	0.625609938	0.600474375
0.027950541	0.027579062	0.028369366	0.694918484	0.694362709	0.695018249
0.099159508	0.841780658	0.10319703	0.602397934	0.134907208	0.627658983
0.44459193	0.877365852	0.438547735	0.561810927	0.170410011	0.591289669
0.06243975	0.062490959	0.06241428	0.638265674	0.638321126	0.63857113
0.855577144	0.107535557	0.865548094	0.154958843	0.593792361	0.156959082
0.86870734	0.076958997	0.079292915	0.162582514	0.676078771	0.664284371
0.232304796	0.224631526	0.825424974	0.605839379	0.581834551	0.11904323
0.124754765	0.103142734	0.841842185	0.624004631	0.598661544	0.135250122
0.041193845	0.040957818	0.881283558	0.692759408	0.69308679	0.174897618
0.877383283	0.451096978	0.431887957	0.170526388	0.608872532	0.575500618
0.856065012	0.079515277	0.071827934	0.149321773	0.647777758	0.627524747
0.864884963	0.077028331	0.867306928	0.160968915	0.622745531	0.159839139
0.044464693	0.87238729	0.873846534	0.659237478	0.165427243	0.168176379
0.875089265	0.076031086	0.871396623	0.168482551	0.650501417	0.164497417
0.092835155	0.099655925	0.841666683	0.62930958	0.604400461	0.134974008
0.881787354	4.84345E-06	4.86347E-06	0.175530859	0.699195672	0.699147377
0.4597875	0.429793373	0.877950188	0.559894556	0.524371314	0.170640387
0.124538496	0.103180959	0.841661422	0.623951198	0.598230094	0.13514212
0.841709821	0.1029276	0.098962491	0.135045877	0.627706816	0.602554235
0.111414534	0.864090519	0.855807146	0.592068766	0.156328973	0.155238817
0.866844215	0.095219986	0.867341326	0.162504725	0.617734368	0.159387899
0.871787112	0.874772735	0.065179878	0.164812202	0.168593662	0.652829307
0.884050036	0.027325513	0.87513108	0.175605195	0.695226213	0.170324417
0.123103465	0.863702688	0.856337717	0.588685415	0.155205111	0.156342234
