Va	Vb	Vc	Ia	Ib	Ic
0.877383454	0.480817302	0.410090782	0.170367498	0.559356052	0.517617226
0.39307738	0.877773976	0.48494642	0.582644665	0.170830437	0.625174867
0.099218617	0.841767291	0.103046632	0.6024291	0.134912134	0.62763514
0.857516588	0.130499223	0.862539406	0.156602626	0.586484297	0.154373714
0.08191149	0.867360779	0.865241597	0.620972857	0.159765997	0.161585143
0.444591532	0.877365793	0.438547906	0.561810904	0.17041008	0.591289816
0.868774443	0.076626749	0.080404695	0.16257574	0.676020246	0.66437097
0.485011725	0.393137936	0.877900114	0.625238439	0.582582603	0.170781147
0.877275181	0.437037408	0.446306685	0.170596988	0.575711746	0.546049819
0.159147801	0.146660164	0.095974292	0.618047185	0.616076621	0.615357234
0.877255607	0.462411746	0.420975656	0.170543202	0.608555526	0.572135581
0.077012481	0.868017777	0.864973811	0.62302707	0.160167779	0.161116661
0.405803618	0.877306163	0.480612696	0.532743515	0.170544834	0.575077843
0.059343211	0.038591043	0.078024857	0.679811718	0.679083355	0.680106833
0.405823893	0.877355513	0.480633464	0.53273431	0.170603397	0.57503833
0.853804399	0.107651089	0.865183103	0.154780752	0.593765596	0.156857627
0.07597653	0.871779352	0.874540518	0.65052594	0.164570073	0.168557942
0.861207193	0.842803663	0.13370473	0.15470651	0.147417424	0.567729633
0.857246577	0.130485623	0.862614672	0.156593397	0.586481387	0.154363731
0.877507665	0.480586107	0.40572158	0.170578581	0.575395786	0.532922038
0.040190974	0.046454166	0.074000002	0.677736908	0.676878085	0.678973631
0.870813584	0.874382673	0.07595315	0.164406222	0.168219914	0.650457467
0.864583146	0.854274968	0.107676088	0.15639182	0.154050933	0.593827044
0.845637976	0.141774812	0.861002404	0.150175357	0.564586897	0.153973303
0.845451829	0.141752106	0.860575608	0.149988559	0.564497416	0.153729841
0.027882858	0.027484407	0.028166995	0.694932718	0.695559385	0.695466659
0.10768204	0.864518887	0.85437721	0.593917187	0.156875268	0.154404776
0.146673294	0.132564297	0.826094307	0.601426995	0.572150177	0.119801298
0.845524242	0.141805873	0.861035898	0.149675868	0.564604927	0.153661348
0.863260769	0.856485208	0.123133781	0.155761676	0.156551378	0.588472976
0.082536738	0.079782586	0.868792166	0.675312179	0.663679131	0.162585983
0.054590739	0.055410749	0.055061957	0.690402526	0.690132926	0.690322954
0.13720981	0.860360122	0.844431703	0.566359316	0.154129032	0.148926478
0.125183204	0.111113352	0.150591881	0.616019168	0.613520912	0.614836622
0.877271404	0.470158002	0.411873176	0.170215118	0.591517398	0.552814056
0.089980652	0.075890097	0.869211495	0.66965657	0.659965324	0.162590087
0.877340119	0.459006091	0.425597296	0.170582086	0.575611268	0.539608915
0.091648697	0.074366993	0.856339238	0.645408057	0.625767571	0.14988408
0.85773145	0.130444007	0.862733492	0.15670562	0.586448887	0.154445659
0.134967332	0.323091705	0.217860289	0.623074236	0.627100314	0.622593582
0.421926238	0.877009779	0.458694679	0.555237288	0.170048888	0.590883326
0.470446609	0.419928082	0.877865393	0.559627182	0.520968156	0.170882249
0.876608257	0.884339993	0.054275585	0.170922924	0.175634139	0.690518911
0.438849696	0.877730448	0.438854423	0.596446117	0.17054741	0.626583638
0.869125884	0.097727812	0.080197928	0.162745265	0.669925242	0.657297534
0.876948293	0.469577803	0.483592824	0.170784185	0.563126693	0.534251333
0.872737948	0.875479932	0.046669528	0.165120341	0.168450334	0.658316685
0.01370913	0.877140725	0.884362862	0.697402208	0.170979589	0.175450333
0.411610402	0.87752918	0.46999034	0.551576335	0.170522853	0.590518528
0.86523833	0.081476618	0.866826291	0.161495843	0.621344961	0.159328271
0.47006441	0.41183485	0.877791682	0.59063574	0.551469944	0.170557769
0.139983468	0.131133756	0.825575214	0.606063206	0.577480572	0.119139137
0.864148812	0.857002464	0.130312076	0.155447884	0.157390601	0.586554675
0.866373675	0.866832391	0.104275762	0.159186692	0.162993607	0.615612192
0.083407069	0.102165504	0.841549518	0.630886898	0.605745681	0.134729777
0.075969561	0.872009669	0.874759811	0.650580588	0.164637636	0.168651873
0.424010606	0.877440279	0.465440745	0.57301194	0.170560031	0.609771616
0.0834017	0.102220644	0.841591885	0.630996646	0.605743247	0.134735758
0.013704911	0.875699104	0.882280805	0.697255265	0.1702308	0.174696047
0.877636081	0.448032862	0.433113794	0.170646209	0.591230319	0.558677626
0.877658299	0.877391419	0.878235665	0.170682646	0.170627676	0.170911248
0.476220987	0.412948861	0.877342185	0.610630014	0.570861358	0.170535795
0.405802167	0.877332759	0.480648462	0.532723613	0.170599402	0.575019438
0.841718172	0.102956227	0.099030624	0.135025208	0.627691366	0.602586622
0.103222339	0.078815934	0.856257721	0.643404146	0.623583514	0.14966127
0.045464973	0.048099146	0.053687781	0.655674934	0.656518471	0.655188616
0.083403792	0.102217425	0.841678319	0.631079007	0.605743273	0.134725142
0.454551279	0.436084359	0.877372218	0.609505518	0.576256207	0.170589322
0.44474125	0.877351515	0.438144164	0.562833078	0.17043946	0.59260229
0.86573037	0.087709157	0.866803135	0.161862306	0.619341845	0.159304023
0.758731918	0.757739084	0.758567429	0.38422728	0.383145662	0.383130537
0.285528516	0.282046654	0.825912757	0.615013993	0.586072551	0.118599699
0.872134006	0.874465842	0.046988827	0.165347712	0.16830443	0.658638556
0.480720417	0.405796576	0.877277893	0.574408352	0.531964973	0.170503119
0.446361511	0.877382798	0.43708802	0.546054479	0.170611955	0.575749207
0.045336715	0.048471077	0.054075	0.655598467	0.656564629	0.655368057
0.868781391	0.084430966	0.07637627	0.162672606	0.672708031	0.661533587
0.450504905	0.427080594	0.877600023	0.626471044	0.593063121	0.170703543
0.09276369	0.099603792	0.841161245	0.629448359	0.604394527	0.134906309
0.876836428	0.883574899	0.04085639	0.170884053	0.175938384	0.693071208
0.438368628	0.444862977	0.877708216	0.593224151	0.563483205	0.17059385
0.092689141	0.099596059	0.841162658	0.629424319	0.604439983	0.134931132
0.448176034	0.435891308	0.877429912	0.575829054	0.542876754	0.170551408
0.014121777	0.881259151	0.014288023	0.697203872	0.175496053	0.697342339
0.432804236	0.877707334	0.448109337	0.558282925	0.170828343	0.591380594
0.856900736	0.102817167	0.078839975	0.14947426	0.643419088	0.623750331
0.014396405	0.881553256	0.014282541	0.69748132	0.175353842	0.696945091
0.882734892	5.50083E-06	0.876231459	0.175476169	0.699363467	0.171189306
0.866704919	0.095154801	0.867303403	0.162296271	0.61786351	0.159384952
0.877326805	0.437066371	0.446327813	0.170587018	0.575739266	0.546073771
0.446362727	0.877385312	0.437089221	0.546058196	0.170610829	0.5757523
0.01391812	0.014138922	0.013751575	0.697427227	0.696858401	0.696410515
0.882725931	0.054273336	0.876305543	0.175059787	0.690486487	0.170962413
0.841432577	0.10289286	0.099089205	0.134973336	0.627819777	0.602827925
0.877683436	0.470319364	0.419881383	0.170742627	0.559655543	0.520957697
0.45906514	0.425715615	0.877362875	0.575490358	0.53936912	0.170572338
0.062470069	0.062482883	0.062453336	0.638316426	0.638230029	0.638493608
0.066518152	0.078466888	0.854838757	0.653991393	0.6339981	0.148848327
0.099930206	0.081411695	0.869211681	0.669240897	0.657509214	0.162746989
0.439477082	0.877247982	0.448688374	0.527544051	0.170839812	0.560030324
0.448825569	0.439595987	0.877486459	0.559695274	0.527849009	0.170733062
0.130415399	0.863430611	0.856889378	0.586603958	0.155261121	0.157340362
0.401705739	0.877905665	0.480928485	0.548397111	0.17067746	0.590036216
0.402821231	0.877402239	0.485596956	0.564828116	0.170552619	0.607511147
0.10303159	0.07893836	0.85601366	0.643487545	0.623633409	0.14976022
0.060013074	0.060047442	0.059889207	0.639770447	0.640123351	0.640063612
0.099017696	0.841875387	0.103197558	0.60230655	0.134897224	0.627671061
0.46201067	0.41544464	0.877428293	0.626333575	0.589652007	0.170576766
0.081798076	0.867284677	0.865139714	0.621105752	0.159858746	0.161574541
0.150152813	0.13550204	0.825548732	0.603929382	0.574235753	0.119256083
0.099650069	0.841884789	0.092695978	0.604406108	0.134881811	0.629763358
0.081272303	0.273899091	0.261005394	0.620213803	0.622186739	0.623518505
0.206202069	0.825915475	0.204547537	0.577407835	0.119365194	0.606541584
0.062467032	0.062480291	0.062425833	0.638270102	0.638343343	0.63854926
0.877365967	0.483078703	0.400863145	0.170568002	0.608574152	0.565914301
0.102245582	0.841484944	0.083406914	0.605443984	0.134655904	0.63085608
0.083347896	0.102169289	0.841528527	0.631039353	0.606228907	0.134850832
0.868682772	0.081646295	0.078736162	0.162595103	0.674506621	0.662568148
0.041262103	0.040950466	0.881249656	0.692529813	0.69308054	0.174965931
0.872392869	0.87545361	0.055328304	0.165272538	0.16906235	0.654999656
0.091369651	0.074256504	0.854706695	0.64584363	0.625656329	0.149148262
0.054587802	0.054243016	0.880973335	0.690079985	0.690350313	0.175109539
0.855254016	0.10749498	0.865007515	0.154850109	0.593988691	0.156978361
0.825777456	0.195814777	0.196739309	0.118384237	0.612837448	0.581858118
0.873964459	0.055399393	0.871754897	0.168487187	0.655093551	0.164743518
0.027326163	0.875656343	0.883443144	0.695227765	0.170906174	0.175703321
0.415535836	0.877611202	0.462102228	0.589695214	0.170690934	0.626229027
0.825445635	0.20450931	0.197872106	0.118802354	0.610154476	0.578049396
0.123119086	0.863460169	0.85714979	0.588347192	0.155264984	0.15645629
0.856774538	0.068705034	0.072120802	0.149417515	0.650054535	0.628629694
0.867169884	0.087696185	0.867301802	0.161942835	0.619403586	0.159255907
0.079691054	0.071538736	0.855035824	0.647921945	0.627707693	0.148940453
0.439000674	0.878031745	0.43900543	0.596409055	0.170685132	0.626477974
0.337146603	0.825827074	0.32745465	0.581716771	0.11889078	0.612463117
0.459009279	0.42198587	0.877437471	0.590784612	0.555092495	0.170455547
0.107698402	0.864478653	0.854001594	0.593711418	0.156748002	0.154449144
0.435737372	0.877360375	0.454503139	0.576209155	0.170571639	0.609602083
0.413898757	0.877395243	0.475683248	0.566036418	0.170676153	0.605483988
0.867423661	0.866484836	0.095456444	0.159478019	0.162674434	0.617386645
0.080586894	0.855338497	0.104640156	0.623625762	0.149459087	0.643275372
0.411485881	0.877237581	0.469835334	0.55164201	0.17021635	0.590539207
0.846196971	0.153953343	0.858536082	0.150811309	0.560912105	0.151665273
0.146982444	0.130585918	0.824881076	0.602190567	0.573024175	0.119405234
0.411619	0.877545529	0.470011291	0.551591895	0.170476643	0.590526556
0.876270539	0.883908797	0.027326358	0.170592196	0.175763416	0.695201622
0.08402256	0.86863575	0.085320403	0.661623423	0.162611949	0.676404472
0.877342875	0.437071394	0.446338435	0.170588277	0.575737176	0.5460835
4.94468E-06	0.881372017	4.82421E-06	0.699390381	0.175127719	0.699072742
0.079520389	0.071537345	0.855159827	0.647925955	0.627716507	0.148939639
0.131719993	0.825876112	0.149767418	0.576258317	0.118933297	0.604045792
0.028063502	0.028114394	0.881416522	0.694764515	0.695193233	0.17484116
0.846812032	0.15397696	0.858662323	0.150918262	0.560869206	0.151588948
0.092783111	0.09962258	0.841631063	0.629462746	0.604453093	0.134933596
0.446044549	0.877352631	0.44451938	0.57644443	0.170561758	0.606948775
0.878005295	0.470449866	0.420074607	0.170940619	0.559678994	0.521083757
0.429693921	0.877825808	0.459773252	0.524422733	0.170577049	0.559703854
0.462133522	0.415569746	0.8776762	0.62624084	0.589620411	0.170757492
0.062546273	0.06248496	0.06247096	0.638405331	0.63847313	0.638548063
0.079231968	0.869043472	0.092633547	0.658425777	0.162589086	0.669996964
0.877686376	0.480928764	0.401814231	0.17080502	0.590286731	0.547959156
0.86404022	0.854886125	0.111355105	0.155642233	0.154576995	0.59207923
0.874351935	0.047322828	0.871358004	0.16830617	0.657070852	0.164554374
0.470386313	0.419824285	0.877702402	0.559695096	0.521033755	0.170798215
0.866647002	0.104142998	0.866706305	0.162696823	0.615454595	0.159163819
0.877220014	0.438599326	0.438594592	0.1703489	0.62656142	0.59640742
0.08151248	0.867671719	0.865561862	0.621351586	0.159843456	0.161623055
0.876359189	0.88332839	0.013707073	0.170391436	0.175317536	0.697336487
0.882563959	0.01370538	0.8761622	0.175471554	0.697287044	0.170966663
0.868994362	0.090317207	0.077160727	0.162649901	0.671482582	0.659266574
0.102202345	0.841388464	0.083414537	0.605874504	0.134745945	0.631417864
0.058894981	0.038606687	0.077598991	0.6793098	0.679130747	0.679901911
0.841828938	0.103035235	0.098982809	0.135009003	0.627737008	0.602576501
0.876087425	0.884490714	0.054281901	0.171302913	0.175772298	0.690619558
0.137217332	0.861693913	0.844024625	0.566256468	0.154254151	0.148820811
0.027833211	0.027693679	0.028478383	0.695485841	0.695190095	0.695069487
0.455023037	0.435903851	0.877372414	0.610306191	0.577008384	0.170598199
0.039646121	0.046713298	0.073618333	0.676721781	0.676872906	0.677082137
0.039772634	0.046676703	0.073734513	0.677094386	0.676674155	0.677371338
0.846109396	0.14749734	0.860563267	0.150764251	0.562855172	0.15304471
0.013708088	0.876444621	0.88372437	0.697339481	0.170905266	0.175752824
0.103234339	0.078886821	0.856422373	0.643771445	0.623444519	0.149643369
0.448662885	0.439545341	0.877271758	0.559822347	0.52749105	0.170690144
0.074819541	0.074979723	0.075075203	0.634088234	0.634330042	0.634607396
0.051881511	0.053578518	0.05841739	0.653767184	0.654096413	0.653523466
0.841699886	0.113869375	0.100372421	0.135067032	0.62610793	0.600666056
0.87407585	0.055399838	0.872018494	0.168468045	0.655106811	0.16474175
0.56930826	0.877023378	0.547466737	0.539257973	0.170411775	0.566989251
0.014062973	0.881440903	0.014338824	0.697259528	0.175420797	0.697075123
0.111396225	0.86504095	0.855619568	0.592076589	0.156401355	0.155322454
0.111439973	0.864165184	0.855656207	0.592116487	0.155840444	0.15507217
0.867018213	0.866434333	0.081688614	0.159498576	0.161945235	0.621207057
0.86460611	0.854853892	0.111458072	0.155792491	0.154690887	0.591900534
0.88127537	4.89702E-06	4.76721E-06	0.175372008	0.699079245	0.69903712
0.876860982	0.883576475	0.04085633	0.170884359	0.175936475	0.693070347
0.074863029	0.07494437	0.075308679	0.634394297	0.634321346	0.634455183
0.855986335	0.102857359	0.078850255	0.149560741	0.643312603	0.623702519
0.028184245	0.027996676	0.88114594	0.694778743	0.695185917	0.174872226
0.866921488	0.104083541	0.866588826	0.162607874	0.615241097	0.159001707
0.081619708	0.869193441	0.099393752	0.656913987	0.162669321	0.669479806
0.424245402	0.877385535	0.465165855	0.573172609	0.170548227	0.609858267
0.841761854	0.102976919	0.099273891	0.135059798	0.627714414	0.602556726
0.877611153	0.450509111	0.427087559	0.17072232	0.62649257	0.593025376
0.099105131	0.841805088	0.103086991	0.602541708	0.13491633	0.627686675
0.866470039	0.866730911	0.095499947	0.15947523	0.162742888	0.617428947
0.459010063	0.42199081	0.877442223	0.590785105	0.555092299	0.170456923
0.841079779	0.083327017	0.102224781	0.134817177	0.631291346	0.60595197
0.877712896	0.877375075	0.878400178	0.170682	0.170661734	0.170934595
0.877400766	0.450668666	0.432492522	0.170569477	0.609756209	0.576346306
0.855305987	0.102794939	0.079090728	0.149496038	0.643242468	0.623682376
0.059643375	0.064412737	0.062789946	0.652135737	0.651797512	0.651992702
0.881432318	4.82594E-06	4.91202E-06	0.175454093	0.698842102	0.699309876
0.074907665	0.856584383	0.091341915	0.62575127	0.14992598	0.645718724
0.882520822	0.040847231	0.876915303	0.174601562	0.692846348	0.170595946
0.439563894	0.877359593	0.448713876	0.527512286	0.170850086	0.560035095
0.062500594	0.062488186	0.062449554	0.638297499	0.638305167	0.6384836
0.141788968	0.861538257	0.846095989	0.564485579	0.154225333	0.150493329
0.111387351	0.864911216	0.855458564	0.592038221	0.156333546	0.155298416
0.095451671	0.866023047	0.866194364	0.617632135	0.158956225	0.162163287
0.842884157	0.133756547	0.860925558	0.147392884	0.567803646	0.154420866
0.435043404	0.877299368	0.454927957	0.574016135	0.170545722	0.607691501
0.866838651	0.866120618	0.081713331	0.15920393	0.161824217	0.621202439
0.056469791	0.044756816	0.075306809	0.674667382	0.674751873	0.675523393
0.125049298	0.294796904	0.202337048	0.623072022	0.628241543	0.623330569
0.070135257	0.071624645	0.074063921	0.649791085	0.650121307	0.650302647
0.080347909	0.855326577	0.104481379	0.62346596	0.149163721	0.643383097
0.881474657	4.94075E-06	4.79536E-06	0.175550711	0.698951455	0.699267127
5.49603E-06	0.876319127	0.88410938	0.699370684	0.170542008	0.175536204
0.454779716	0.435805527	0.877376914	0.6092926	0.57600845	0.170577657
0.866353864	0.866791394	0.104239789	0.159196159	0.163034122	0.615615699
0.107712347	0.864642454	0.855289789	0.593750785	0.156929887	0.154741805
0.825496398	0.265298987	0.27750351	0.118745792	0.610524201	0.58359536
0.437101993	0.446329064	0.877363139	0.575754376	0.546046133	0.17059855
0.062492639	0.062484696	0.062444534	0.63829203	0.638244997	0.638523406
0.438802997	0.438798297	0.877627426	0.626687668	0.596321928	0.170723177
0.841925316	0.092741887	0.099636267	0.134788166	0.629632957	0.604394291
0.123101146	0.863960966	0.856815368	0.588352463	0.155623437	0.156798735
0.172548352	0.158023684	0.094372536	0.616067147	0.615540747	0.61589289
0.877592554	0.470316573	0.419782967	0.170815264	0.559680679	0.52100793
0.070244497	0.071706971	0.074123262	0.649445782	0.649683571	0.649495639
4.8956E-06	0.880561562	4.86347E-06	0.699287974	0.175186871	0.698889597
0.40593992	0.877345247	0.480595673	0.532756004	0.170553974	0.575082928
0.470025456	0.415642692	0.877387813	0.575403833	0.536208898	0.170551353
0.856038743	0.091311973	0.074127407	0.149427798	0.645708233	0.625510359
0.465714964	0.424575935	0.877374555	0.608786483	0.572171702	0.170598889
0.041112812	0.040898704	0.881481425	0.692528633	0.692891181	0.175017984
0.877292769	0.438635717	0.438630973	0.170321086	0.62657431	0.596420956
0.073027835	0.855302248	0.071537195	0.629393713	0.149213832	0.649547276
0.404538993	0.87836064	0.473932107	0.58622851	0.170767533	0.625811206
0.866595704	0.866513031	0.104411696	0.159212569	0.162841712	0.615158035
0.027501027	0.881870585	0.027816536	0.694934882	0.175119235	0.69512738
0.448142217	0.435911887	0.877412643	0.57582637	0.542883903	0.170552157
0.067632917	0.067688333	0.067851248	0.636195112	0.636306562	0.636699056
0.099344816	0.131580848	0.171154826	0.617235635	0.621460091	0.621719449
0.027322348	0.876303091	0.88286208	0.695114108	0.170590867	0.175059766
0.86673402	0.087804171	0.867397404	0.162152125	0.619658898	0.159474139
0.055363724	0.873122224	0.875508277	0.654848537	0.16511382	0.168863072
0.102599397	0.132885214	0.178646983	0.617581488	0.621240112	0.621646685
0.841721362	0.092638137	0.099661852	0.134793143	0.629596213	0.604267689
0.14254827	0.129932295	0.09835477	0.619189374	0.616975487	0.615339127
0.880368256	0.054651516	0.054384231	0.175078094	0.69005027	0.690337578
0.027929465	0.027519225	0.027920346	0.694863268	0.694621758	0.695734868
0.488779564	0.522164147	0.878034642	0.561683638	0.532779419	0.17064571
0.082175257	0.273038335	0.25623865	0.620216345	0.62333315	0.624646628
0.082119163	0.079500076	0.868866547	0.675610801	0.663905694	0.162578044
0.874425827	0.076008149	0.870725391	0.168855489	0.650466624	0.164442697
0.047139653	0.87208698	0.873407706	0.656860387	0.165141711	0.168236348
0.43593672	0.877418493	0.44815256	0.54269275	0.170619718	0.575605674
0.095588243	0.866075653	0.866104866	0.617514659	0.158943116	0.162101401
0.088225135	0.080265817	0.868768731	0.672392346	0.660331059	0.162685319
0.484758702	0.392898954	0.877406569	0.625262015	0.582529523	0.170632225
0.091647757	0.079597193	0.86922089	0.667832301	0.65684832	0.162716184
0.469865821	0.415737833	0.877393518	0.575423671	0.53626133	0.170586661
0.877326554	0.437126087	0.444128603	0.170400766	0.591491891	0.56194585
0.877339344	0.459067462	0.425525958	0.170583978	0.575635049	0.539615871
0.141730586	0.861057727	0.84571502	0.564531878	0.153991624	0.150219689
0.067024593	0.079852017	0.855107053	0.652517248	0.632036736	0.148663369
0.475818419	0.413092698	0.877253435	0.609620324	0.570283153	0.170600023
0.872070872	0.875917267	0.075945283	0.164822084	0.169513713	0.650486805
0.877638957	0.473570398	0.404179662	0.170690859	0.625823641	0.586175366
0.403049903	0.877364046	0.485657251	0.564887643	0.170493658	0.607597009
0.757999963	0.761346808	0.759410424	0.384091337	0.383968119	0.384674092
0.876898599	0.883930931	0.054283382	0.171350159	0.175824123	0.690640706
0.841685752	0.113544521	0.100717841	0.13518246	0.625941824	0.600921582
0.06251463	0.062475496	0.062432852	0.638284673	0.638257978	0.63855568
0.883974716	0.027331797	0.876582312	0.175649786	0.695357924	0.170930694
0.100443802	0.082045281	0.869274	0.669223568	0.657602692	0.162698646
0.150307283	0.135676844	0.825583003	0.603908383	0.574094146	0.119234094
0.124425458	0.112912839	0.149846657	0.615425963	0.61345977	0.615461678
0.877374199	0.469721443	0.415587868	0.170575079	0.575374165	0.536102655
0.841469613	0.083378396	0.102219965	0.134869093	0.631274183	0.606290972
0.413289522	0.877236466	0.475689609	0.568426857	0.170617767	0.607420175
0.086409724	0.868679249	0.083235394	0.664747559	0.162544844	0.6773668
0.091798438	0.074476731	0.857253771	0.645548362	0.625870333	0.149349034
0.877342872	0.437071392	0.446338435	0.170588275	0.575737171	0.546083498
0.222287968	0.228959746	0.8270241	0.605860335	0.575501432	0.118965232
0.092114728	0.079983703	0.869285069	0.667867333	0.656889925	0.162704995
0.87744723	0.450428709	0.427004101	0.17048176	0.626355478	0.593222033
0.480721415	0.406003448	0.877504443	0.574777052	0.532334619	0.170569327
0.866312132	0.095426142	0.867251102	0.162513642	0.617198951	0.159535805
0.877347454	0.437184654	0.444245044	0.170343825	0.591471374	0.561967265
0.081648877	0.869219065	0.099411203	0.657004345	0.162662296	0.669510089
0.411610571	0.877530541	0.469991078	0.551576255	0.170522258	0.590518524
0.090230835	0.075941331	0.868907988	0.668587059	0.659124159	0.162582983
0.866758485	0.095530691	0.866786806	0.162294406	0.617581219	0.159343407
0.09967682	0.841621045	0.092662858	0.604520068	0.134889866	0.62975715
0.446370045	0.877403892	0.437098645	0.546100131	0.170605954	0.575739971
0.877277016	0.437034833	0.446310884	0.170594398	0.575695489	0.546046023
0.480832359	0.405737271	0.877338372	0.574619908	0.532074846	0.170547674
0.87672095	0.883905889	0.054277929	0.171365001	0.175418752	0.690578472
0.877493799	0.480537615	0.405795021	0.170548831	0.575084955	0.532743854
0.877710565	0.459664076	0.42967819	0.170544454	0.559631513	0.524580597
0.877131444	0.473316953	0.403925684	0.170691483	0.625822012	0.58618275
0.486174554	0.402179919	0.877336686	0.607558236	0.564728127	0.170477808
0.062504191	0.062485466	0.062477788	0.638294776	0.638298272	0.638471873
0.881558541	0.041186582	0.040924777	0.175402828	0.692783401	0.692844227
0.841686779	0.113759265	0.100288044	0.135046971	0.625912104	0.600476544
4.89362E-06	0.881275621	4.81673E-06	0.699137737	0.175120172	0.698883471
0.047145369	0.871748667	0.874218723	0.656883965	0.164682031	0.168269099
0.027434626	0.882207155	0.027511321	0.69531062	0.175344691	0.694975132
0.880531799	0.054616006	0.054318419	0.175277019	0.689911157	0.690711521
0.074862325	0.074916967	0.075057887	0.634085174	0.63436338	0.634618057
0.41033871	0.877683839	0.480880302	0.517468155	0.1705563	0.559455266
0.083555548	0.080424308	0.869021976	0.675881923	0.663447969	0.162535096
0.865593839	0.077133054	0.867439048	0.161511206	0.622974528	0.160357195
0.876839604	0.44752705	0.432836495	0.170434475	0.59084677	0.558147782
0.877796835	0.450603939	0.427178415	0.170614845	0.626338067	0.593244891
0.419619607	0.877421782	0.470304866	0.521072395	0.170701109	0.55965847
0.286938754	0.299665369	0.825612751	0.615356045	0.584848223	0.118695622
0.877482301	0.480870973	0.410140343	0.170456317	0.55933654	0.517519409
0.073773039	0.855432024	0.082238811	0.62789892	0.149353856	0.648280079
0.405618579	0.877293798	0.480765866	0.532765094	0.170551703	0.575088595
0.103745308	0.84177579	0.125121647	0.598568871	0.135430529	0.623591522
0.044316067	0.049752611	0.051593587	0.658580965	0.659484892	0.658679073
0.065230081	0.872055059	0.875152742	0.652864324	0.165200763	0.168634339
0.866924981	0.866379974	0.081775472	0.159566409	0.161956651	0.62109097
0.84190001	0.092717715	0.09967812	0.13479179	0.629661474	0.60435293
0.43587985	0.877312803	0.448086976	0.54288263	0.170528213	0.575829439
0.461964988	0.415408101	0.877345714	0.626304438	0.589581662	0.170750544
0.841697148	0.124987122	0.104007731	0.135290731	0.623189262	0.597748294
0.054300394	0.881829289	0.054617871	0.690949323	0.175519326	0.690427424
0.876258553	0.883763662	0.054272393	0.170848337	0.175639286	0.690454854
0.405782689	0.877356333	0.480714982	0.532744703	0.170581566	0.575044482
0.111447745	0.864139541	0.855423899	0.592104981	0.15583826	0.155072409
0.877087437	0.459102141	0.421914505	0.170486828	0.590397729	0.554604663
0.10125848	0.131909086	0.175805512	0.616725961	0.621938989	0.619992305
0.858074002	0.130486161	0.862663459	0.15682003	0.586505391	0.154665003
0.01391758	0.014337546	0.013888896	0.697007314	0.697429533	0.697448364
0.445785209	0.877681706	0.437840558	0.562607227	0.170785078	0.59233057
0.0748804	0.074941435	0.075314597	0.634345844	0.634364598	0.63440983
0.06960089	0.0650568	0.084699336	0.670489933	0.67072906	0.672837737
0.862049664	0.842993739	0.133703846	0.154730986	0.147459747	0.56770611
0.867967516	0.865644689	0.077539751	0.160488656	0.161684204	0.62333994
0.437047305	0.446296603	0.877276174	0.575728948	0.546008857	0.170577933
0.860588847	0.84550867	0.147485923	0.153253251	0.150785478	0.56288032
0.081795386	0.867727875	0.866205633	0.62133926	0.160015531	0.16158098
0.067667456	0.067594357	0.067849795	0.6363078	0.636283455	0.636630521
0.141091308	0.825424602	0.149848121	0.57504378	0.118659721	0.601782472
0.87739115	0.462842415	0.420699914	0.170611317	0.609485946	0.572866423
0.074624478	0.855751747	0.091504061	0.626026368	0.14945061	0.645666829
0.877340431	0.459021182	0.425557138	0.170587842	0.575697929	0.539647603
0.059480692	0.064560665	0.06342311	0.652179456	0.651481103	0.651754543
0.459729607	0.429750311	0.877844869	0.559882396	0.524399761	0.170741239
0.874747903	0.047219578	0.871073377	0.168353609	0.656968323	0.164633649
0.070222774	0.065215486	0.085143733	0.670334562	0.670918044	0.672334947
0.877398242	0.473594938	0.410169202	0.170546912	0.60910461	0.569258568
0.044509741	0.872526173	0.874054022	0.659199166	0.165720001	0.168396233
0.845578212	0.141753512	0.860350699	0.150193365	0.564567809	0.153950959
0.877311121	0.437123735	0.444160542	0.170386509	0.591458684	0.56193489
0.083392395	0.10222545	0.84179009	0.631243986	0.605995119	0.134738764
0.074902893	0.074971969	0.075448852	0.634396331	0.63433364	0.634431985
0.146981974	0.132707405	0.825816056	0.601319524	0.571986221	0.119866397
0.875988938	0.883455746	0.027328015	0.170695917	0.175766003	0.695300472
0.014618717	0.881373414	0.014555698	0.697457609	0.175352109	0.697632412
0.865910751	0.077175335	0.867778163	0.161546782	0.623031639	0.160341931
0.149679699	0.135053937	0.8255032	0.603959794	0.574349324	0.119291993
0.077029	0.867728741	0.865730814	0.623103957	0.160339452	0.161806626
0.067646467	0.067626928	0.067957997	0.636344604	0.636299836	0.636640359
0.091062473	0.077233219	0.868870921	0.667925676	0.657545383	0.162565036
0.825487084	0.148331944	0.130602949	0.118949818	0.604388622	0.576016576
0.069199221	0.065446709	0.084725487	0.670474909	0.670705318	0.672843813
0.44762863	0.43235401	0.876838702	0.591026414	0.55818369	0.17048207
0.454316155	0.43622954	0.877385402	0.609250138	0.575963031	0.170579772
4.87544E-06	4.88681E-06	0.881537412	0.699290682	0.699262282	0.175069471
0.058631673	0.038237497	0.076885707	0.679617423	0.678998691	0.68023006
0.104238135	0.866891766	0.867324068	0.615235643	0.159305412	0.162917591
0.855024206	0.068898601	0.071899414	0.149211654	0.64987245	0.629423037
0.045161506	0.871801646	0.875121124	0.659053298	0.165377686	0.168411505
0.078955445	0.868952468	0.087793605	0.662307097	0.162634288	0.67141078
0.476208816	0.412994798	0.877341836	0.610620529	0.570863768	0.170533682
0.459099011	0.421999817	0.877526736	0.590930432	0.554958123	0.170862476
0.854364251	0.107536874	0.865157635	0.154846015	0.593890902	0.156941567
0.429659519	0.877815912	0.45978898	0.524457859	0.17061656	0.559778543
0.419627812	0.877413828	0.470289453	0.521039585	0.170634551	0.559661386
0.140054324	0.130916002	0.825422129	0.604069801	0.576427991	0.118881604
0.062501537	0.06248201	0.062420345	0.638249566	0.638248676	0.638512717
0.444602088	0.8773687	0.438544252	0.561812248	0.170408303	0.591285555
0.866582426	0.095530636	0.8673874	0.16230396	0.617217098	0.159375135
0.027816657	0.027597917	0.028092478	0.695251715	0.695603249	0.695403149
5.49376E-06	0.876315303	0.883968633	0.699095048	0.170906814	0.17552317
0.06250555	0.062484101	0.062432082	0.63835725	0.638398371	0.638523507
0.875159322	0.075955866	0.871825425	0.169031417	0.650410759	0.164652553
0.873611732	0.065238472	0.870316118	0.168060201	0.652747565	0.164489182
0.06884339	0.071292706	0.855550585	0.65010043	0.629377303	0.149050117
0.855598384	0.102797717	0.078683327	0.149597545	0.643353772	0.623853134
0.404175853	0.877631683	0.473566785	0.586220152	0.170793619	0.625866672
0.876749717	0.883292582	0.040860403	0.170782092	0.175899789	0.69313956
0.427013488	0.877466269	0.450437933	0.593042471	0.170486629	0.626488718
0.427053641	0.877543325	0.450474735	0.592984409	0.170797594	0.626525499
0.866709841	0.866637502	0.095469513	0.15934384	0.162504679	0.617137776
0.881960276	4.78754E-06	4.89702E-06	0.17548454	0.699319929	0.699140195
0.083623972	0.868932799	0.085626196	0.660285572	0.162615843	0.674683869
0.303068538	0.825780751	0.288291039	0.585862571	0.118895691	0.615832424
0.147439792	0.860869326	0.84620794	0.562771932	0.153092092	0.15075755
0.133745738	0.86200242	0.844364318	0.567774471	0.154847638	0.147858249
0.087820784	0.867025307	0.865731879	0.61988616	0.159642634	0.161976257
0.864044903	0.856111533	0.116638507	0.155439395	0.155470303	0.590376758
0.013801843	0.014184738	0.013974299	0.697213632	0.697110144	0.697459181
0.079201414	0.082461573	0.868824609	0.677693723	0.665410927	0.162585433
0.877604217	0.87703906	0.87766802	0.170686514	0.170270717	0.170757836
0.484870443	0.393007579	0.877626311	0.625437967	0.582471433	0.170642173
0.480879414	0.401571347	0.877771668	0.590251508	0.548130694	0.170464965
0.422108611	0.877455399	0.458970006	0.555311388	0.17042978	0.591147502
0.866720461	0.087676839	0.867129573	0.161974105	0.619439864	0.159137791
0.855462286	0.10277692	0.078739592	0.149410082	0.643410004	0.623760211
0.8747928	0.051266515	0.872269146	0.168337447	0.659042816	0.165054896
0.083111263	0.868898889	0.084863977	0.660013748	0.162669726	0.673578235
0.040491989	0.046473389	0.074377556	0.677753472	0.677120653	0.679467207
0.05185245	0.053860633	0.058409476	0.654386017	0.65430922	0.654528284
0.43597098	0.877425501	0.448144903	0.542687268	0.170634185	0.575542805
0.462010321	0.415444207	0.87742753	0.626341955	0.589650702	0.170592167
0.869145046	0.089769196	0.076551171	0.162663054	0.672067095	0.659840162
0.05472678	0.054315206	0.880934637	0.690098795	0.690545794	0.17523568
0.871134537	0.875501736	0.04744238	0.16509321	0.16895112	0.657137039
0.438379352	0.444762918	0.87765709	0.593222257	0.563459602	0.170606157
0.866268813	0.081532923	0.867940672	0.161678558	0.621411642	0.159937672
0.486993474	0.401522747	0.877441323	0.607417436	0.564315733	0.170529599
0.486692965	0.401556415	0.877406117	0.609850291	0.566533465	0.170499532
0.87737647	0.459013176	0.425629609	0.170610422	0.575710333	0.539668486
0.86084866	0.844169917	0.141710624	0.153276015	0.149358323	0.564569699
0.214005364	0.825998578	0.212554223	0.578495089	0.119282591	0.606246133
0.826536961	0.262766256	0.282047527	0.118761411	0.612650233	0.584464032
0.099729229	0.841629687	0.092682138	0.60457435	0.134784985	0.629820419
0.470327533	0.419858174	0.877665175	0.559730433	0.521033629	0.170749872
0.404193148	0.877652611	0.473570624	0.58619276	0.170713805	0.62571674
0.432748349	0.877744361	0.448150966	0.55828209	0.170848444	0.591381404
0.877352105	0.437188073	0.444244442	0.170342584	0.591470846	0.561970176
0.039639418	0.0467374	0.073641881	0.676718334	0.676885736	0.677079271
0.41580785	0.877438453	0.469841374	0.536177387	0.170522944	0.575473899
0.095518559	0.866475663	0.866041362	0.617518313	0.158874001	0.161991377
0.511792597	0.501475619	0.878234177	0.558439763	0.529586595	0.170609398
0.43592769	0.877290291	0.448029041	0.542820747	0.170555192	0.575713268
0.111441953	0.864184526	0.856028124	0.592081006	0.155872334	0.155101162
0.883662379	0.013704945	0.875906504	0.175072717	0.697252468	0.170597143
0.401252646	0.876837751	0.480371035	0.548264258	0.170130418	0.589917434
0.841469613	0.083378396	0.102219965	0.134869093	0.631274183	0.606290972
0.877295822	0.440460606	0.443943761	0.170534845	0.60807974	0.577710959
0.424748751	0.87743495	0.464998519	0.573188806	0.170544611	0.609871338
0.877340616	0.448091377	0.435845256	0.170624198	0.575761358	0.54286972
0.448142292	0.435911961	0.877412869	0.575826287	0.542884033	0.170552154
0.074096654	0.855522517	0.082704416	0.627859684	0.149306358	0.648270645
0.287684097	0.299761367	0.825594633	0.61531798	0.584558811	0.118695564
0.014296159	0.881345187	0.014389891	0.697463357	0.175494138	0.696886883
0.869145436	0.082644712	0.074724488	0.162606587	0.674258532	0.660557901
0.882230734	0.05436074	0.05427453	0.175355037	0.689828556	0.690264869
0.306610783	0.826118593	0.295792853	0.590572036	0.118979924	0.616394378
0.219043603	0.239009428	0.826816539	0.609075058	0.577443218	0.118942878
0.480550558	0.405894942	0.877251203	0.574426282	0.53196388	0.170518215
0.056743038	0.045027655	0.075546598	0.675638001	0.674634477	0.676005428
0.404088654	0.877464294	0.473486439	0.586302028	0.170720984	0.625762461
0.447820824	0.4325292	0.877209512	0.590782912	0.558449598	0.170227218
0.462314954	0.415748739	0.878036504	0.626193225	0.589715834	0.170598325
0.877348737	0.437075327	0.446340092	0.17059138	0.575744513	0.546086999
0.111526333	0.863900111	0.855042787	0.591991888	0.155815424	0.155098247
0.863207004	0.85734693	0.130343227	0.154712844	0.156855143	0.586411285
0.841882082	0.092740356	0.099581364	0.13478822	0.629680313	0.604348789
0.877281819	0.884135674	0.054285385	0.171373172	0.17589906	0.690662404
0.882757301	0.040844842	0.876732063	0.175070922	0.692800426	0.17105709
0.465854059	0.424246369	0.877283395	0.608770365	0.572063485	0.170566602
0.425683862	0.877311578	0.459036133	0.539395368	0.170665204	0.575555747
0.841062559	0.083352514	0.102222159	0.134836998	0.631246354	0.605944028
0.141069047	0.82684408	0.150372472	0.576940041	0.119163829	0.605020233
0.133724451	0.862312503	0.843961228	0.567762056	0.155337774	0.148308058
0.869123839	0.090386086	0.076254122	0.162665655	0.671975829	0.659818946
0.847513584	0.846363967	0.848137091	0.257744028	0.256762165	0.25800703
0.08337483	0.868889782	0.084742892	0.660679654	0.162633477	0.67290342
0.087664355	0.867138103	0.866623462	0.619528381	0.159541589	0.162430197
4.82278E-06	4.92725E-06	0.881687952	0.699305248	0.699126686	0.175199906
0.87772532	0.448045464	0.433235237	0.170619423	0.591218652	0.558717708
0.855315745	0.102931282	0.078887246	0.149116	0.64354943	0.623601149
0.880690398	0.054631218	0.05411589	0.174879067	0.689957686	0.69071524
0.076975511	0.86810215	0.864776482	0.622864639	0.160406354	0.16146307
0.013708013	0.876185846	0.881939411	0.697406306	0.170933962	0.175225788
0.874935299	0.047226226	0.871347267	0.168379069	0.656942065	0.164828566
0.04547374	0.048360217	0.053719823	0.655900076	0.65614289	0.656161001
0.130408005	0.863445413	0.857005428	0.586305132	0.154845989	0.157276586
0.444586624	0.877331819	0.438367886	0.561793696	0.17034707	0.591294051
0.855855725	0.116707745	0.864301343	0.155788174	0.590208773	0.156066829
0.857860927	0.130379148	0.862839492	0.156548214	0.58659301	0.154274678
0.10372725	0.841770678	0.125102805	0.598512818	0.135431995	0.623615565
4.80866E-06	4.90042E-06	0.881515204	0.699446736	0.699122827	0.175003775
0.027768493	0.027562431	0.028305575	0.694980192	0.694400342	0.695502658
0.877360413	0.473583635	0.410177953	0.170543363	0.609097273	0.569258948
0.027322742	0.876376819	0.883391067	0.695139595	0.170976341	0.175576765
0.469725049	0.411433145	0.8770746	0.590508646	0.552093531	0.170020974
0.081729293	0.079119147	0.868789829	0.675200655	0.663384238	0.162568928
0.454997611	0.435945152	0.877455581	0.610924005	0.577096042	0.170564679
0.877524214	0.459605531	0.42955313	0.170536285	0.559639393	0.524586249
0.882451587	5.50083E-06	0.876416276	0.175107196	0.699369574	0.170622256
0.825627669	0.276232943	0.286212313	0.118325738	0.61095617	0.582435858
0.439571606	0.877390612	0.448746301	0.527658655	0.170545023	0.559747305
0.881364895	0.054581053	0.054409546	0.175044997	0.690169428	0.690572267
0.393168151	0.877951598	0.485034354	0.582666996	0.170794269	0.625227598
0.07472327	0.856336668	0.091495282	0.625669758	0.149749443	0.645797283
0.882063582	0.040850398	0.874156314	0.174673489	0.692895382	0.170565819
0.846737642	0.153905431	0.859455594	0.151241961	0.560789617	0.152187704
0.427103541	0.877646826	0.450528587	0.593076992	0.170697277	0.626469643
0.866535415	0.865733685	0.081799096	0.159461303	0.161582439	0.6214801
0.447746002	0.4324396	0.877033634	0.590814542	0.558338724	0.170111954
0.462010427	0.415444325	0.877427753	0.626341962	0.589650703	0.170592216
0.421805547	0.877076333	0.458938578	0.554992363	0.170117428	0.590266194
0.877711913	0.438845396	0.438840727	0.170942171	0.626588336	0.59643066
0.882653185	0.02732783	0.876513757	0.175609349	0.695250147	0.171127283
0.826394502	0.147237133	0.130508217	0.119440377	0.60179049	0.574089065
0.087774699	0.867283019	0.865621138	0.61984873	0.159687347	0.162189254
0.877686255	0.481020986	0.401713912	0.170972143	0.590336245	0.547966621
0.147436975	0.860703162	0.845763361	0.562689843	0.153121722	0.150827187
0.841852739	0.103001884	0.099087025	0.135033614	0.627747271	0.602569489
0.845475178	0.141752231	0.859826799	0.150110836	0.564538348	0.153881136
0.070109059	0.065339933	0.085409565	0.670333801	0.67079902	0.671938912
0.865787851	0.856335702	0.111442084	0.156245947	0.155407022	0.592176219
0.873849428	0.047225491	0.869919462	0.168414697	0.65694018	0.164588114
0.073847984	0.855212372	0.08213759	0.627997255	0.149428284	0.647840568
0.104030657	0.867192779	0.866783002	0.615774096	0.159234179	0.162879819
0.448145978	0.435895478	0.877400089	0.575771578	0.542841436	0.170564634
0.415532831	0.87760375	0.462098097	0.58980052	0.170682118	0.626115888
0.068842072	0.071259833	0.855111228	0.649869035	0.629482721	0.148782375
0.864765293	0.854604423	0.107724945	0.156342671	0.154326013	0.593920307
0.082589624	0.080069639	0.868824271	0.675484547	0.663860807	0.162579381
0.125979059	0.303337124	0.209686943	0.623033203	0.623809387	0.621183201
0.133745692	0.86200091	0.844351011	0.567773751	0.154846596	0.147857583
0.01370577	0.875702348	0.883809702	0.697220311	0.170906615	0.175687754
0.444720388	0.877333828	0.438397261	0.562812861	0.170440484	0.592555456
0.448169882	0.435896595	0.877428511	0.575729806	0.542790209	0.170565821
0.130367385	0.863588494	0.857901693	0.58647222	0.154665159	0.157170102
4.77884E-06	0.881381352	4.93569E-06	0.699110243	0.175421893	0.69902203
0.113673362	0.100486791	0.842092732	0.626067485	0.600569767	0.135026893
0.877339329	0.483819964	0.400045347	0.170489941	0.608199059	0.565469301
0.107634777	0.864670414	0.854394563	0.59372758	0.15671447	0.154407481
0.855141624	0.064218819	0.078147295	0.148833878	0.653197148	0.632707217
0.083368503	0.102167495	0.841494857	0.630996882	0.606187327	0.134850569
0.392921163	0.877427311	0.484758665	0.582439644	0.170484393	0.625286747
0.442896923	0.448369029	0.877340534	0.606557098	0.576608805	0.170603161
0.095664874	0.867242134	0.866332454	0.617520749	0.159510706	0.162218886
0.082038838	0.85604655	0.067280524	0.631569862	0.149026688	0.652498006
0.091298553	0.07818162	0.869116791	0.66847052	0.65712232	0.162633126
0.028206061	0.028091578	0.881767668	0.694692054	0.694937826	0.175442349
0.067647969	0.067639372	0.067961949	0.636360663	0.636299346	0.636637081
0.877132295	0.459086184	0.421976698	0.170321615	0.590391908	0.554517127
0.856265404	0.079520184	0.071817726	0.149300477	0.647781043	0.627547482
0.147421238	0.859766903	0.84590104	0.56279259	0.152473091	0.150344007
0.405914245	0.877343927	0.480604243	0.532755077	0.170554032	0.575083722
0.14178788	0.86132974	0.84502761	0.564595911	0.154379442	0.150188556
0.081923033	0.304266265	0.288835719	0.619979203	0.619095512	0.617621664
0.877348838	0.484734925	0.392864574	0.170587114	0.625305891	0.582581496
0.877346249	0.437067157	0.446347327	0.170601448	0.575720461	0.546072915
0.872716254	0.873917507	0.055336215	0.164757636	0.167993101	0.654717536
0.876968678	0.480764154	0.401165596	0.170264802	0.589615144	0.547572751
0.41434458	0.877176913	0.474694578	0.568656758	0.170617495	0.60766055
0.854500146	0.116685093	0.86259747	0.155392698	0.590428129	0.1553647
0.07968091	0.071528311	0.855478643	0.647565513	0.627598312	0.149085863
0.881139488	4.87629E-06	4.9041E-06	0.175369108	0.699061414	0.699264623
0.215247928	0.826644027	0.21323534	0.580070836	0.119050021	0.608218228
0.876272987	0.88333509	0.02732337	0.170452618	0.17571268	0.695131291
0.469865285	0.415739433	0.877393737	0.5754236	0.536261477	0.170586711
0.861918705	0.844723705	0.137236552	0.154583998	0.148930513	0.566178169
0.083401792	0.102201899	0.841809562	0.631196299	0.60577755	0.134713433
0.87691243	0.438445477	0.438440682	0.170303981	0.626598675	0.596478894
0.401252717	0.876875736	0.480362931	0.548261388	0.170160615	0.590295704
0.877528877	0.470296092	0.419740291	0.170842416	0.559682569	0.521019605
0.480869116	0.410202664	0.877545775	0.559261624	0.517666892	0.170464189
0.466030239	0.424420386	0.877306358	0.608365335	0.571783228	0.170557464
0.091767852	0.074505066	0.856545835	0.645672788	0.625431851	0.150017389
0.855784235	0.123099486	0.863457031	0.155831818	0.588346339	0.155035538
0.079723174	0.071556696	0.855601866	0.648155466	0.627212434	0.149082602
0.877680086	0.480930776	0.410282164	0.170859607	0.559563917	0.517361849
0.855423331	0.079612649	0.071750161	0.149280657	0.647763151	0.627790118
0.47056205	0.420018926	0.878073894	0.559665245	0.520995886	0.170857837
0.841880202	0.092712768	0.099678016	0.134793395	0.629665451	0.60435265
0.08630433	0.868945669	0.08310142	0.6651051	0.162493849	0.67741905
0.866806155	0.866819679	0.095342931	0.159286791	0.16247463	0.617291738
0.855777014	0.12310686	0.863042401	0.155730726	0.588393999	0.154979048
0.448825642	0.439596879	0.877487423	0.559695317	0.527849028	0.170733453
0.869114982	0.090620932	0.075907479	0.16265845	0.672158989	0.659820918
0.09933512	0.841708934	0.103235037	0.602394676	0.134925415	0.62765283
0.866786857	0.866790468	0.095413137	0.159401238	0.162497173	0.617183968
0.882928121	0.054280792	0.875759077	0.17500078	0.690582387	0.170783058
0.877858762	0.481043271	0.410336009	0.170433718	0.559294929	0.517599994
0.825795926	0.253325026	0.254345426	0.118966586	0.612573598	0.583807561
0.455055623	0.435890788	0.877380248	0.610877078	0.577410726	0.170593578
0.439720249	0.877584275	0.44877847	0.527464665	0.170772393	0.559900391
0.87236151	0.874638302	0.047159537	0.164858139	0.168152942	0.657084865
0.85593685	0.091226665	0.074200689	0.149330072	0.645807404	0.625575745
0.062505275	0.062483636	0.062457178	0.638411028	0.63844272	0.638539375
0.877368219	0.459141432	0.422143092	0.170372477	0.590780041	0.554975128
0.111442897	0.864217484	0.856317023	0.592066577	0.155931093	0.155149614
0.875693536	0.883456781	0.027331715	0.170672468	0.175822155	0.695404966
0.088007416	0.867022101	0.86660044	0.619611152	0.159652936	0.161970969
0.087543611	0.078007291	0.868901224	0.672564277	0.661566451	0.162594622
0.131681573	0.312666918	0.211986567	0.622088285	0.623291598	0.622021816
0.435818582	0.877272139	0.448120987	0.542835262	0.170553377	0.575736324
0.124665142	0.103200063	0.841702229	0.624157246	0.598505563	0.135103425
0.872896306	0.875888555	0.047444665	0.165341074	0.169082742	0.657149173
0.881432318	4.82594E-06	4.91174E-06	0.175454093	0.698842102	0.699309876
0.073137668	0.855326329	0.082113283	0.627644531	0.14924829	0.647561167
0.11143836	0.864161143	0.855621088	0.592140636	0.155835524	0.155063796
0.469947621	0.411784119	0.877651728	0.590506374	0.551681579	0.170403765
0.448036446	0.877331484	0.443723561	0.577584004	0.170568539	0.607823371
0.405693054	0.877337661	0.480782845	0.532757495	0.170558932	0.575048699
0.864450683	0.854783296	0.107768064	0.156289805	0.154351012	0.593672398
0.062506413	0.062481128	0.062443358	0.638357501	0.638339346	0.638509
0.066646757	0.078527295	0.855807414	0.653472909	0.63318688	0.149599022
0.067660972	0.067575188	0.067847011	0.636303703	0.636292743	0.636636363
0.077074824	0.867018454	0.865534823	0.623174567	0.159863212	0.161324484
0.883110316	0.040855381	0.875544034	0.174937714	0.692990612	0.170630669
0.14549897	0.132102966	0.825166936	0.60208472	0.572988396	0.119431559
0.073332982	0.855387228	0.07194504	0.628982354	0.1490408	0.649291844
0.825109645	0.147054123	0.132782897	0.119102055	0.60373563	0.57594891
4.89957E-06	4.91287E-06	0.881979944	0.699100924	0.699327782	0.175283263
0.10329752	0.841760993	0.125148568	0.598473345	0.135130492	0.62355729
0.079576049	0.869062986	0.092496979	0.658927171	0.162743281	0.670283405
0.44631962	0.877320028	0.437066737	0.546059511	0.170563342	0.575727392
0.877428128	0.877714522	0.877403749	0.17069206	0.170520041	0.170271046
0.872251209	0.874170676	0.055346181	0.164833062	0.168097884	0.654717825
0.881397755	0.041180282	0.040963434	0.17532589	0.692532894	0.693043001
0.872380646	0.87508552	0.075944944	0.165169044	0.168970718	0.650398622
0.065210913	0.871369413	0.873906833	0.652816237	0.16465018	0.168238619
0.863910523	0.854626922	0.107698822	0.156341851	0.154172171	0.593930985
0.877342866	0.437071386	0.446338434	0.170588272	0.575737161	0.546083493
0.473556396	0.404164705	0.87761008	0.625923195	0.586150866	0.170710057
0.080457268	0.854819487	0.104250698	0.623464901	0.149304335	0.643145023
0.427116215	0.877672638	0.45054166	0.593066786	0.170823381	0.626463226
0.877197616	0.459162256	0.421938965	0.170284767	0.590458377	0.554575616
0.866750147	0.865574996	0.081851364	0.159225836	0.161378793	0.621465044
0.864079186	0.855893329	0.116631544	0.155637337	0.155641654	0.590330918
0.07045018	0.051389725	0.082097859	0.673469652	0.672673064	0.674821952
0.402795227	0.877365605	0.485792345	0.56488864	0.170493948	0.607599293
0.146489307	0.131148528	0.825328668	0.602179296	0.573084643	0.119427197
0.484980888	0.39312092	0.877850788	0.625185252	0.582627142	0.170721131
0.041490379	0.881805261	0.041654352	0.692941829	0.175270729	0.692824877
0.871375817	0.874974178	0.046318391	0.165085128	0.168533302	0.658054921
0.881498132	0.041159514	0.040860102	0.175367888	0.692901161	0.692783872
0.087176683	0.868561145	0.084268948	0.664450265	0.162577104	0.677220098
0.131681801	0.826162374	0.149161338	0.576036579	0.118969131	0.603546391
0.04540695	0.048228128	0.053701009	0.655504419	0.656482783	0.655295029
0.85563304	0.065378081	0.079158496	0.148784036	0.652528575	0.631578029
0.44497913	0.877571407	0.43866047	0.562581332	0.170784686	0.592332187
0.877578878	0.877747927	0.877683551	0.17072445	0.171020143	0.170965053
0.415569179	0.877396605	0.469972758	0.536199475	0.170539686	0.575458054
0.874889522	0.065250306	0.871241997	0.168646225	0.652692544	0.164842323
0.040861632	0.876089721	0.88333809	0.693141445	0.170609212	0.175525044
0.883063582	0.013706685	0.876227307	0.175119323	0.697336524	0.170503309
0.877964274	0.48112952	0.410352904	0.170617474	0.559434415	0.517389073
0.102206807	0.841370898	0.083409495	0.605866499	0.134751636	0.631410111
0.864484992	0.855535571	0.111456116	0.156214115	0.155397686	0.592229297
0.438906295	0.877842866	0.438910968	0.596533693	0.170610229	0.626485416
0.133745704	0.86200193	0.844360034	0.567774355	0.154847279	0.147858
0.102224339	0.841249946	0.083344577	0.605821742	0.134797163	0.631330267
0.438288274	0.444332911	0.877113077	0.591870036	0.561747997	0.170447199
0.866287359	0.077119583	0.868277793	0.161157777	0.623244302	0.15982617
0.014474852	0.881508264	0.014286912	0.69733144	0.175332292	0.696944953
4.90778E-06	4.84087E-06	0.881652207	0.699278371	0.699128233	0.175128497
0.027327822	0.876498217	0.88384238	0.695250899	0.170939252	0.175781298
