Va	Vb	Vc	Ia	Ib	Ic
0.874185294	0.050130792	0.872262584	0.16825929	0.658829162	0.164955497
0.874859906	0.047225646	0.871465622	0.168384049	0.656937942	0.164814093
0.100165278	0.080876324	0.869050905	0.668544358	0.65660313	0.162620714
0.856369066	0.068675798	0.072113021	0.14939798	0.649758538	0.628649263
0.014296159	0.881345187	0.014389891	0.697463357	0.175494138	0.696886883
0.404169197	0.877614483	0.4735561	0.586256271	0.170693408	0.625734287
2.75873E-06	0.000002888	2.85854E-06	0.699300052	0.698701121	0.698426913
0.041137997	0.040881194	0.881769008	0.692626227	0.693006174	0.175198138
0.073293464	0.855406537	0.071922857	0.629075183	0.149154619	0.649226449
0.146741311	0.13274423	0.825882342	0.601363169	0.57185731	0.11988592
0.876650092	0.883345692	0.040860509	0.170789723	0.175885598	0.693142451
0.04540695	0.048228128	0.053701009	0.655504419	0.656482783	0.655295029
0.875089265	0.076031086	0.871396623	0.168482551	0.650501417	0.164497417
0.877298361	0.440333129	0.444048864	0.170516235	0.608045356	0.577725668
0.864870805	0.8553484	0.111455369	0.156212636	0.1551629	0.591942503
4.90467E-06	0.880557003	4.86603E-06	0.699243081	0.175178249	0.698865639
0.872002371	0.874266752	0.04721333	0.164828335	0.16803839	0.657090393
0.392925695	0.877435395	0.484762312	0.582439688	0.17048552	0.625286869
0.062471206	0.062476134	0.062429029	0.638268202	0.638466656	0.638508709
0.877408453	0.462004104	0.415431099	0.170536109	0.626107544	0.589877476
0.079295025	0.869039625	0.092584037	0.658390801	0.162592142	0.670012629
0.068793498	0.071385751	0.855123569	0.649829679	0.62976981	0.14890717
0.137217359	0.859976937	0.844440699	0.566351502	0.154184721	0.148992516
0.863260769	0.856485208	0.123133781	0.155761676	0.156551378	0.588472976
0.099806892	0.126700316	0.167955966	0.616970366	0.619271971	0.616387751
4.91964E-06	4.86917E-06	0.88209418	0.699244785	0.699370684	0.175084437
0.047129875	0.8715516	0.874462274	0.656950841	0.164402917	0.16807532
0.103517123	0.841296554	0.125076568	0.598475519	0.135267493	0.623390845
0.099337657	0.8418591	0.103069052	0.602324504	0.134897421	0.627676167
0.074867925	0.074912687	0.075251224	0.634454496	0.634317142	0.634425414
0.87735624	0.437069907	0.446354336	0.170599367	0.575718663	0.546078843
0.447622079	0.432331221	0.876806594	0.590808611	0.558365349	0.170292998
0.866498207	0.865708312	0.104034029	0.159283329	0.162483581	0.615225547
0.42210618	0.877455326	0.458970797	0.555310847	0.170427487	0.591147146
0.855694906	0.091245479	0.074146546	0.149438595	0.645259369	0.625728302
0.041124119	0.040876017	0.881541489	0.692417465	0.693014741	0.17526507
0.473482122	0.404103856	0.877474116	0.625882235	0.58605282	0.170538883
0.46578927	0.424556063	0.877380631	0.60883374	0.572187485	0.170599837
0.876612286	0.883973753	0.013706999	0.170763104	0.175992336	0.697368371
0.080272864	0.855298704	0.104399176	0.623460867	0.14917579	0.643364294
0.103919426	0.867146201	0.866775763	0.615764922	0.159364534	0.162934618
0.056323036	0.044838257	0.074991534	0.675570593	0.674667221	0.675936766
0.111414176	0.864092405	0.855805635	0.592068505	0.156327459	0.155237905
0.047131117	0.871157735	0.873829732	0.656820812	0.164555883	0.167768013
0.147434776	0.860748322	0.846004274	0.562776514	0.15310386	0.150749624
0.85945056	0.846224611	0.153982399	0.152198942	0.151364547	0.560963415
0.143662731	0.134603077	0.097752614	0.619238993	0.616938128	0.616072743
0.437114265	0.44638024	0.877427644	0.575776737	0.546061193	0.170600851
0.044584783	0.049673739	0.051475968	0.657827198	0.658639528	0.658496538
0.480907516	0.410201115	0.877578904	0.559482893	0.517511563	0.170751259
0.881620157	0.02773857	0.02769102	0.175436563	0.694296749	0.694825683
0.041295268	0.882527895	0.041612048	0.692787184	0.175574789	0.692604947
0.877473531	0.473724423	0.410058023	0.17056275	0.609089667	0.569181964
0.877770774	0.484936376	0.393085939	0.170806538	0.62519684	0.582569233
0.081543623	0.867614723	0.865722818	0.621375094	0.15990041	0.161487867
0.088017084	0.867135742	0.865926206	0.619426717	0.159526346	0.162113366
0.070292394	0.071324766	0.073861862	0.649708171	0.650105224	0.650345583
0.85607431	0.116696578	0.863410493	0.155370326	0.590448939	0.155258788
0.111397424	0.864732786	0.855041396	0.592062353	0.156331206	0.155295222
0.439025213	0.878081312	0.439029937	0.596299427	0.171216438	0.626728125
0.070550302	0.051623974	0.082962342	0.673346298	0.672541115	0.674503538
0.877248005	0.469740667	0.415487987	0.170613634	0.575329557	0.536042696
0.881601253	0.041164165	0.040993846	0.175355255	0.69287109	0.692915284
0.102914175	0.133339794	0.180233053	0.617718637	0.620948602	0.621592629
0.871486361	0.875559199	0.055330138	0.165108396	0.168718749	0.654858103
0.413312598	0.877415221	0.47607426	0.56658597	0.170548069	0.606531836
0.881351419	0.027574104	0.027412619	0.175464991	0.694266372	0.695024155
0.014131441	0.881441699	0.014307726	0.697309307	0.17541341	0.69703812
0.856249987	0.064692436	0.078685968	0.149049553	0.65265947	0.631469833
0.486692965	0.401556415	0.877406117	0.609850291	0.566533465	0.170499532
0.876251301	0.883975784	0.054275349	0.170887171	0.175676912	0.690507515
0.871688433	0.875640335	0.065169668	0.164868141	0.169141718	0.652715566
0.825939161	0.185693527	0.187849624	0.118790468	0.61011945	0.580337113
0.841392077	0.102911765	0.098979563	0.134981566	0.62778081	0.602812583
0.860967767	0.845283111	0.14177293	0.15381623	0.149940967	0.564511117
0.882542373	5.49957E-06	0.875277423	0.174540454	0.699341008	0.170159468
0.054696897	0.05513233	0.054813898	0.690293852	0.690260338	0.69097349
0.059445569	0.064496717	0.063486705	0.65206274	0.651347629	0.651317337
0.099664054	0.841877818	0.092665557	0.604340503	0.134890826	0.62976892
0.072817273	0.855718907	0.082705916	0.62773695	0.14940524	0.647567467
0.143301949	0.826947681	0.149730716	0.576929779	0.119120469	0.604978551
0.877482551	0.450448107	0.427019835	0.170481347	0.626419207	0.59320301
0.875549873	0.883945667	0.054270971	0.170680267	0.175405318	0.69043473
0.860296674	0.845954847	0.147454956	0.153085791	0.150711157	0.562528072
0.405920895	0.877344562	0.4806022	0.532755425	0.170553956	0.575083432
0.107678047	0.865796548	0.854963207	0.593977024	0.156932867	0.154687314
0.866501376	0.865692707	0.104043447	0.159281803	0.162485398	0.615209465
0.459035163	0.425766166	0.877376741	0.575487005	0.539360436	0.170580845
0.867419806	0.866737219	0.095423512	0.159246655	0.162566569	0.617825387
0.404253349	0.877765792	0.473624309	0.586214423	0.170659798	0.625708065
0.404183205	0.877645102	0.473572948	0.586220218	0.170798172	0.625867345
0.05464715	0.054790952	0.054572765	0.69054826	0.689906901	0.690290625
0.855773513	0.091241149	0.074214968	0.149382226	0.645152197	0.625851096
0.056223766	0.044724675	0.074827502	0.674365128	0.674781109	0.675726984
0.08168501	0.86748009	0.865445219	0.621317418	0.159839528	0.161565691
0.070193001	0.065500958	0.085556333	0.670388572	0.671073928	0.672732935
0.140435035	0.132590964	0.825273479	0.605402112	0.577647182	0.11868542
0.404227466	0.877715756	0.473600904	0.586226688	0.170856696	0.625899951
0.865186064	0.07710874	0.868126317	0.161549478	0.623196073	0.160083352
0.884039413	0.027325023	0.875134094	0.175592739	0.695213586	0.170301628
0.054561482	0.055098643	0.055058566	0.690483981	0.689869641	0.690618405
0.446905107	0.877346229	0.443235941	0.576951713	0.170572638	0.607844675
0.860676393	0.84360666	0.137237407	0.153784846	0.148573898	0.566148599
0.875383067	0.075976773	0.87152488	0.168990978	0.650487087	0.164679193
0.860592747	0.845987596	0.147411549	0.153287134	0.150849671	0.562754041
0.130404755	0.863173193	0.857472	0.586307541	0.155097084	0.157382099
0.476220966	0.412949171	0.877342269	0.610630014	0.57086136	0.170535795
0.863474055	0.856822098	0.130371712	0.155116518	0.156848019	0.58650534
0.825629676	0.274689899	0.276260172	0.118573362	0.611497673	0.585782135
0.86891387	0.090130453	0.076009455	0.162711353	0.671517409	0.659233687
0.876179375	0.88353307	0.040861829	0.170785622	0.17590562	0.693161108
0.041287399	0.041000579	0.041390467	0.693255294	0.691744514	0.692505444
0.476036572	0.413057532	0.877335692	0.610540451	0.570857518	0.170524656
0.864883517	0.854906218	0.111440077	0.156207807	0.155159437	0.591894715
0.87734892	0.459010499	0.425596633	0.170580336	0.575609344	0.539612727
0.841062559	0.083352514	0.102222159	0.134836998	0.631246354	0.605944028
0.423928147	0.87734109	0.465566224	0.573035399	0.170555598	0.609692127
0.876526741	0.883076963	0.054265747	0.171585511	0.175169109	0.690408544
0.843872228	0.141731414	0.861027749	0.149714979	0.564640182	0.153776932
0.845686207	0.141778931	0.861114286	0.150192292	0.56455592	0.153991535
0.102906088	0.078846426	0.85559055	0.643345172	0.623386764	0.149246242
0.867096415	0.86585056	0.077280636	0.160100388	0.161786419	0.622717841
0.877326341	0.459020317	0.425558473	0.170600837	0.575692629	0.539643165
0.401164061	0.876512721	0.480083759	0.548295848	0.17009985	0.590239565
0.866984879	0.104011318	0.866309318	0.16283503	0.6152608	0.159154468
0.877495048	0.439839111	0.444920816	0.170625352	0.609710378	0.579253358
0.883227655	0.013705177	0.875783567	0.175060347	0.697280828	0.170577829
0.859228796	0.845973974	0.154001749	0.152369972	0.151445927	0.56091422
0.480760176	0.40144307	0.877522761	0.590207517	0.54809057	0.170482813
0.877342777	0.459021186	0.425582976	0.170598803	0.575689815	0.539651017
0.056293326	0.044928009	0.075251088	0.674999935	0.674734932	0.675594724
0.07599673	0.871768154	0.874906806	0.650497143	0.164419226	0.168870876
0.473470501	0.404089263	0.877448248	0.625801798	0.586127471	0.170677105
0.054604579	0.054292183	0.882000627	0.689931874	0.690780388	0.175253583
0.438880801	0.438876082	0.877783104	0.626684467	0.596344223	0.170647034
0.876608257	0.884339993	0.054275585	0.170922924	0.175634139	0.690518911
0.103332869	0.078851522	0.856176377	0.643120925	0.623703865	0.149696337
0.044672584	0.872690253	0.874848194	0.659193446	0.165634178	0.168413842
0.856180867	0.111436783	0.864650715	0.154938055	0.592091444	0.155752343
0.078785123	0.86885122	0.088512828	0.664280384	0.162671089	0.674275072
0.470051321	0.411753373	0.877695707	0.590665225	0.551452809	0.170699376
0.875647737	0.07599929	0.871464062	0.168869586	0.650412344	0.16442889
0.446288964	0.877272089	0.437049954	0.546070665	0.170532644	0.575744686
0.882475859	0.027845079	0.027518838	0.175394453	0.695002746	0.694887179
0.041155874	0.881506998	0.041773668	0.693039028	0.17545513	0.692572995
0.876823995	0.884253654	0.013707146	0.170866281	0.176141592	0.697382699
0.081948385	0.855825871	0.06868129	0.633527181	0.149001837	0.654262285
0.044680928	0.049522233	0.052054298	0.657375281	0.658040472	0.65864571
0.462138703	0.415577748	0.877689145	0.626245305	0.589631125	0.170760506
0.843860542	0.133711512	0.863136699	0.148489936	0.567777555	0.155742284
0.877042868	0.469957063	0.41197141	0.170163069	0.591476376	0.5527288
0.877664647	0.438821776	0.438817058	0.170949673	0.626589352	0.596437631
0.081576174	0.867635882	0.865507415	0.621185536	0.159778777	0.161742045
0.465996539	0.424423571	0.877281958	0.608274189	0.571675709	0.170555904
0.877266386	0.459484845	0.429417287	0.170407978	0.559799579	0.524422159
0.103138467	0.099064029	0.841632562	0.627698703	0.602571823	0.134958843
0.133696213	0.862121986	0.84416359	0.567796829	0.155213157	0.14817758
0.045268222	0.87223212	0.874721698	0.659057616	0.165444659	0.168560656
0.877605111	0.448067772	0.43297841	0.170647889	0.591226079	0.55867787
4.82853E-06	4.91795E-06	0.881697881	0.699277796	0.699183154	0.175245413
0.846418934	0.846865054	0.845206236	0.256514042	0.257028002	0.256729509
0.220642259	0.217718629	0.826156232	0.606699285	0.581914172	0.119159457
0.876053765	0.884083154	0.027330125	0.170610866	0.175853805	0.695287275
0.140608676	0.130674084	0.825795307	0.606045746	0.577307298	0.119216762
0.855705669	0.10757017	0.86501081	0.155277322	0.593753171	0.157081185
0.41580785	0.877438453	0.469841374	0.536177387	0.170522944	0.575473899
0.095599128	0.866733363	0.866469176	0.617427555	0.159440395	0.162629382
0.869134254	0.076865889	0.080073576	0.162545481	0.676747461	0.664440279
0.881163639	4.85032E-06	4.84717E-06	0.175388215	0.699095249	0.699441193
0.856115124	0.12305399	0.86407246	0.156467144	0.588533736	0.155786971
0.127355494	0.293377354	0.198594934	0.621827126	0.624758439	0.623535377
0.062509234	0.062480994	0.062409186	0.638245339	0.638262582	0.638517923
0.040856018	0.874222757	0.881529788	0.693070953	0.169927639	0.175109644
0.080420587	0.856230981	0.104280881	0.623627129	0.149409669	0.643654123
0.857702713	0.123142931	0.86357847	0.156328884	0.588533572	0.155316637
0.014298618	0.881569095	0.014471419	0.69745539	0.175461947	0.697019732
0.877760179	0.484933008	0.393079885	0.170647724	0.625325185	0.582613044
0.855724974	0.123093912	0.864004926	0.156199004	0.588319536	0.155365061
0.883441867	0.054272367	0.87635738	0.175063928	0.690472452	0.170969133
0.758460528	0.758400648	0.760820263	0.384158017	0.383602659	0.38368133
0.866244562	0.866854155	0.104461709	0.159072283	0.162680595	0.615421034
0.857429504	0.123115616	0.863592338	0.156111608	0.588519184	0.154944544
0.437053886	0.446298827	0.877284589	0.575713687	0.545996874	0.170577508
0.856021217	0.111469712	0.863910979	0.155708788	0.592106571	0.156728262
0.480598278	0.410009911	0.877066591	0.559239443	0.517551132	0.17062849
0.076982935	0.868195237	0.865953317	0.623249017	0.160251501	0.1614248
0.826056219	0.224670709	0.224415633	0.11875162	0.609169186	0.581096611
0.869049661	0.097986778	0.080919265	0.162780211	0.669357913	0.655731146
0.86568608	0.081532046	0.867558066	0.161671457	0.621136209	0.160005615
0.874923989	0.0553735	0.871906424	0.168547806	0.654843316	0.164327178
0.062489196	0.062476266	0.062461262	0.638326144	0.638502258	0.638484311
0.091284488	0.07831144	0.868857918	0.667975814	0.657364146	0.162568979
0.10355226	0.84135836	0.124991208	0.598542185	0.135288867	0.623395498
0.087342177	0.079550559	0.868756451	0.672430204	0.660124218	0.162655915
0.84169917	0.125072731	0.103845959	0.135290809	0.62318395	0.597750643
0.843197534	0.133789471	0.861885656	0.147653808	0.56776657	0.154693753
0.403057127	0.877392692	0.485611371	0.56474959	0.170534994	0.607399265
0.758101685	0.75704157	0.754361411	0.383834027	0.384581379	0.384007899
0.46569182	0.424390757	0.877241579	0.608641673	0.571966531	0.17057318
0.877306086	0.448093717	0.435829443	0.170584045	0.575624776	0.542735046
0.881290338	4.93147E-06	4.86118E-06	0.175381591	0.699215657	0.699676858
0.826199058	0.201181984	0.210069124	0.119027103	0.608455719	0.577896973
0.171338772	0.160844495	0.09363144	0.616536645	0.615641457	0.61589528
0.877462744	0.480557922	0.405679108	0.17052334	0.57500682	0.532622856
0.87670743	0.883315092	0.040860447	0.170784671	0.175893233	0.693140756
0.100197052	0.082259884	0.868879588	0.667156639	0.656363638	0.162656034
0.435856056	0.877228406	0.447985366	0.542823323	0.170588734	0.575762307
0.401605849	0.877595642	0.480732721	0.548225895	0.170460688	0.589948653
0.099300013	0.841937226	0.103131555	0.602304631	0.1348891	0.627716811
0.045264939	0.871607646	0.874853514	0.659052141	0.165507901	0.168700776
0.132761575	0.825704359	0.149425601	0.575014727	0.118903656	0.603951627
0.074532062	0.855727225	0.091454963	0.625654478	0.149858672	0.645631351
0.111499888	0.863641847	0.854531995	0.592090239	0.155956014	0.155121089
0.871199046	0.87405594	0.047173442	0.164843618	0.168101538	0.657079111
0.422058278	0.877451532	0.45899963	0.555297134	0.170314678	0.591107283
0.846581584	0.141770327	0.862573048	0.149963418	0.564569036	0.154031652
0.080039386	0.869006971	0.092857142	0.658265626	0.162640817	0.670070878
0.045571202	0.048315822	0.05426082	0.655432809	0.656447676	0.655494102
0.841725694	0.092644812	0.099672879	0.134785453	0.629598081	0.604238778
0.856370195	0.102823671	0.078805786	0.149624088	0.64343344	0.623872417
0.470117526	0.411723333	0.877754226	0.590718258	0.55150337	0.170336461
0.459143537	0.422181535	0.877762002	0.590882398	0.554985648	0.170869599
0.411482367	0.877192799	0.469784897	0.551626071	0.170250038	0.590530424
0.027325725	0.876455831	0.883842893	0.695227358	0.171009106	0.175735498
0.872075029	0.874921414	0.046236189	0.165108023	0.168491571	0.658284166
0.443364855	0.447991165	0.877374139	0.606602776	0.576872486	0.170590077
0.099646718	0.841911203	0.092706106	0.604392398	0.134881442	0.629764651
0.84529508	0.14181065	0.861279074	0.149700372	0.564665555	0.153689689
0.437106789	0.446369209	0.877408027	0.575775127	0.546051896	0.170610332
0.137262403	0.862218266	0.845502733	0.566081055	0.154608878	0.149102484
0.103672605	0.841870966	0.125046994	0.598627603	0.135311765	0.623541581
0.13040471	0.862835561	0.857488064	0.586319274	0.155111836	0.15741002
0.111521422	0.863624892	0.854380193	0.592034408	0.155874592	0.155114535
0.866570956	0.095614566	0.867224918	0.162533214	0.617265699	0.159522748
0.480437107	0.405882506	0.877291408	0.575139888	0.532644188	0.170522099
0.855217229	0.102914999	0.078938613	0.149181227	0.643448106	0.623692558
0.855784235	0.123099486	0.863457031	0.155831818	0.588346339	0.155035538
0.877437813	0.474551111	0.478563113	0.170663854	0.562586429	0.533723806
0.860484347	0.845298987	0.14174264	0.153610806	0.149687008	0.564522437
0.439041727	0.878114256	0.439046446	0.596278343	0.171249361	0.626730612
0.854470641	0.107585244	0.865180279	0.154503155	0.593776596	0.156537901
0.133745054	0.861814954	0.844362263	0.56777684	0.155408527	0.148373336
0.882520822	0.040847231	0.876915303	0.174601562	0.692846348	0.170595946
0.013934906	0.014319046	0.013848587	0.696971771	0.697446331	0.697449644
0.142512382	0.825479991	0.146423641	0.575080497	0.118874713	0.601990671
0.82603087	0.13698428	0.126392651	0.119171493	0.60414542	0.57716869
0.825920536	0.261932829	0.280199966	0.11865012	0.609806443	0.582416635
0.872558458	0.87592721	0.075938492	0.164796771	0.169511616	0.650552858
0.081717159	0.867450175	0.865985789	0.621228268	0.159736821	0.161732384
0.869109589	0.098562834	0.080039578	0.162714003	0.669888604	0.657334239
0.059974486	0.060043208	0.059953616	0.640009937	0.640164216	0.639785329
0.102174125	0.841630696	0.08343448	0.606166338	0.134774827	0.631148316
0.062450831	0.062473256	0.062387303	0.638277872	0.638414641	0.638520414
0.027609913	0.881117701	0.027815614	0.695141015	0.175040724	0.694577673
0.873719979	0.05540007	0.871636937	0.168511225	0.654996442	0.164752888
0.090691237	0.076235708	0.868960284	0.668383767	0.658828431	0.162564793
0.438536613	0.444626038	0.877675818	0.5929936	0.562885735	0.170456565
0.846507141	0.153946829	0.859285109	0.150781309	0.560926965	0.151658096
0.856750655	0.130438388	0.863168692	0.156670655	0.586486942	0.1545162
0.083449871	0.305022233	0.283425026	0.619722228	0.620245706	0.619385146
0.864317403	0.854809267	0.107722463	0.156287255	0.154327971	0.593663616
0.447867999	0.432541495	0.877269799	0.590890164	0.558276493	0.170241829
0.42961555	0.877656286	0.459688381	0.524430577	0.170846292	0.559753043
0.497274403	0.514486795	0.878165112	0.5619216	0.533846624	0.170635676
0.44631962	0.877320028	0.437066737	0.546059511	0.170563342	0.575727392
0.080769923	0.85575201	0.067840888	0.631408918	0.149033334	0.652272164
0.099674625	0.841769279	0.092661	0.604308343	0.134887688	0.629755117
0.087767354	0.86704647	0.865714469	0.619621136	0.159704109	0.162394383
0.065194573	0.871317764	0.873941921	0.652668048	0.164382228	0.168658018
2.76174E-06	2.86775E-06	2.84442E-06	0.699171171	0.699442525	0.699504155
0.877369306	0.484744155	0.392876053	0.17058295	0.625305363	0.582581377
0.01370577	0.875702348	0.883809702	0.697220311	0.170906615	0.175687754
0.074732811	0.856314149	0.091360729	0.625803071	0.149661784	0.645643485
0.013811957	0.014406991	0.014096314	0.697036756	0.69742951	0.697532368
0.040856704	0.876052215	0.882825521	0.693063997	0.170431349	0.175411017
0.566628167	0.877261313	0.553534758	0.53711994	0.170485783	0.565720142
0.877999625	0.448979708	0.439924528	0.170667376	0.5599916	0.527614086
0.421719227	0.87708581	0.458995008	0.554915877	0.170045327	0.590277202
0.099675075	0.841634659	0.092667625	0.60451346	0.134894237	0.629752178
0.866628945	0.865779283	0.08818346	0.159415044	0.162029029	0.619500927
0.139337548	0.131970261	0.826219253	0.606070461	0.577332751	0.119231628
0.040480052	0.046473949	0.074350042	0.677746398	0.677110907	0.679579876
0.0798954	0.071485073	0.855745773	0.647695839	0.627577419	0.149358778
0.039853719	0.046545418	0.073682346	0.677507453	0.676646997	0.678008377
0.083390262	0.102162713	0.841479194	0.630966027	0.606192186	0.13485033
0.877396097	0.459551952	0.429495281	0.170365165	0.559732233	0.524409031
0.081754806	0.855943682	0.067409215	0.631556222	0.149028306	0.652382338
0.486582234	0.401631095	0.877413504	0.609964453	0.566657216	0.170491874
0.045240898	0.871929749	0.873781246	0.659024725	0.165280134	0.168165359
0.481009807	0.410251515	0.877745968	0.559310478	0.517516889	0.17057654
0.131219114	0.82607692	0.15002684	0.576254583	0.118908728	0.604010374
0.104026133	0.86691974	0.866813079	0.615816776	0.15918776	0.162821062
0.411610402	0.87752918	0.46999034	0.551576335	0.170522853	0.590518528
0.113963671	0.100098423	0.842183427	0.625871171	0.600654888	0.135060876
0.826231497	0.260135105	0.280849006	0.118647926	0.612889334	0.585719846
0.422107786	0.87745424	0.458969612	0.555310786	0.170429854	0.591147702
0.462029564	0.415476246	0.87747801	0.626331075	0.589638815	0.170684837
0.855349386	0.079637926	0.072041768	0.148839328	0.647898094	0.627974467
0.113927246	0.100075925	0.841918923	0.625860082	0.600603773	0.135039988
0.044521112	0.8724221	0.873807793	0.659274284	0.165118423	0.167975386
0.074897738	0.07483585	0.074992886	0.634095265	0.634352887	0.634626004
0.497008578	0.512421768	0.877472373	0.559547716	0.53139094	0.170609443
0.874448157	0.076028025	0.87135094	0.168488453	0.650479815	0.164525636
0.100321514	0.841796276	0.114023462	0.600591538	0.135132241	0.62555372
0.87548175	0.075975866	0.871347083	0.168995898	0.650484223	0.164677147
0.099889537	0.081372813	0.86923778	0.669208302	0.657360376	0.162725346
0.87497182	0.076020867	0.871220501	0.168641848	0.650563729	0.164566935
0.862129666	0.84267338	0.13371745	0.15504431	0.147751993	0.567714892
0.866916647	0.86662016	0.095438353	0.159330022	0.162611648	0.617850451
0.868957918	0.080381926	0.077405935	0.162524955	0.674721347	0.663045046
0.092628529	0.08045666	0.869081735	0.667826741	0.656866378	0.162713259
0.877327026	0.448119137	0.435810358	0.170584115	0.575667169	0.542785671
0.077681594	0.080980607	0.86896632	0.678254919	0.666147257	0.162531923
0.113767774	0.10031857	0.84180417	0.626257656	0.600769597	0.134975537
0.065200627	0.87168162	0.875023905	0.652841548	0.164483111	0.168682801
0.855276324	0.064281128	0.077953473	0.148867964	0.653415207	0.632410774
0.883405924	0.013707597	0.875858602	0.175048911	0.697369811	0.170445669
0.130403356	0.863581369	0.857561419	0.586392734	0.15513307	0.157431417
0.072992425	0.855306903	0.071498862	0.629437529	0.149103021	0.649530725
0.855893978	0.068704037	0.071885657	0.149486966	0.649846649	0.629942577
0.825630461	0.276270836	0.28462446	0.118295746	0.610030607	0.584759008
0.429693921	0.877825808	0.459773252	0.524422733	0.170577049	0.559703854
0.882006513	0.027571438	0.027406527	0.175474273	0.694349601	0.694809447
0.066709281	0.078668491	0.855794462	0.653598869	0.633164845	0.149596113
0.103100698	0.078910477	0.856632432	0.64358907	0.623871785	0.149704735
0.014239225	0.88137257	0.0143809	0.697199784	0.175488989	0.697345727
0.113934915	0.100180066	0.842031926	0.625821319	0.60083689	0.135177954
0.877348598	0.459017925	0.425582818	0.170584011	0.575639951	0.539612859
0.877247277	0.439910504	0.444162873	0.170510047	0.608090403	0.577833454
0.040861783	0.87577616	0.883499487	0.693144691	0.170617203	0.175525569
0.041128027	0.883123034	0.041556823	0.692852667	0.175629537	0.692617013
0.33674164	0.825710486	0.33633206	0.586274847	0.118651146	0.615914114
0.877500914	0.450456584	0.427029594	0.17067165	0.62654743	0.593083507
0.123111125	0.863481865	0.85702794	0.588350015	0.155574211	0.156741645
0.123102336	0.864478819	0.857053317	0.58854144	0.155895032	0.156803751
0.877131444	0.473316953	0.403925684	0.170691483	0.625822012	0.58618275
0.062465025	0.062482752	0.062414208	0.638240881	0.638369648	0.638560892
0.44669314	0.877348761	0.444352176	0.576465934	0.170554669	0.606936392
0.014582288	0.014501008	0.882145806	0.696898694	0.697084606	0.175751082
0.101480907	0.133978436	0.178457425	0.617095644	0.62174101	0.620590641
0.868867042	0.081130948	0.078112978	0.162616129	0.673284629	0.661671053
0.127156982	0.293416607	0.198911207	0.621695468	0.624509427	0.623573102
0.864952463	0.85565339	0.111447924	0.156262766	0.155310632	0.592134371
0.14742694	0.859820675	0.844964881	0.56279301	0.15308259	0.150747202
0.877442109	0.46267272	0.420832797	0.170640393	0.609522936	0.572987504
0.10285416	0.078832612	0.855221787	0.643553085	0.623682623	0.149294575
0.095651906	0.866778843	0.865585326	0.617372059	0.159103265	0.162111186
0.877525032	0.45046742	0.427042926	0.170605167	0.626445589	0.593105377
0.403371322	0.877408506	0.485243785	0.565003236	0.170495353	0.607624107
0.846874537	0.153959616	0.859224066	0.151446239	0.560878131	0.152081397
0.083354337	0.102189285	0.841314833	0.630819453	0.606013651	0.134853728
0.422379797	0.877999082	0.459236687	0.555187545	0.170543986	0.591161605
0.078853766	0.868801258	0.08793394	0.663494322	0.162668262	0.674647066
0.868728274	0.081922654	0.078713214	0.162617086	0.673989388	0.662108715
0.062503387	0.062470846	0.062431106	0.638268183	0.638267448	0.638502639
0.881602566	0.041187528	0.040759512	0.175396992	0.692806312	0.69296825
0.883729781	0.054273422	0.876454397	0.175028153	0.690496569	0.170777001
0.047132916	0.872394084	0.873719745	0.65685811	0.164619573	0.167926507
0.480516952	0.409960818	0.876931686	0.559227384	0.517577663	0.170588607
0.059982586	0.060038777	0.059965809	0.639959889	0.640157011	0.639785618
0.130465797	0.863422106	0.857273038	0.58656203	0.155150807	0.157299182
0.102154099	0.841633844	0.08337026	0.605906078	0.134784812	0.630728051
0.436023719	0.87744536	0.448134894	0.542691202	0.170599981	0.575493587
0.866822322	0.866305811	0.095419885	0.159217922	0.162468076	0.617170329
0.884673154	0.02732715	0.876690204	0.176281553	0.695250955	0.170713054
0.027325905	0.876449173	0.883828872	0.695242522	0.17100649	0.17573167
0.08000145	0.855717675	0.104274231	0.623574443	0.149604004	0.643642957
0.866948798	0.104031915	0.866434387	0.16259736	0.615390535	0.15898403
0.216931268	0.82605543	0.217039581	0.580700505	0.119331449	0.608973412
0.868672831	0.081580735	0.078585144	0.162589788	0.674564944	0.662636699
0.438255604	0.444491305	0.877479016	0.592890522	0.563295538	0.170546084
0.059457473	0.064601407	0.063490945	0.652398314	0.651184249	0.651447533
0.486099811	0.524511309	0.87770173	0.5605506	0.53176108	0.170660883
0.244684949	0.242974211	0.825958773	0.609170794	0.584029457	0.119082204
0.083711356	0.868630523	0.08510621	0.662577662	0.162556106	0.677056556
0.027450602	0.881989747	0.027726886	0.695250252	0.175352298	0.694850786
0.8759176	0.883495801	0.054271284	0.170719547	0.175446831	0.690440257
0.013941341	0.014307663	0.013830875	0.697045447	0.697380943	0.697408202
0.415583634	0.877349609	0.469987713	0.536009271	0.170505765	0.575253538
0.877805841	0.877222947	0.878571196	0.170673342	0.170328893	0.170780912
0.083377837	0.10221473	0.841797936	0.631215031	0.605861362	0.13472679
0.872063722	0.875197461	0.055333973	0.165178785	0.168791755	0.654859391
0.087813999	0.867034045	0.865744902	0.619877928	0.1596626	0.161983868
0.102238378	0.841498656	0.083406873	0.605439424	0.134652577	0.630852147
0.133723468	0.862141268	0.843668087	0.567761136	0.155233714	0.148226365
0.845448837	0.147473147	0.859065868	0.150277296	0.562781997	0.152403178
0.855994243	0.068719117	0.071703575	0.149514487	0.649842267	0.629914277
0.062492639	0.062484696	0.062444534	0.63829203	0.638244997	0.638523406
0.068844028	0.07129217	0.855555613	0.650101313	0.629382854	0.149048634
0.825553535	0.137160598	0.128383391	0.118624872	0.60661531	0.577513174
0.871771436	0.875776717	0.075942418	0.164737518	0.169365025	0.65043483
0.863694015	0.85420485	0.107695553	0.156275722	0.154239875	0.593826344
0.846043967	0.147463035	0.859276178	0.150061527	0.562631099	0.152402085
0.877404356	0.450740542	0.432445095	0.170561905	0.609763465	0.576351938
0.137206076	0.861777303	0.843480178	0.56613419	0.153986922	0.148452979
0.86198197	0.843858173	0.133732136	0.155305651	0.148188602	0.567781494
0.148959997	0.141958631	0.096492831	0.619075167	0.616687866	0.615295757
0.055348032	0.873470103	0.875933625	0.654824173	0.165162291	0.168853933
0.826375804	0.263320875	0.272695678	0.1188107	0.613649871	0.584715454
0.027768575	0.02754718	0.028289141	0.694983486	0.694394023	0.695489964
0.868132949	0.865835961	0.077271608	0.160052768	0.161127239	0.623252543
0.86703792	0.86639978	0.088356347	0.159598301	0.162418	0.619668699
0.877275242	0.459108819	0.422089774	0.170353124	0.59076724	0.554955753
0.087913216	0.867590981	0.865946007	0.619253726	0.159734767	0.161940924
0.877652529	0.438815676	0.438810933	0.170678103	0.62652936	0.596423522
0.345273429	0.825295344	0.33221438	0.581914158	0.118638001	0.611322688
0.868976005	0.090338479	0.077040183	0.162658796	0.671472257	0.659247797
0.103962007	0.866250608	0.86625804	0.615248454	0.159056657	0.162905042
0.843809624	0.137216276	0.861288882	0.148932176	0.566219065	0.154469082
0.074862325	0.074916967	0.075057887	0.634085174	0.63436338	0.634618057
0.884435485	0.04084959	0.876988483	0.175060771	0.692878604	0.170880068
0.875779665	0.882692509	0.040862139	0.170358127	0.174882167	0.693168754
0.070210079	0.051253486	0.08218984	0.673447579	0.672522721	0.674935443
0.869135969	0.082759733	0.074666188	0.162563341	0.672732513	0.659560329
0.881264682	4.90947E-06	4.85404E-06	0.175384428	0.699166826	0.699686681
0.079754195	0.869121329	0.093257843	0.659130698	0.162733954	0.67047547
0.459073721	0.425671688	0.877383211	0.575838693	0.539642515	0.170586059
0.045233086	0.872070817	0.874810406	0.659157894	0.165540595	0.168758976
0.877348913	0.459010487	0.425596657	0.170580337	0.575609336	0.539612724
0.459093096	0.425687266	0.877381531	0.575510268	0.539394015	0.170568252
0.058491047	0.038630248	0.077059114	0.679889094	0.679027802	0.680307508
0.8601441	0.844269296	0.141734257	0.15281933	0.148885274	0.564528171
0.864537455	0.854889847	0.111456305	0.155789844	0.154684895	0.59190233
0.23411987	0.241418712	0.826000822	0.608560097	0.581145319	0.119105022
0.039552391	0.046686667	0.073475606	0.676537034	0.677108554	0.677143665
0.877387479	0.469817199	0.415549536	0.170556666	0.57540448	0.536119983
0.87733328	0.458970595	0.425611487	0.170586551	0.575637327	0.539618603
0.855212595	0.068661761	0.072039585	0.149309204	0.649892765	0.628987326
0.100047878	0.131795157	0.173619584	0.616766384	0.621425628	0.618302992
0.872321893	0.875172909	0.046419284	0.165111645	0.168479904	0.658303153
0.480745607	0.401367158	0.877432507	0.590179754	0.548327419	0.17012641
0.825607627	0.149149235	0.133717683	0.118979804	0.60466462	0.575548692
0.459028806	0.425715118	0.877315246	0.575437526	0.539324749	0.170587425
0.884359201	5.50033E-06	0.876586352	0.175515154	0.699379665	0.170833029
0.877376618	0.448091037	0.435859229	0.170624874	0.575748355	0.542887013
0.87686399	0.43842142	0.438416757	0.170331569	0.626454646	0.596513026
0.082948041	0.274873484	0.254569529	0.620206534	0.623230069	0.624647254
0.86901536	0.097772326	0.080893014	0.162764271	0.666806429	0.653972546
0.844454299	0.846331437	0.846321044	0.256438633	0.256733157	0.257026889
0.073247598	0.855264204	0.071737791	0.629294792	0.149331134	0.649563763
0.137204179	0.860284272	0.844641786	0.566437232	0.153890115	0.148669504
0.882508621	0.054747605	0.054235529	0.175742742	0.690203858	0.690371155
0.415322181	0.877177074	0.461882073	0.589722981	0.170651922	0.626168687
0.111400194	0.865657875	0.856415807	0.592158373	0.156326239	0.155323636
0.874398168	0.051093139	0.872501168	0.16827179	0.658951278	0.165033659
0.866113117	0.081523784	0.867273676	0.161568152	0.621486749	0.159447052
0.100337621	0.842069911	0.113945421	0.600863618	0.135113335	0.625654393
0.856157983	0.116692291	0.86425521	0.155844041	0.590319421	0.15603534
0.885684197	0.027327713	0.878022243	0.176170343	0.695272095	0.170764157
0.877615405	0.44879009	0.4397412	0.170716956	0.559966438	0.527628908
0.10399617	0.866952453	0.866814821	0.615620204	0.159438258	0.162908385
0.448257252	0.439100432	0.876421216	0.559737754	0.527717945	0.170465308
0.086258493	0.869257992	0.083268559	0.665396307	0.162460464	0.677420232
0.153931332	0.859683716	0.84684101	0.560909299	0.152834478	0.152010113
0.079762004	0.869040421	0.088412636	0.659871014	0.162606449	0.670597301
0.083908529	0.868892561	0.085153549	0.660410131	0.16261379	0.674921721
0.041096038	0.881777146	0.041629937	0.692818348	0.175159903	0.692913693
0.08151248	0.867671719	0.865561862	0.621351586	0.159843456	0.161623055
0.439835764	0.877853559	0.448930316	0.527529865	0.170853473	0.559933763
0.444661007	0.877376906	0.438518513	0.561815323	0.170398417	0.591262731
0.054673315	0.054888982	0.054743581	0.690456447	0.69014845	0.690883754
0.480768913	0.401475251	0.877559043	0.590035094	0.548257683	0.170413063
0.87452494	0.065235655	0.872005484	0.168535707	0.652732508	0.164751022
0.869135057	0.08250532	0.074810423	0.162603139	0.674223839	0.660498054
0.877366522	0.480781946	0.410118758	0.170354047	0.55931798	0.517576419
0.122682372	0.112894366	0.147290626	0.616647292	0.614894875	0.616099768
0.422107758	0.877454332	0.458969658	0.555310793	0.170429692	0.591147544
0.083433167	0.102227059	0.841785906	0.631202793	0.605808327	0.13472024
0.866764244	0.866013599	0.088408905	0.159441469	0.162016787	0.61914138
0.054608102	0.0541939	0.882273809	0.690120148	0.690518406	0.17582047
0.438743577	0.877517391	0.438748278	0.596502716	0.170613976	0.626445499
0.882111545	0.04100463	0.040782018	0.175409214	0.692585577	0.692861766
0.435949942	0.877419503	0.44813016	0.54269086	0.170624365	0.575603188
0.841795109	0.092707354	0.099671233	0.134798263	0.629621168	0.604345328
0.099665329	0.080982744	0.869180299	0.668859364	0.656840745	0.162632768
2.78227E-06	2.96389E-06	2.87548E-06	0.699218638	0.698922434	0.699218254
0.855323745	0.06421379	0.077911214	0.148796027	0.653419113	0.632568895
0.861375595	0.843584111	0.137123681	0.154031624	0.148462672	0.566245422
0.825572706	0.147863188	0.131306714	0.119075458	0.604692157	0.575314165
0.42729419	0.87802639	0.450717629	0.593094247	0.170753972	0.626494189
0.855092603	0.107512468	0.865305354	0.154952869	0.593721384	0.156978827
0.075977696	0.871805497	0.874772343	0.650589574	0.16459376	0.168549459
0.868815251	0.082966457	0.075183375	0.162661231	0.673435795	0.661697815
0.86551137	0.081474103	0.867614025	0.161617171	0.621251718	0.15935773
0.85551421	0.107504315	0.86590327	0.154948427	0.594002942	0.157013141
0.014112464	0.881454565	0.014303757	0.697226084	0.175423081	0.697106427
0.405913752	0.877343969	0.480604447	0.532755084	0.170554021	0.575083712
0.045484425	0.048203828	0.053933101	0.655529244	0.656450153	0.655275926
0.067701852	0.077989626	0.856187671	0.653270612	0.63288431	0.149366514
0.43836876	0.444859595	0.877706134	0.59322425	0.563482167	0.170594316
0.884864101	0.027327301	0.877133954	0.176427236	0.695243214	0.170701973
0.148606673	0.132775169	0.825576291	0.603885479	0.574940693	0.119430432
0.480554285	0.401190414	0.877059553	0.590045247	0.548052039	0.170182492
0.842846525	0.133820302	0.8615252	0.147384575	0.567693571	0.154402199
0.480773457	0.405891569	0.877446628	0.574760979	0.532331593	0.170576245
0.868031309	0.865368776	0.077558556	0.160464012	0.161695471	0.623379559
0.238513285	0.245788701	0.826258857	0.608389406	0.582144271	0.118977235
0.04136257	0.041090756	0.041852544	0.692968105	0.691928911	0.692175483
0.826172099	0.148590718	0.130432776	0.119159683	0.605112107	0.575591532
0.07305172	0.855285785	0.071649176	0.629221884	0.148772493	0.649113122
0.070381735	0.065269067	0.08510566	0.670309163	0.670671409	0.671867135
0.041132235	0.040940564	0.881566835	0.69256076	0.692916602	0.175045869
0.436197611	0.877372746	0.454326837	0.576406544	0.17052395	0.609813297
0.88403475	0.054268615	0.876421347	0.175047614	0.690425033	0.170903994
0.081694872	0.867916965	0.865733937	0.621471849	0.159821187	0.161420701
0.092757604	0.099652123	0.841404101	0.629567715	0.604406883	0.134843381
0.455081457	0.435794042	0.877427138	0.610849164	0.576976482	0.170563553
0.445048565	0.877741251	0.438284657	0.562358809	0.170505289	0.592015044
0.082175257	0.273038335	0.25623865	0.620216345	0.62333315	0.624646628
0.877578424	0.480932228	0.410171534	0.170902255	0.559588589	0.517362031
0.411486987	0.877252921	0.469843422	0.551641678	0.170214895	0.590539642
0.233781185	0.244474911	0.826009448	0.607922327	0.58102463	0.119090769
0.424365079	0.877457831	0.46531403	0.573134226	0.170552324	0.609863555
0.413696408	0.877417027	0.47574724	0.566110678	0.170658185	0.605899834
0.465730256	0.424572745	0.877381952	0.60883442	0.572196446	0.170610341
0.860960383	0.846273351	0.147402004	0.153272964	0.150942527	0.562671579
0.074548758	0.856110728	0.091416467	0.625556774	0.149761993	0.645934463
0.877431144	0.450633013	0.432384132	0.170567822	0.609632128	0.576249463
0.113720376	0.100271324	0.84180067	0.626249517	0.600781002	0.134962457
0.87761422	0.448789983	0.439740199	0.170716657	0.559966424	0.527628903
0.462023496	0.415455713	0.877452025	0.626127456	0.589827247	0.170585442
0.484677139	0.3928083	0.877234848	0.625277015	0.582632308	0.170667788
0.014244258	0.013876752	0.881785398	0.697649521	0.697423844	0.175457171
0.877504945	0.473495253	0.404121208	0.170605232	0.625762371	0.586066347
0.86437054	0.85472579	0.107782423	0.156329047	0.154393766	0.593898469
0.028165309	0.027601544	0.881439994	0.694963583	0.694907888	0.174977587
0.454526934	0.436092799	0.877336008	0.609588326	0.576341899	0.170590716
0.405822792	0.87735464	0.480687817	0.532736088	0.170628152	0.575046704
0.855516941	0.107581835	0.865485333	0.155052465	0.593671775	0.157033552
0.065213132	0.871419803	0.873782626	0.652840959	0.164646031	0.168221234
0.079351845	0.869032028	0.088766751	0.664023474	0.162636898	0.673154834
0.866081065	0.087693374	0.866561827	0.16157527	0.619340821	0.158966715
0.027768575	0.02754718	0.028289141	0.694983486	0.694394023	0.695489964
0.8724394	0.875107542	0.0475411	0.165341747	0.168447023	0.658882878
0.066704978	0.078508527	0.854673241	0.654008484	0.633778606	0.148974012
0.49671662	0.512169338	0.87752969	0.560599948	0.531680214	0.170633733
0.8657285	0.081526473	0.867589275	0.161382117	0.621170935	0.159667504
0.132800054	0.825698543	0.149461229	0.575014453	0.118903124	0.603953062
0.102879813	0.841872897	0.124958411	0.598614619	0.135140664	0.623574857
0.866766156	0.087793262	0.867493174	0.162213652	0.619803826	0.159449914
0.860310631	0.845015769	0.147503198	0.152712487	0.150291744	0.562880522
0.867023408	0.866212727	0.082022973	0.159819097	0.161635917	0.621234896
0.883791559	5.49654E-06	0.875363599	0.175533722	0.699337192	0.170566554
0.860063935	0.846932014	0.153955919	0.152348397	0.151482191	0.560929419
0.05934507	0.039305332	0.078815693	0.679421742	0.679120065	0.67989383
0.855124889	0.111452664	0.863842107	0.154683388	0.592176629	0.155735148
0.481138143	0.410316025	0.877937084	0.559299763	0.517603262	0.170506314
0.014199616	0.014468864	0.88176046	0.697617982	0.697572965	0.1752741
0.86752876	0.866466222	0.095478571	0.15948119	0.162652133	0.617404974
0.480788453	0.405835115	0.87745728	0.574761295	0.532335812	0.170575306
0.103134893	0.099066211	0.841503022	0.627706236	0.602584235	0.134966943
0.13372184	0.862439135	0.844517994	0.567772224	0.155249604	0.148240416
0.411505422	0.877195947	0.469751084	0.551563425	0.170466464	0.59057831
4.75672E-06	0.881106485	4.88823E-06	0.699075953	0.175055964	0.69894456
0.095531469	0.866916306	0.866610845	0.617320718	0.159212134	0.162510471
0.439720768	0.877627748	0.448824643	0.527487023	0.170758105	0.559985666
0.080540956	0.855883908	0.104973795	0.623347128	0.14956021	0.642777214
0.877109843	0.459158008	0.421860849	0.170393763	0.590757347	0.554880269
0.87738238	0.469814617	0.415590857	0.170568496	0.57538964	0.536110753
0.87732557	0.440119861	0.444099064	0.170502335	0.608064239	0.577781147
0.877304233	0.459152531	0.422080166	0.170438974	0.590582517	0.554753079
0.843879131	0.137130259	0.861624783	0.148845989	0.566230692	0.154332387
0.070351934	0.051642737	0.083159076	0.672896846	0.672399119	0.674354834
0.486759551	0.401540767	0.877314438	0.607666138	0.564797202	0.170477495
0.082336544	0.86910144	0.09958455	0.656328157	0.16263298	0.668842519
0.480906398	0.410109161	0.877489416	0.559294324	0.517618342	0.170495496
0.14173477	0.860405933	0.845926464	0.564527941	0.153733886	0.149925298
0.877621314	0.438335263	0.443465619	0.170683182	0.591422291	0.56172168
0.111414534	0.864090519	0.855807146	0.592068766	0.156328973	0.155238817
0.84688194	0.153946325	0.858968963	0.15145142	0.560895592	0.152069323
0.876359189	0.88332839	0.013707073	0.170391436	0.175317536	0.697336487
0.082460817	0.079581034	0.868745335	0.675249846	0.663646103	0.162586925
0.855351905	0.102862514	0.079026098	0.149397146	0.643514085	0.623566784
0.103203783	0.078868522	0.856376442	0.64368931	0.623583838	0.14962767
0.013880662	0.01415777	0.013812431	0.697069592	0.696991157	0.69678274
0.844228246	0.137230745	0.861353511	0.148736547	0.566237076	0.154155357
0.40421976	0.877716268	0.473607436	0.586201378	0.170801185	0.625855156
0.432956656	0.878033582	0.448269487	0.558404308	0.170718436	0.591482553
0.825927007	0.214267888	0.22560587	0.118699882	0.610278739	0.581360377
0.437101993	0.446329064	0.877363139	0.575754376	0.546046133	0.17059855
0.876800116	0.884252694	0.013707148	0.170866075	0.176142576	0.69738256
0.87733955	0.459009225	0.425584018	0.170582029	0.575611715	0.539607335
0.051890524	0.053873872	0.058671395	0.653981585	0.654120853	0.654050281
0.041009909	0.881882905	0.041640157	0.692915163	0.175112987	0.692915721
0.137253315	0.861510654	0.84484393	0.566347018	0.154340237	0.149215084
0.429880581	0.878082608	0.459841181	0.524321028	0.170869581	0.559889848
0.485186988	0.393329743	0.878265502	0.625323923	0.582495729	0.170577336
0.068812526	0.071241361	0.855021989	0.649733841	0.629587124	0.148962405
0.087643332	0.867030373	0.86570395	0.619906975	0.159587673	0.162037008
0.450618017	0.427193199	0.877825956	0.62659044	0.593037648	0.17050772
0.437047305	0.446296603	0.877276174	0.575728948	0.546008857	0.170577933
0.44577526	0.877355022	0.445430364	0.576702074	0.170544988	0.607060137
0.877287909	0.448092793	0.435800304	0.17058634	0.575627927	0.542734955
0.866516025	0.095021842	0.86734335	0.162260095	0.617669912	0.159466835
0.841803695	0.092664751	0.09978765	0.134809501	0.629656648	0.604303754
0.480872904	0.410275537	0.877621721	0.559424038	0.517536974	0.170685388
5.49578E-06	0.875962687	0.883694949	0.699340584	0.170562379	0.175527358
0.877076871	0.47576355	0.477485109	0.170780965	0.563046129	0.53411488
0.877376621	0.44809139	0.435858037	0.170624932	0.575749535	0.542887126
0.876259753	0.881787865	5.49502E-06	0.171191585	0.175570425	0.699103642
0.041632894	0.040950205	0.041537897	0.693057419	0.692137729	0.693312871
0.404128252	0.877517785	0.473501823	0.586225484	0.170708179	0.625818384
0.877445841	0.450725415	0.432299491	0.17055196	0.609496211	0.576145581
0.877645185	0.480912386	0.410262938	0.170749622	0.559485287	0.517333715
0.401235872	0.877033459	0.480550371	0.548558797	0.169904323	0.590364085
0.43836918	0.444855451	0.877704087	0.593224047	0.563481282	0.170594822
0.459089544	0.425766026	0.87743694	0.575537327	0.539403737	0.170569776
0.877371533	0.44808884	0.435863068	0.170625479	0.575746136	0.542884068
0.826257052	0.13716927	0.125962477	0.119150634	0.605493308	0.577934526
0.124943355	0.301364628	0.209077581	0.622250576	0.624780098	0.623073935
0.446175135	0.877381599	0.444815395	0.57658649	0.170543752	0.606982454
0.083411029	0.10222331	0.841800217	0.631200224	0.60580011	0.134717067
0.027661865	0.027522915	0.028174879	0.695353953	0.694862429	0.695333146
0.054303971	0.881738652	0.054633186	0.691022117	0.175383854	0.690322055
0.877959597	0.462277564	0.415709108	0.170564163	0.626114371	0.589845624
0.857681779	0.130474935	0.862894225	0.157171127	0.586561082	0.155038187
0.13035647	0.863123935	0.857088361	0.586429807	0.154697946	0.157180956
0.05959038	0.064236482	0.062664428	0.652160777	0.651800353	0.651973942
0.844740777	0.133729274	0.863810605	0.148903833	0.567786428	0.155687521
0.880930518	0.054493542	0.054194167	0.175114073	0.690047576	0.690223756
0.028078688	0.02802685	0.881450171	0.694795632	0.695303277	0.174879849
0.087996337	0.866850103	0.866867552	0.6193931	0.159558262	0.162128653
0.480699239	0.401380233	0.877403538	0.59012784	0.548020195	0.17040494
0.462002042	0.415442046	0.87741676	0.626074018	0.589662015	0.170475569
0.869221362	0.098411313	0.081055888	0.162677373	0.66983503	0.657342383
0.098441086	0.137552271	0.17988789	0.618205699	0.618129241	0.619247697
0.04508104	0.0487366	0.051014276	0.657237488	0.658332112	0.659068584
0.425683113	0.877442036	0.45913012	0.539347657	0.170657291	0.575341932
0.871536097	0.875463543	0.055333755	0.165284158	0.169003599	0.654892482
0.881960276	4.78754E-06	4.89702E-06	0.17548454	0.699319929	0.699140195
0.438372431	0.438367729	0.87676632	0.626620083	0.59633928	0.170442548
0.876292293	0.884448613	0.05427733	0.171141398	0.175631628	0.690563385
2.76325E-06	0.000002875	2.84296E-06	0.699158251	0.699465347	0.699506627
0.079520389	0.071537345	0.855159827	0.647925955	0.627716507	0.148939639
0.877609142	0.877929003	0.877415624	0.170723824	0.170793881	0.170804708
0.470041733	0.415588638	0.877349957	0.575338307	0.536146137	0.170550365
0.860618206	0.845539205	0.141766252	0.152953961	0.149379526	0.56457067
0.450476472	0.427052869	0.877543811	0.62649571	0.593057783	0.17066482
0.434622687	0.877306622	0.455576401	0.574090532	0.170545831	0.607838192
0.129294731	0.322928868	0.224288077	0.623145266	0.627662818	0.62286062
0.028098096	0.027506584	0.02834264	0.695180809	0.694919016	0.695180274
0.092764157	0.099647303	0.841387467	0.629535622	0.604433785	0.134889005
0.871068367	0.875916316	0.065169811	0.165014465	0.169312953	0.652718541
0.077101222	0.080480323	0.868991213	0.678425942	0.66594711	0.162495953
0.286043597	0.298014463	0.825569358	0.61618527	0.588277214	0.11871545
0.480788512	0.405834912	0.877457338	0.574761282	0.532335833	0.170575301
0.470142741	0.419728055	0.877348009	0.559614857	0.520956058	0.170582583
0.872401461	0.875152809	0.075939334	0.165177259	0.168969024	0.650402943
0.855882954	0.107566079	0.865195871	0.155211933	0.593663349	0.157104345
0.027322067	0.876472663	0.882942422	0.69510653	0.170731954	0.175278857
0.040243619	0.047277058	0.074994652	0.676466662	0.677371848	0.67733057
0.866765749	0.866001535	0.088406389	0.159440993	0.16201894	0.619132916
0.111503963	0.863947992	0.854947494	0.592074291	0.155942084	0.155124846
0.874808505	0.055426997	0.871891195	0.16871034	0.655046413	0.164807644
0.877451513	0.469914918	0.415504197	0.170590739	0.575610708	0.536295589
0.480716877	0.401341975	0.877365831	0.590083698	0.548056081	0.170892547
0.041443187	0.882106881	0.041526127	0.692641316	0.175593973	0.692126453
0.068796985	0.071391551	0.8547981	0.649674038	0.629456922	0.149166031
0.141723484	0.860453767	0.84593448	0.564530175	0.153902596	0.150111418
0.111390623	0.86533177	0.855929598	0.592266944	0.156296449	0.155519491
0.883618136	0.027325337	0.875132736	0.17531963	0.695202612	0.170011706
0.87472091	0.055374807	0.871729884	0.168388625	0.654942851	0.164254061
0.863089284	0.856021937	0.123150702	0.155163978	0.155954876	0.588564538
0.86649005	0.865640384	0.104036339	0.159302016	0.16252545	0.615197634
0.877803789	0.480991449	0.410341756	0.170945909	0.559611529	0.517418133
0.502726811	0.509623237	0.877319187	0.561397612	0.532016479	0.170633632
4.89078E-06	4.87999E-06	0.881480078	0.699430115	0.699151919	0.175017694
0.028077807	0.028186444	0.881396492	0.694758756	0.695225659	0.174858659
0.459594374	0.429639654	0.877593976	0.559693238	0.524360294	0.170636639
0.877387366	0.469817168	0.415549496	0.170556689	0.575404546	0.536119938
0.07039464	0.065210162	0.085101834	0.669940353	0.670774461	0.671881687
0.455027339	0.435873696	0.877397656	0.611027161	0.577433304	0.170589918
