Vam	Vbm	Vcm	Iam	Ibm	Icm
0.092905707	0.338603942	0.290081628	0.622617771	0.628169298	0.623328097
0.484777688	0.392909049	0.877436366	0.625467568	0.582373177	0.170776672
0.083448714	0.083656557	0.083993663	0.632371	0.632117745	0.632417046
0.146866649	0.130946684	0.825678414	0.604005608	0.574360586	0.119302431
0.154057433	0.858262096	0.846081734	0.560900823	0.151738386	0.15114421
0.875383284	0.055367289	0.871384933	0.168960601	0.654781865	0.164629489
0.041207145	0.0408576	0.882147311	0.692048371	0.692864588	0.175667032
0.873841895	0.076023678	0.87193365	0.169003462	0.650563375	0.165144039
0.855713619	0.079806622	0.071552666	0.149608325	0.64797031	0.627743571
0.841622249	0.092722273	0.099876521	0.134897619	0.629355037	0.604156583
0.125926668	0.123150132	0.200904028	0.618397177	0.619445762	0.620082322
0.081800065	0.868986403	0.092746504	0.656756132	0.16261639	0.670500675
0.877364536	0.45119365	0.432032617	0.170555991	0.610110601	0.576618699
0.422135927	0.877534441	0.45929567	0.554584163	0.170533775	0.590400718
0.825932671	0.228490948	0.236164792	0.119310812	0.607375578	0.581506797
0.437086544	0.44639882	0.877417195	0.575712852	0.546139325	0.170628393
0.877286786	0.484287234	0.399327425	0.170581108	0.608639984	0.566008803
0.855897276	0.123158593	0.863077619	0.156059159	0.588598423	0.155291387
0.141103008	0.139036424	0.097919752	0.611340347	0.611463788	0.614114147
0.438685148	0.877400844	0.438689781	0.596561073	0.170400724	0.626517265
0.486566624	0.401971545	0.877376393	0.607581887	0.564653133	0.170431745
0.027392711	0.075323635	0.075742831	0.679161072	0.68030562	0.679561573
0.865455025	0.077100175	0.868002429	0.161163677	0.623149349	0.160018909
0.877354432	0.439344394	0.443940492	0.170577854	0.608407357	0.578252089
0.87206863	0.875052121	0.046624574	0.165072339	0.168914741	0.659004666
0.459555507	0.429568586	0.87748106	0.559687114	0.524390176	0.17058913
0.406115391	0.877595232	0.480530133	0.532822552	0.170619822	0.57530744
0.85551014	0.102959519	0.078827215	0.149342429	0.643470972	0.623673699
0.450549633	0.427127275	0.877691334	0.62635886	0.593171325	0.170687593
0.881882717	0.014044425	0.014152521	0.175462841	0.697129138	0.697403628
0.825808367	0.29680342	0.313780424	0.118566961	0.61236878	0.584029039
0.864836125	0.855696788	0.107785169	0.156934223	0.155032457	0.593528075
0.113935365	0.100257033	0.841563393	0.626010102	0.600708334	0.135086302
0.874456879	0.047091891	0.872067087	0.168102023	0.656988205	0.16493354
0.882699322	0.040853678	0.875218927	0.175251879	0.692958898	0.170076198
0.067727765	0.079052398	0.855085167	0.651930199	0.632095582	0.149044684
0.86766456	0.866254679	0.077287394	0.159870499	0.161812454	0.622892772
0.135112125	0.126422268	0.827693949	0.60538472	0.576685837	0.119302625
0.825699262	0.277196248	0.300220751	0.118636943	0.612769861	0.584278886
0.486688013	0.401735197	0.877435808	0.60760393	0.564693072	0.170462375
0.484788432	0.392922496	0.877460276	0.625463413	0.582371815	0.170743166
0.127778885	0.125237237	0.098621752	0.61187626	0.610587956	0.615188082
0.513443484	0.52514512	0.876968368	0.558713877	0.530281992	0.170409876
0.047902925	0.042674668	0.07431758	0.678124469	0.677585704	0.680364631
0.106033598	0.082817987	0.855177533	0.643155219	0.623524826	0.149362098
0.125145888	0.103097864	0.841916911	0.623655158	0.598640358	0.135173881
0.856529343	0.130427239	0.863614892	0.156972145	0.586414644	0.154968969
0.882483139	0.040851901	0.874950424	0.175125203	0.692934615	0.170530331
0.473519083	0.404134337	0.877541867	0.625749702	0.586207978	0.170528184
0.116694464	0.864522969	0.855652378	0.590380986	0.155663811	0.155833478
0.841866447	0.124998581	0.103339081	0.13516122	0.623658988	0.59846434
0.867592844	0.865483458	0.081523224	0.159786181	0.161769106	0.621479361
0.443300393	0.876912232	0.439436843	0.562208056	0.170393978	0.591866268
0.063268403	0.060078691	0.065641353	0.651971679	0.651902701	0.651552269
0.092726974	0.099673927	0.841437451	0.629610488	0.604165271	0.13479538
0.439791666	0.877844424	0.448961197	0.52781002	0.170862352	0.559733054
0.444708718	0.877478305	0.438687338	0.561896832	0.170717826	0.591600863
0.425452904	0.877306544	0.459175939	0.539686278	0.17057967	0.575695643
0.8773699	0.473098404	0.410306792	0.170622942	0.608915841	0.569359073
0.881317065	4.89504E-06	4.78261E-06	0.175261113	0.698865004	0.699374007
0.432884295	0.87745713	0.447998553	0.5584361	0.170573652	0.591530134
0.419635482	0.877244648	0.470118024	0.521027244	0.170599362	0.559684444
0.062588828	0.062418233	0.062510853	0.638346958	0.638351087	0.638460037
0.415326507	0.877190154	0.461891105	0.589751351	0.17053876	0.626231191
0.415626487	0.877352423	0.469875696	0.53613192	0.170588836	0.575430239
0.048770753	0.045286222	0.052915084	0.655405142	0.656242001	0.656152923
0.843471003	0.133744977	0.861690116	0.148410963	0.567730881	0.15518787
0.475627676	0.414086469	0.877420329	0.607916559	0.568339396	0.170573655
0.424881361	0.877273873	0.464868231	0.572013163	0.170565051	0.608466261
0.322060797	0.332089658	0.825170794	0.615020181	0.587003247	0.118507315
0.860700136	0.844839998	0.137074466	0.154420684	0.14925281	0.566194938
0.013780427	0.014396801	0.014108105	0.697190076	0.697526686	0.697261565
0.875650403	0.884246734	0.054273911	0.17083621	0.175975669	0.690498096
0.040848241	0.876562449	0.88389019	0.69293113	0.171245645	0.175675217
0.877350711	0.448637308	0.439642625	0.170461355	0.559862565	0.527621671
0.415607433	0.877417289	0.470041834	0.53614907	0.17059029	0.57546471
0.080212271	0.208986471	0.205019321	0.62040693	0.621156753	0.624844083
0.871814379	0.875124977	0.047269231	0.164892768	0.16874554	0.656985172
4.92612E-06	4.89702E-06	0.881289288	0.699306072	0.699441171	0.175274369
0.123178678	0.863344307	0.85566785	0.588402681	0.155251447	0.156524427
0.066212845	0.053068496	0.081536883	0.672968056	0.672622961	0.673772698
0.028540033	0.882172002	0.028362536	0.695047682	0.17548441	0.695828732
0.060014738	0.060021367	0.059995526	0.640121915	0.640101487	0.640219907
0.873191142	0.876029681	0.065207961	0.165332643	0.168830504	0.652746613
0.4015997	0.877363195	0.487223266	0.564715566	0.170535511	0.607777334
0.435882921	0.877368475	0.448131838	0.542826225	0.17057992	0.575785406
0.11676275	0.86403301	0.8564654	0.590405409	0.156121165	0.156326781
0.405776128	0.877213589	0.480505265	0.532899876	0.170496368	0.575192564
0.484466084	0.392646775	0.876858356	0.625388294	0.582386464	0.170745107
0.048094401	0.872018735	0.874093887	0.658712897	0.164928341	0.168208192
0.866938147	0.866991084	0.104029425	0.159150633	0.163100541	0.615396623
0.047217651	0.872448046	0.874192741	0.657150474	0.164782477	0.1682638
0.106073069	0.083059066	0.855583134	0.643461493	0.623554611	0.149744364
0.141804075	0.860964168	0.844943487	0.564516146	0.15346609	0.149586465
0.877379461	0.461653632	0.422103252	0.170546257	0.608366819	0.572074887
0.48519292	0.393348464	0.878287773	0.625509591	0.582444652	0.170889597
0.881388205	4.89589E-06	4.88652E-06	0.175210554	0.698967684	0.699330354
0.449014297	0.439770627	0.877872753	0.559776127	0.527702456	0.170466752
0.473456603	0.404060176	0.877406465	0.62571168	0.586196692	0.170445237
0.864718553	0.855186567	0.111440724	0.156517996	0.15501766	0.591934228
0.875479996	0.05534141	0.871027296	0.168500985	0.654874384	0.163972969
0.085457144	0.868767379	0.08210729	0.663292353	0.162414213	0.675252739
0.877348034	0.458990551	0.425621439	0.170566865	0.575596751	0.539533143
0.425484726	0.877462345	0.464264837	0.57341981	0.170581141	0.60985129
0.086142014	0.076323298	0.869235768	0.672058554	0.660452454	0.16262539
0.881764786	0.041168551	0.040788841	0.17503327	0.692462328	0.69302022
0.872166543	0.875748576	0.075917956	0.165040421	0.1692721	0.650402485
0.113889199	0.100225381	0.841704602	0.625867379	0.60054107	0.13506016
0.083870419	0.075574443	0.853776496	0.647362458	0.627909741	0.148680457
5.4973E-06	0.87659622	0.884654517	0.699512352	0.170797792	0.176285629
0.877381536	0.484747148	0.392886173	0.170546261	0.625258064	0.582623177
0.083854992	0.868857136	0.093995708	0.655627189	0.162759029	0.668460589
0.470014211	0.411692791	0.877605748	0.590664279	0.551498932	0.170806118
0.860789757	0.844385565	0.141779544	0.153107458	0.149166151	0.564524659
0.863462831	0.857249661	0.130380532	0.155497684	0.157328044	0.586511078
0.12708515	0.826048978	0.144735048	0.574620887	0.119389572	0.603588933
0.103194176	0.099175909	0.841475662	0.627615747	0.602556842	0.13501269
0.435903657	0.877327629	0.448087144	0.542769941	0.170567135	0.575649359
0.113778966	0.10005942	0.841789684	0.626128622	0.600879417	0.135076073
0.130468406	0.86309165	0.85692506	0.58640999	0.154888329	0.156945428
0.17183155	0.091920796	0.179777342	0.612634275	0.616021951	0.616765233
0.094111882	0.322119255	0.272380175	0.622960904	0.626178262	0.620634164
0.065230229	0.870994323	0.874968467	0.652590845	0.164602631	0.168671466
0.824921222	0.247819338	0.248809242	0.118708151	0.605900666	0.58079034
0.469925206	0.415625198	0.877381022	0.575379271	0.53611895	0.170510244
0.882156189	0.02775323	0.027508339	0.175617146	0.694955355	0.695248195
0.86909469	0.08385811	0.075350212	0.162525798	0.670883567	0.659023909
0.871518493	0.87434462	0.075979067	0.164695554	0.168071596	0.650549853
0.866460684	0.865993199	0.09547514	0.159196472	0.162266547	0.617292281
0.449588516	0.877343518	0.443730308	0.578947142	0.170592364	0.609044124
0.857101206	0.123151471	0.86365035	0.156268655	0.588308728	0.155232671
0.131580958	0.827269459	0.137537366	0.576654633	0.119492519	0.605468656
0.869116804	0.092490695	0.079560436	0.162679589	0.672893017	0.659342584
0.855376224	0.111482362	0.864454528	0.155207196	0.59224114	0.156080869
0.872614173	0.875058749	0.046520829	0.165153452	0.169036206	0.659016625
0.415738616	0.878009152	0.462297735	0.589595092	0.17054402	0.626276138
0.432896946	0.877341934	0.447818759	0.558510579	0.170519199	0.591601185
0.825854487	0.193331825	0.200934343	0.118770855	0.608973787	0.57744422
0.882054632	0.014268556	0.014218049	0.175466081	0.697113353	0.697442185
0.865606453	0.076968364	0.867848338	0.161266363	0.623239617	0.160075333
0.013706615	0.875295386	0.88263778	0.697373246	0.170255436	0.175255409
0.876013347	0.882864302	0.040854547	0.171082364	0.175446097	0.692983704
0.432860006	0.877454686	0.44800538	0.558434466	0.170574623	0.591532783
0.481078287	0.410295932	0.877854556	0.559332466	0.517630272	0.170491599
0.422254301	0.87749332	0.459244593	0.554580416	0.170540061	0.590403784
0.875119943	0.050204187	0.872732636	0.168196395	0.659186793	0.165268455
0.126081039	0.827196019	0.144004135	0.574951935	0.119276434	0.603450793
0.85381555	0.107762024	0.864787423	0.154544202	0.59391642	0.156797574
0.43837688	0.87678443	0.438381584	0.596591125	0.170336952	0.62651596
0.843755496	0.137265011	0.860628597	0.148470001	0.566235796	0.153840619
0.438748768	0.877528109	0.438753346	0.59655379	0.170402021	0.626549217
0.267100886	0.280066671	0.826677548	0.61616891	0.589626115	0.118886342
0.107887392	0.864601576	0.854639835	0.593637441	0.156519299	0.154647814
0.877587017	0.470337968	0.419759255	0.170794857	0.559761656	0.520891892
0.855645864	0.09124412	0.074327921	0.149092897	0.6458265	0.625771966
0.883073993	0.013707426	0.87645106	0.175588776	0.697376094	0.171522555
0.071188699	0.065495635	0.084656307	0.669609215	0.670156139	0.670719065
0.877386144	0.480740025	0.401414041	0.170240865	0.590185464	0.548030634
0.062910003	0.060034792	0.065169323	0.651729369	0.652005388	0.651702041
0.081939953	0.869005404	0.09319188	0.657125742	0.162637208	0.670548137
0.013957134	0.881443778	0.014306886	0.697292514	0.175203548	0.69664279
0.425212156	0.877340749	0.464544636	0.572061599	0.170543516	0.608520401
0.113687461	0.099972132	0.841813941	0.626104467	0.600954684	0.13506928
0.857242434	0.130458832	0.86266188	0.156591577	0.586481904	0.154366904
0.041076793	0.040844086	0.881430818	0.692479557	0.692598679	0.175353305
0.876818407	0.883784235	0.027325977	0.171045986	0.175732353	0.695177943
0.448159866	0.432776713	0.877784334	0.591028037	0.558189872	0.170845215
0.06524651	0.871264526	0.875179845	0.652765203	0.164552293	0.16872947
0.881741531	0.054604009	0.054135934	0.175354366	0.689911991	0.690472079
0.077510121	0.869053939	0.086051698	0.661264795	0.162499891	0.673491026
0.824975471	0.242200783	0.247516316	0.118679241	0.606000492	0.581114888
0.435857226	0.8772924	0.448100418	0.542723692	0.170515652	0.575626336
0.881989012	0.02782387	0.027545548	0.175655501	0.694919598	0.695153702
0.825432014	0.145548384	0.128805132	0.118866622	0.603371897	0.574469915
0.841558204	0.083400734	0.102237323	0.134791786	0.631006441	0.605898361
0.86229255	0.843898011	0.137120901	0.154760297	0.149194599	0.566229535
0.0743221	0.855787721	0.0911905	0.625862108	0.149229119	0.645837089
0.868025025	0.866438241	0.087778795	0.159988598	0.162411434	0.619400132
0.20342785	0.201489786	0.825687467	0.610285485	0.581762658	0.118583747
0.040846632	0.881643531	0.041186412	0.692540527	0.175199111	0.69262142
0.083608104	0.868812163	0.093821951	0.655274668	0.162772886	0.668571156
0.447674291	0.877290115	0.445481412	0.579139878	0.170596868	0.609206315
0.877496896	0.44886678	0.439558779	0.170694531	0.559682305	0.527747512
0.855483558	0.068967004	0.071372367	0.149121643	0.649698366	0.62946818
0.147425869	0.860740111	0.845550327	0.562651572	0.15315426	0.15075221
0.249729089	0.257063248	0.825788362	0.617419715	0.586003861	0.118928207
0.068911345	0.080015661	0.855683416	0.652208627	0.632491057	0.148940453
0.130460316	0.862838725	0.857236472	0.586383766	0.154790415	0.156890721
0.041049329	0.041395858	0.041560997	0.692736504	0.692529178	0.692363558
0.877556453	0.450483652	0.427058105	0.170556047	0.626410753	0.593218809
0.405881785	0.877432532	0.480609304	0.53273321	0.170645677	0.575257495
0.027301762	0.076954356	0.077020553	0.678630929	0.680201799	0.678580404
0.87736901	0.461612958	0.422159968	0.17057646	0.609516786	0.57313469
0.874901195	0.050161075	0.872290379	0.168722829	0.659481003	0.16525226
0.054289003	0.876142236	0.88286437	0.690758676	0.170833167	0.174972072
0.459114866	0.425685485	0.877425159	0.575406887	0.539295691	0.170636063
0.415635408	0.877398837	0.469922654	0.536169205	0.170579738	0.575492467
0.411762057	0.877084749	0.469912774	0.551650168	0.170615887	0.590492894
0.147107341	0.131039914	0.825655217	0.604062944	0.57459172	0.119272664
0.425499911	0.877264223	0.459091636	0.539629372	0.170573788	0.57564049
0.401222904	0.87706777	0.480899303	0.548005034	0.170410959	0.590074321
0.855588663	0.07991555	0.07155475	0.149297681	0.647702154	0.627737317
0.041032831	0.041250645	0.041189376	0.692782227	0.693118312	0.692495254
0.32538668	0.349793646	0.824757448	0.614852557	0.587557424	0.118624267
0.877366669	0.470005704	0.411468926	0.170171154	0.590464936	0.551628077
0.116697532	0.864487986	0.855671278	0.590382351	0.155664064	0.155827068
0.854977655	0.116662209	0.864522466	0.155849649	0.590299199	0.155891599
0.86919438	0.099308562	0.081224667	0.16270992	0.667730655	0.656119677
0.877424866	0.480564463	0.405652017	0.170593206	0.57535265	0.532955097
0.448187082	0.432797513	0.877836535	0.591045319	0.558210842	0.170830668
0.445688496	0.877341687	0.437653424	0.562514825	0.170453032	0.591679602
0.087158865	0.078693884	0.868961245	0.672083196	0.660806879	0.1625503
0.521381608	0.513303273	0.877295547	0.562280591	0.532746832	0.170644496
0.07957157	0.869278019	0.082498346	0.662846821	0.162533041	0.674842147
0.877394966	0.480590575	0.405684413	0.170587034	0.575063834	0.532685031
0.866727974	0.10434573	0.866883366	0.162383252	0.615314535	0.159111663
0.071543798	0.855495667	0.068762088	0.629305916	0.149387266	0.649858608
0.845841125	0.147395246	0.860584836	0.150675941	0.562761777	0.152998667
0.214806786	0.213323376	0.826060058	0.607597092	0.580531275	0.118876709
0.041171643	0.040928918	0.881909507	0.691742744	0.692799166	0.175494695
0.844428923	0.137308659	0.862360412	0.149438149	0.566351364	0.154980029
0.877359997	0.479351151	0.502871829	0.170190304	0.560349823	0.531792118
0.484565756	0.392727796	0.877040548	0.625467499	0.582312491	0.170533907
0.130513575	0.863147991	0.857116656	0.586547254	0.154940015	0.157106915
0.084554521	0.868523303	0.081839919	0.664432458	0.162557639	0.675655362
0.41996958	0.877854821	0.470393497	0.521068015	0.170779553	0.559633776
0.438581334	0.438576625	0.877183781	0.6265716	0.596364843	0.170281611
0.470361553	0.419968857	0.877806672	0.559604963	0.521031258	0.170847909
0.872104235	0.875819119	0.075934918	0.165019926	0.169179183	0.650342387
0.135688987	0.126231412	0.826972649	0.604129053	0.575673694	0.119300199
0.446351498	0.87734559	0.437061712	0.546060626	0.170629606	0.575690533
0.076061307	0.870972569	0.874857186	0.650444502	0.164534574	0.168619617
0.014013888	0.014123155	0.881892023	0.697304411	0.697078991	0.175381347
0.074987657	0.074929915	0.075220681	0.634190744	0.634535733	0.63464602
0.133935029	0.125045859	0.825996447	0.606265485	0.57687766	0.118867306
0.062447407	0.062522004	0.062389616	0.63812441	0.638402635	0.638509547
0.072236542	0.069983864	0.074193713	0.649749109	0.649684985	0.649830731
0.065247346	0.871431782	0.875338228	0.652746941	0.164813036	0.169116761
0.071472207	0.856443548	0.068841289	0.62952476	0.149599598	0.650161638
0.459676286	0.42964125	0.877672147	0.559826528	0.524420884	0.170685675
0.857018938	0.123067068	0.864720358	0.156648904	0.588486571	0.155925487
0.865109718	0.855527012	0.107746652	0.156975354	0.15508931	0.593525122
0.872135927	0.875032618	0.046500632	0.165132155	0.168908404	0.659045153
0.425621816	0.877480345	0.464197264	0.573508311	0.170584285	0.609895026
0.480690718	0.405899484	0.877438495	0.575180792	0.532679822	0.17056931
0.130510327	0.863109932	0.857178012	0.5865455	0.154974789	0.157118813
0.067638411	0.078992574	0.855505004	0.652306207	0.633111885	0.148979496
0.013937038	0.013986105	0.881160477	0.696905706	0.697170487	0.175180335
0.869248919	0.092452103	0.079539291	0.162662775	0.672361431	0.658675034
0.867426542	0.865757588	0.087851612	0.159509198	0.161710165	0.619591134
0.123167408	0.864097018	0.856564604	0.588505475	0.155593544	0.156825259
0.154013425	0.859374249	0.846649636	0.560879364	0.152297121	0.151571111
0.054625745	0.05425955	0.881858898	0.690008488	0.690639033	0.17548831
0.013708154	0.876353981	0.884088587	0.697417934	0.170868183	0.176088417
0.844641489	0.141857776	0.860846736	0.149887053	0.56449399	0.153830192
0.041054132	0.041341403	0.041692237	0.692516145	0.692698932	0.692191716
0.459021676	0.4220161	0.877473638	0.590706258	0.555013375	0.170483739
0.083396208	0.083759198	0.084043696	0.632195189	0.632160393	0.632456192
0.027479019	0.027789588	0.027569123	0.694925956	0.694938677	0.695071095
0.864056547	0.857756577	0.130374492	0.155491996	0.157360786	0.586513124
0.106324802	0.082880213	0.855139095	0.643358882	0.623456697	0.149655566
0.824857153	0.195938666	0.215413287	0.118760376	0.610191355	0.583955211
0.84583917	0.153982544	0.859383186	0.15119122	0.560831211	0.152021041
0.092716123	0.099649003	0.841395373	0.629602655	0.604172386	0.134810278
0.014354129	0.014236097	0.881752638	0.697119362	0.697201359	0.175213094
0.877063165	0.883897604	0.0408509	0.170967856	0.175701692	0.692929764
0.392644586	0.876855884	0.484465288	0.582327418	0.170600279	0.62526857
0.874149533	0.065219315	0.871691968	0.168729917	0.652869195	0.164607446
0.047211534	0.870047917	0.873259064	0.657021987	0.164599442	0.168219149
0.074914014	0.074963904	0.075177323	0.634130016	0.634404358	0.634716471
2.7962E-06	3.13943E-06	2.93755E-06	0.699139548	0.699462545	0.699221351
0.450550598	0.427128388	0.87769341	0.626361004	0.593169146	0.170692279
0.392970353	0.877526791	0.484808381	0.582466197	0.170713792	0.625166275
0.083391707	0.102244498	0.841747535	0.631324012	0.606116499	0.134682531
0.083716994	0.868802849	0.094100565	0.655272987	0.162777752	0.668582964
0.863440284	0.85688347	0.130378052	0.155473454	0.157350011	0.586489433
0.825875255	0.293793369	0.298163145	0.118593298	0.612414934	0.585962691
0.846978953	0.153964512	0.858798653	0.150857467	0.560928867	0.151451681
0.877408962	0.480566949	0.405758484	0.170569828	0.575071276	0.532703776
0.413294591	0.877406394	0.475513009	0.568557117	0.17055924	0.608389093
0.459123889	0.425704839	0.877430892	0.575404456	0.53929796	0.170631817
0.872707961	0.873949231	0.075948164	0.164974438	0.168414399	0.650525013
0.841668776	0.102887744	0.099216449	0.134988113	0.627717773	0.602494979
0.420011676	0.878059262	0.47053992	0.52107762	0.170658994	0.559512953
0.470006424	0.411679405	0.877601676	0.590666086	0.551499776	0.170791172
0.099788636	0.841633467	0.092866135	0.604144747	0.134882487	0.629616761
0.048319261	0.041781192	0.073695764	0.677445965	0.677942177	0.679948655
0.877203668	0.492955537	0.499242698	0.170415204	0.560565108	0.531574438
0.126633107	0.82561616	0.144508922	0.574967648	0.11890799	0.603852659
0.87734641	0.461581065	0.422168505	0.170565597	0.609398054	0.57309242
0.469951263	0.411696805	0.877576413	0.590693436	0.551507119	0.170757378
0.877343653	0.484084188	0.399414335	0.17057998	0.608766564	0.566080193
0.092642731	0.099688235	0.841577165	0.629564402	0.604380463	0.134913566
4.84803E-06	4.95898E-06	0.881040581	0.699120579	0.699555465	0.175146121
0.422210672	0.877503469	0.459258287	0.55458144	0.1705411	0.590405971
0.099884232	0.841606443	0.092876537	0.604389284	0.134877222	0.629351427
0.04714569	0.871144115	0.875872882	0.656782966	0.164116057	0.168436066
0.041076814	0.041267037	0.041509747	0.692202941	0.692607353	0.692268381
0.013709253	0.876009553	0.884239375	0.697496097	0.170707035	0.175491549
0.462048448	0.415478248	0.877500166	0.626026649	0.589812893	0.17058341
0.43490432	0.877366561	0.455230222	0.576116008	0.17058376	0.609770299
0.448053977	0.436020974	0.877375632	0.575612263	0.542770078	0.17060983
0.480707517	0.409952675	0.877126678	0.55930984	0.517634016	0.170500151
0.135769135	0.126563562	0.826619427	0.604171542	0.575667066	0.119182359
0.05533079	0.872422826	0.874627345	0.655075441	0.16474926	0.168620123
0.877378621	0.484272631	0.399509186	0.170630593	0.607602046	0.564895281
0.333333058	0.825655512	0.326197586	0.58631423	0.118509221	0.615062267
0.864316373	0.854724164	0.10784398	0.156690628	0.154580489	0.593922878
0.080142412	0.207247754	0.205323192	0.620418062	0.620936399	0.62455272
0.875627563	0.883898382	0.013708839	0.170600426	0.175972391	0.697430381
0.872807813	0.875662068	0.047242342	0.16527019	0.16915318	0.656983731
0.881317065	4.89504E-06	4.78261E-06	0.175261113	0.698865004	0.699374007
0.102272474	0.841716764	0.083423037	0.605929262	0.134701686	0.631439823
0.861892083	0.856261875	0.130436757	0.154747391	0.156784477	0.586501586
0.875630569	0.883158928	0.054274998	0.170586006	0.174992095	0.690535735
0.277826881	0.281709491	0.82578356	0.613624494	0.58553209	0.118542968
0.876198855	0.883186948	0.013706867	0.170552447	0.175639748	0.697330321
0.856672014	0.116682161	0.865098825	0.156095559	0.590328117	0.156396234
0.863324142	0.857121571	0.130381975	0.155482974	0.157354206	0.58649643
0.107933566	0.865044823	0.854720553	0.593659661	0.156993786	0.154736703
0.116735154	0.864265767	0.856276439	0.590375413	0.155934756	0.156190984
0.066599669	0.052836669	0.081387835	0.673152325	0.672329457	0.673956659
0.05999346	0.060017671	0.060010155	0.640172537	0.640101839	0.64019235
0.877220097	0.459427318	0.429446516	0.170589359	0.559824404	0.524322002
0.873953181	0.050544959	0.871379307	0.168098635	0.658647995	0.165040136
0.063160753	0.059845204	0.065167616	0.652084425	0.65183391	0.651788738
0.413712978	0.877328077	0.475129248	0.568801541	0.170550124	0.608599204
0.083349151	0.083785209	0.083871852	0.632380703	0.632163256	0.632473082
0.877680168	0.459694801	0.429622819	0.170748733	0.559749024	0.524465898
0.883238517	0.01371073	0.875856282	0.175376653	0.697607157	0.170684419
0.480538398	0.401105089	0.876972843	0.589958258	0.548273973	0.170116544
0.04720768	0.871023253	0.874031079	0.657128386	0.164643522	0.168095287
0.040774491	0.880833599	0.041140944	0.692946806	0.175132943	0.692356846
0.855499194	0.068949092	0.071405174	0.149092281	0.649727796	0.629381075
0.480515249	0.405881171	0.877294866	0.574870383	0.532428945	0.170558507
0.87427097	0.06515415	0.872848155	0.168784017	0.652645743	0.16483927
0.4326835	0.87740994	0.448137255	0.557963543	0.170467954	0.590328264
0.071321464	0.854268085	0.068767959	0.629537256	0.148867038	0.649615163
0.047222085	0.870855326	0.874504581	0.656739582	0.164158623	0.168443474
0.882841977	0.054268184	0.876060335	0.17512287	0.690434993	0.170545457
0.08100066	0.084149725	0.869003309	0.675495271	0.663555665	0.162673554
0.464904907	0.425061987	0.877249717	0.608982531	0.572156545	0.170536343
0.401574349	0.877346138	0.487046771	0.564710634	0.170536904	0.607778114
0.076061251	0.870858629	0.87492241	0.650444878	0.164540524	0.168622742
0.855874229	0.068969883	0.071399093	0.149197967	0.649764017	0.62976848
0.404003424	0.877288781	0.473396613	0.586220346	0.170410762	0.625930555
0.068852848	0.079522754	0.855178429	0.651906833	0.63239198	0.148793228
0.027370059	0.077194097	0.077132178	0.678645568	0.68017501	0.678544143
0.104063527	0.866421797	0.867291737	0.615187196	0.158727401	0.163111446
0.438956004	0.877942695	0.438960536	0.596487163	0.170418978	0.626582874
0.014392747	0.881460908	0.014278088	0.697557585	0.175275795	0.696635364
0.404207261	0.877675879	0.473579375	0.585949439	0.170512954	0.62570009
0.872649622	0.875077496	0.046424192	0.165133963	0.168990761	0.659058579
0.121555843	0.120691964	0.192882365	0.616603086	0.619436526	0.617114525
0.877804642	0.484963953	0.393090737	0.17048876	0.62521746	0.582644894
0.867009217	0.087893185	0.866527545	0.162426406	0.619615464	0.159453233
0.429511051	0.877424251	0.459555464	0.524223491	0.170555274	0.559909144
0.028634185	0.028217942	0.882799181	0.694831339	0.695420933	0.175412045
0.437040691	0.446351666	0.877322753	0.575668361	0.5460432	0.170645801
0.078842086	0.855450781	0.102961655	0.623758692	0.149377603	0.643312502
0.881359566	0.027468824	0.027481969	0.17569936	0.694821854	0.695088855
0.435581269	0.877304016	0.454349701	0.576643072	0.170520127	0.610239329
0.041112574	0.041227193	0.041686141	0.692395938	0.692268369	0.692440035
0.099088937	0.841252374	0.102761813	0.602633307	0.134999627	0.627703784
0.883099456	0.040849487	0.876471337	0.175168171	0.692853293	0.170957578
0.518313648	0.528116811	0.877743445	0.561562918	0.532166033	0.170976655
0.825558845	0.146086786	0.129526674	0.119181372	0.603130741	0.574193581
0.054235998	0.881316654	0.054664076	0.691060944	0.175502426	0.690136647
0.480812091	0.405648616	0.877317577	0.575128425	0.532594313	0.170572499
0.856124113	0.123171016	0.863443377	0.156100511	0.588591375	0.155322274
0.13395362	0.125056521	0.826056164	0.60627805	0.576914468	0.118836379
0.857513826	0.123053832	0.865582075	0.15674205	0.588499441	0.15585474
0.054235485	0.881431479	0.054654452	0.691059572	0.175489805	0.690200474
0.874475695	0.055301895	0.871855548	0.168475641	0.65485269	0.164875107
0.04104989	0.041298069	0.041570231	0.692512266	0.692195242	0.692560376
0.141775682	0.861175896	0.844136858	0.564622417	0.153508211	0.149622421
0.877433037	0.484773919	0.392910267	0.170423811	0.625327853	0.582561486
0.843122758	0.133743224	0.861170567	0.148433622	0.567762554	0.155275164
0.446338791	0.877324785	0.437053535	0.546043329	0.170630184	0.575678079
0.877331238	0.448059932	0.43590082	0.17059129	0.575688255	0.542846694
0.860638563	0.844851465	0.137069714	0.154440484	0.149282102	0.566212959
0.469955171	0.411470099	0.877325705	0.590503122	0.551566573	0.170795417
0.846299712	0.147386716	0.861163783	0.151024016	0.562787637	0.153417098
0.863234735	0.857337281	0.130377714	0.15535639	0.15713177	0.58644083
0.074845615	0.074978471	0.075142806	0.634465964	0.634584882	0.634705849
0.106452748	0.082852118	0.855112554	0.643262113	0.623569106	0.149361095
0.107910961	0.864815349	0.854583632	0.593637966	0.156554967	0.154643173
0.077160914	0.867667738	0.865776161	0.623214655	0.160000955	0.16166408
0.059990019	0.06002161	0.05999467	0.640049179	0.640226023	0.640060691
0.884107672	0.054273403	0.875621198	0.175822123	0.690551833	0.170754073
0.096878819	0.30939839	0.254587595	0.622355039	0.625697747	0.621986148
0.866146728	0.081562227	0.866719636	0.161727951	0.621534515	0.159493867
0.082394164	0.080173861	0.868800847	0.67425773	0.662473476	0.16255824
0.484586149	0.392766168	0.877097664	0.625257299	0.582478592	0.170465952
0.877324086	0.451076012	0.4324109	0.170503902	0.608594069	0.57517498
0.866438891	0.86699841	0.104024481	0.159036518	0.162848573	0.615408989
0.092754533	0.099708827	0.841428901	0.629571317	0.604234397	0.134839527
0.084339898	0.86864368	0.081475523	0.664646473	0.16255438	0.675878882
0.877723504	0.484916066	0.393059547	0.170729245	0.625234418	0.582621814
0.841532545	0.092758927	0.099861072	0.134875082	0.629474256	0.604505325
0.872658625	0.875408413	0.065204036	0.165271504	0.168879594	0.6527869
0.083553261	0.869195615	0.099038768	0.654621126	0.162550742	0.667813633
0.855154316	0.068915126	0.071408956	0.148986608	0.649703927	0.62946922
0.392838986	0.877257052	0.484670503	0.582333215	0.170633626	0.625329396
5.4973E-06	0.877976987	0.885092703	0.699501806	0.170768486	0.176002143
0.041116355	0.040871591	0.881649277	0.69231675	0.69279192	0.175470091
0.877359044	0.473419869	0.404051603	0.170451313	0.625892145	0.585972361
0.062535821	0.062417508	0.062439928	0.638769186	0.638658898	0.638533231
0.859906276	0.846723287	0.147497805	0.153267281	0.151029064	0.562590999
0.877443025	0.480811194	0.401375518	0.170359755	0.590073628	0.547623865
0.863636711	0.856542977	0.11663734	0.155733721	0.155956143	0.590285282
0.439742356	0.877730964	0.448890603	0.527823477	0.170707199	0.559742297
0.137136722	0.86200084	0.844112007	0.566177862	0.154032705	0.148540505
0.871601191	0.875389734	0.047284765	0.165166976	0.169072147	0.656964125
0.12935618	0.826188952	0.145506816	0.574491321	0.119467457	0.603373418
0.844400892	0.141854747	0.860418472	0.149753004	0.564462893	0.153438748
0.85576276	0.068908799	0.071418359	0.149192194	0.649719584	0.629586316
0.486676441	0.401789012	0.87740131	0.607634326	0.564738783	0.170450666
0.040754182	0.881466782	0.041052316	0.692689742	0.17519748	0.692454399
0.063489165	0.059765327	0.065286966	0.652009466	0.652029253	0.651959044
0.425562696	0.877411855	0.464213144	0.573551988	0.17058723	0.60989412
0.841625833	0.103005068	0.09932095	0.134941446	0.627913799	0.602908201
0.401422082	0.876925451	0.480538814	0.547975605	0.170400998	0.590003534
0.429555971	0.87743779	0.459528289	0.524224481	0.170573351	0.559938336
0.077109766	0.867884485	0.865163271	0.623372879	0.159967389	0.161340578
0.438580954	0.438576245	0.877183028	0.626573827	0.596364823	0.170280524
0.448499971	0.877347691	0.444793737	0.578604193	0.170605947	0.608858572
0.87222454	0.874535144	0.065198148	0.165156311	0.168646386	0.652694449
0.459067479	0.425524177	0.877196063	0.57580593	0.539835853	0.17050321
0.102239825	0.841614385	0.08336292	0.606020532	0.134825096	0.631281333
0.067703568	0.067622646	0.067866773	0.636699424	0.636512831	0.636900308
0.883109794	0.054262506	0.875747171	0.175087238	0.690367061	0.170514122
0.856282188	0.116622774	0.865158257	0.155994792	0.590340965	0.156148512
0.447901473	0.436050773	0.877263982	0.575573698	0.54275031	0.170616523
0.401786333	0.877377104	0.487089503	0.564755021	0.170527823	0.607800397
0.866914019	0.10435012	0.867246515	0.162770947	0.615237015	0.15909974
0.078877954	0.868962544	0.086231508	0.661060106	0.162485648	0.673498632
0.086341317	0.077630861	0.868796022	0.673052178	0.661064099	0.162487584
0.422081986	0.877713481	0.459542147	0.554805951	0.170308114	0.590652738
0.883274712	0.013702204	0.875761032	0.17542122	0.697144257	0.170442655
0.866921107	0.087851417	0.867210936	0.161867035	0.61945678	0.159545002
0.07601214	0.871088675	0.875370986	0.650361806	0.164213991	0.169019532
0.074907245	0.076470235	0.85483666	0.649441318	0.629785984	0.149057947
0.08338819	0.102226292	0.841803252	0.631159005	0.606067213	0.134716468
0.059995609	0.060023015	0.060001707	0.640059824	0.640228054	0.640074383
0.469859507	0.415699002	0.877362462	0.575380684	0.536100213	0.170542352
2.75016E-06	3.14296E-06	3.0715E-06	0.699353587	0.699211418	0.699269707
0.411734426	0.877257561	0.470184853	0.551122211	0.170537903	0.589908892
0.877408505	0.484747528	0.392913747	0.17041058	0.625246589	0.582442715
0.855352398	0.116656454	0.864595716	0.155867859	0.590328767	0.155926136
0.079183501	0.855932	0.102953192	0.623592903	0.149745671	0.643464233
0.419883622	0.877596192	0.470225305	0.520908516	0.170976952	0.559691681
0.078713297	0.855487349	0.102972822	0.62376759	0.149421492	0.643298228
0.092700321	0.099618682	0.841555003	0.629642959	0.60413697	0.134767581
0.877304057	0.447849356	0.432692155	0.170319225	0.590866081	0.55831157
0.445101957	0.877481526	0.43831532	0.561939303	0.170551796	0.591616793
0.435571988	0.877263091	0.454638028	0.576518843	0.170539283	0.610142885
0.07494544	0.074889684	0.075154615	0.634245686	0.634282873	0.634761901
0.825643055	0.230438438	0.246137852	0.119027031	0.606517008	0.580224526
0.067739984	0.067657522	0.067943495	0.63643921	0.636524146	0.636693626
0.841543642	0.092773522	0.099887419	0.134842604	0.629509476	0.604455829
0.074246869	0.855306734	0.091129482	0.625881843	0.149274828	0.645838758
0.865154937	0.854700559	0.1077614	0.15663959	0.154555258	0.594014529
0.877273183	0.484027157	0.399608808	0.170611464	0.60801538	0.565387298
0.475875486	0.413526334	0.877566738	0.608082653	0.568547024	0.17058399
0.877541261	0.472923533	0.410505578	0.170607282	0.609018463	0.569440904
0.877360851	0.448132676	0.435843072	0.170665304	0.575706544	0.542741456
0.867082389	0.866148381	0.087812145	0.159492664	0.162190486	0.619581296
0.054270207	0.87547819	0.88431913	0.690430835	0.170634811	0.17546723
0.415333295	0.87720138	0.461895357	0.589724842	0.170507782	0.626155616
0.078227433	0.081236357	0.868903222	0.675102128	0.664086076	0.162568966
0.455029218	0.436435159	0.877281121	0.609840978	0.576067707	0.170551188
0.125858552	0.123348402	0.20165881	0.617535204	0.619308213	0.617853111
0.866035527	0.095632996	0.866308351	0.16219959	0.617654023	0.158995671
0.459120281	0.425676269	0.877420836	0.57544443	0.539300622	0.170638121
0.014230302	0.014196409	0.881767011	0.697146344	0.697182068	0.175230921
0.455219566	0.43610527	0.877303174	0.608386924	0.574598	0.170579821
0.87774437	0.450574376	0.4271555	0.170824055	0.626476101	0.593039424
0.427043789	0.877528386	0.450470039	0.593080004	0.170668729	0.626533911
0.072306754	0.070004949	0.074282112	0.64956948	0.64987333	0.649562268
0.845079755	0.137276947	0.861645504	0.149086415	0.566235663	0.154543849
0.13233648	0.826718535	0.14115875	0.577362057	0.11890734	0.606063696
4.86689E-06	4.93935E-06	0.881060533	0.69917531	0.699513673	0.175138567
0.078713297	0.855487349	0.102972822	0.62376759	0.149421492	0.643298228
0.877431408	0.462001758	0.421720281	0.170575255	0.608137306	0.571695181
0.877882192	0.459769029	0.429750596	0.170827878	0.559898994	0.524386746
0.43979256	0.87784552	0.448961302	0.527810017	0.170862309	0.559733051
0.062472299	0.062500473	0.06236085	0.638380617	0.63872568	0.638429389
0.868744851	0.077369299	0.081362283	0.162572983	0.675691517	0.66459185
0.844890847	0.137280546	0.861675846	0.149405628	0.566314406	0.154898572
0.45956874	0.429660559	0.877577715	0.559974398	0.524187983	0.170671133
0.861679426	0.856078597	0.130436835	0.154719881	0.156810749	0.58649127
0.412082883	0.87784859	0.470391181	0.55148353	0.170703519	0.590532678
0.072056864	0.06563865	0.085659939	0.670293364	0.670053462	0.671040605
0.046851639	0.872131423	0.874505134	0.658445378	0.164883685	0.168235108
0.07428023	0.855566076	0.091229334	0.625854591	0.14930044	0.64573838
0.826690081	0.200485199	0.202757358	0.119376583	0.610923704	0.579381028
0.877671111	0.459078671	0.422203328	0.170498775	0.590899841	0.555351093
0.855023659	0.116659744	0.864434919	0.155915334	0.590287069	0.156003649
0.877497227	0.448866847	0.439559041	0.170694622	0.559682326	0.527747598
0.874193418	0.047117029	0.872060377	0.168311991	0.656949738	0.165074615
0.882752908	0.040851233	0.875242014	0.17526624	0.692915388	0.17012351
0.126325078	0.825024892	0.144034063	0.575118165	0.118992235	0.603679988
0.41026681	0.877610657	0.480874166	0.517692979	0.170669563	0.559333249
0.028506426	0.02792892	0.881821108	0.694731216	0.695426379	0.175499548
0.410155164	0.877475278	0.480842983	0.517723038	0.170609887	0.559383474
0.079928438	0.869270547	0.082144456	0.663578079	0.162394702	0.675674952
0.874555079	0.076028319	0.871081428	0.168985336	0.650642316	0.164242354
0.107123216	0.083117698	0.855084877	0.643504904	0.624296852	0.149475416
0.872986342	0.874158576	0.047187108	0.165511552	0.168710168	0.656960964
0.866070758	0.081814152	0.866830259	0.161721941	0.621214019	0.159663551
0.047200286	0.871287657	0.874315239	0.656979817	0.165061016	0.16856643
0.881729112	4.81846E-06	4.88908E-06	0.175227282	0.69938918	0.699267823
0.438485739	0.877002248	0.438490531	0.596580943	0.170218458	0.626536529
0.450224821	0.42679884	0.877038616	0.626598371	0.593058147	0.170637506
0.876543293	0.884165162	0.027326184	0.17119539	0.175604137	0.695203836
0.877355498	0.43945839	0.44448317	0.17056231	0.6093757	0.579289931
0.861898308	0.843581471	0.133805678	0.155143324	0.147981704	0.567705875
0.439792335	0.877845244	0.448961275	0.527810017	0.170862321	0.559733053
0.062479809	0.062509237	0.062394439	0.63872346	0.638682749	0.638576834
0.413181763	0.877434364	0.475676628	0.568252097	0.170611221	0.608077232
0.092784906	0.09969853	0.841431492	0.629525553	0.604279737	0.134918005
0.448071857	0.435982578	0.877354683	0.575487226	0.542777862	0.170572708
0.868912997	0.098922187	0.082145199	0.162824896	0.665167345	0.653476637
0.46196219	0.415408102	0.877343085	0.62621939	0.589569856	0.170701108
0.841486065	0.092731006	0.09988603	0.134913048	0.629320282	0.603970096
0.081980628	0.854916783	0.067096974	0.631206936	0.149085515	0.65308262
0.877532381	0.462065619	0.415493991	0.170546777	0.626192442	0.589814875
0.881519731	0.013951549	0.01413681	0.175489257	0.697018427	0.697324582
0.131979509	0.827503733	0.138617987	0.57642006	0.119712722	0.605396758
0.07706	0.867303989	0.865008675	0.623338441	0.160020074	0.161602352
0.860372103	0.845810759	0.147456492	0.152723187	0.150682146	0.562794124
0.100407657	0.841676797	0.114013563	0.600240142	0.134949031	0.625642966
0.01370955	0.87578036	0.884019715	0.697489235	0.170647183	0.175798981
0.074273693	0.855866628	0.091173155	0.625816487	0.14943184	0.645872314
0.459067162	0.425599748	0.877295396	0.575606342	0.539514039	0.170532228
0.845579952	0.141812889	0.860286746	0.149983288	0.564531732	0.153711457
0.877352314	0.437073005	0.446346296	0.170617003	0.575715918	0.546063502
0.855709686	0.069048078	0.071345053	0.149152602	0.64959274	0.629648184
0.401441084	0.877459048	0.481061203	0.548125175	0.170581222	0.590063685
0.877617745	0.469981301	0.411736492	0.170611278	0.590408957	0.551018739
0.877557664	0.437140903	0.444506742	0.170624942	0.591613978	0.561993902
0.877762468	0.470398363	0.419873777	0.170898395	0.559804071	0.520985035
0.028094363	0.881296189	0.028808131	0.695591759	0.17546021	0.695324721
0.08338488	0.102231884	0.841712145	0.631336622	0.606079579	0.134668802
0.413867445	0.877338135	0.474879011	0.569194053	0.170494446	0.608733195
0.203130189	0.214974686	0.824784268	0.607318638	0.578790229	0.118696634
0.845507694	0.141825283	0.86150427	0.149759335	0.564603398	0.153416968
0.089593049	0.306937497	0.264899572	0.62241161	0.625175483	0.621175137
0.877481241	0.472962345	0.410402737	0.170599272	0.609013074	0.569416503
0.438580236	0.43857553	0.877181614	0.626485756	0.596347574	0.170224041
0.027326844	0.875826573	0.883957416	0.695244221	0.170089618	0.175264299
0.864691491	0.856333599	0.123052973	0.155260782	0.156049619	0.58830131
0.054218579	0.881596857	0.054617888	0.691013943	0.175499143	0.690088819
0.876386173	0.884068517	0.054278772	0.170839536	0.175897869	0.690564423
0.113796818	0.099825981	0.841744482	0.626197713	0.601005574	0.135047649
0.099850043	0.841638985	0.092756656	0.604351226	0.134879927	0.629407416
0.048403149	0.87199954	0.87427493	0.658813663	0.165205437	0.168361559
0.103267073	0.099201019	0.841465959	0.627610944	0.602563916	0.135012962
0.877308783	0.473392668	0.409984427	0.170576515	0.608815651	0.569201419
0.459467116	0.429581985	0.877401885	0.559944285	0.524153712	0.170721969
0.484717618	0.392889079	0.877352995	0.625236261	0.582502798	0.170377614
0.876279658	0.883256078	0.04085411	0.171082825	0.175449663	0.692987879
0.824862272	0.196224416	0.214484927	0.118757493	0.611314551	0.584719125
0.079024571	0.855449084	0.102968298	0.62368998	0.149525143	0.643361201
0.060032543	0.060016843	0.059993928	0.640055194	0.640169155	0.640224179
0.095438637	0.332985936	0.280875681	0.622581238	0.62554836	0.621707919
0.877411484	0.462005589	0.415433032	0.170596769	0.626181432	0.589837258
0.841597049	0.102975083	0.099176426	0.134937422	0.627926942	0.602842458
0.072634442	0.070149418	0.075316703	0.64941374	0.65009628	0.649672213
0.45058699	0.427160321	0.877762227	0.62646089	0.593167267	0.170632983
0.087471314	0.079173325	0.868899606	0.671970376	0.660761123	0.162564743
0.461687829	0.415129308	0.876789716	0.626112208	0.589754843	0.170639562
0.111453892	0.864047703	0.854852547	0.592066891	0.155812826	0.15518352
0.123199629	0.863222931	0.857061323	0.58851773	0.155603825	0.156779884
0.047216095	0.871847072	0.875101262	0.656978899	0.165006446	0.16859233
0.437088574	0.446348074	0.877369033	0.575763266	0.546082291	0.170606763
0.080491244	0.199331147	0.197952885	0.619983356	0.621929633	0.622227547
0.448413486	0.877337575	0.444893985	0.578597234	0.17060449	0.608839413
0.877388294	0.469853195	0.415560676	0.170548559	0.575373006	0.536106356
0.855829539	0.091459614	0.074199754	0.14930871	0.64573992	0.625899065
0.855895072	0.07973353	0.071556102	0.149186909	0.647980762	0.627513593
0.473519094	0.40413435	0.877541891	0.625749704	0.586207981	0.170528219
0.46220326	0.415645446	0.877821521	0.626260552	0.589643478	0.170670602
0.028017261	0.882134371	0.028410669	0.694869593	0.175535293	0.695946205
0.877334169	0.459004605	0.425590202	0.170586145	0.575605764	0.53956177
0.133740235	0.862275788	0.843636709	0.567842163	0.155129331	0.148063503
0.877204866	0.438591959	0.438587349	0.170434156	0.626484352	0.596520808
0.027057046	0.075345339	0.075545234	0.67894768	0.680011662	0.678454515
0.392582182	0.876728207	0.484400366	0.582376181	0.17050733	0.625208611
0.877348021	0.448081427	0.435865076	0.170604205	0.575694647	0.542856263
0.855383052	0.123170068	0.862465229	0.156242968	0.588457275	0.155288706
0.135278304	0.127236739	0.826700168	0.60416395	0.575619364	0.119443966
0.522483912	0.511823976	0.877181859	0.562588203	0.533451019	0.17067638
0.842947863	0.133722402	0.860954125	0.148281705	0.567833064	0.155396865
0.104141025	0.865709016	0.866956172	0.615265062	0.158817577	0.162767966
0.87778154	0.459208582	0.422187483	0.170735518	0.591138683	0.554965279
0.130507633	0.862882909	0.856989167	0.586512871	0.154816298	0.156893305
0.41033457	0.877702191	0.480895722	0.517693835	0.170744112	0.559301047
0.883716956	5.49553E-06	0.876153261	0.175702151	0.699338134	0.171080676
0.091768231	0.078723475	0.86945728	0.673387831	0.658773797	0.162595589
0.874918164	0.076035026	0.872044505	0.169118786	0.650454524	0.165344893
0.32644867	0.334862495	0.825196291	0.611969282	0.586090922	0.118699121
0.401386351	0.877359996	0.48731937	0.564717988	0.170535349	0.607785383
0.876235771	0.882356306	0.040860944	0.171009815	0.175425649	0.693086511
0.027900437	0.882171814	0.028432429	0.694955791	0.175539846	0.695864376
0.468380734	0.878258058	0.443183003	0.53141417	0.170567717	0.560203905
0.092623829	0.099652938	0.841529552	0.629578384	0.604268593	0.134856111
0.869090244	0.099552639	0.081538082	0.162715438	0.667724178	0.6561116
0.06821327	0.079973335	0.855833954	0.652093032	0.632446207	0.149179268
0.875296172	0.883738404	5.49755E-06	0.170132483	0.175424341	0.699342113
0.880923146	0.027693626	0.027395773	0.174826255	0.694866638	0.695203833
0.102268641	0.841723056	0.083436201	0.605922272	0.134701813	0.631427275
0.863246147	0.844381282	0.133774703	0.15542583	0.148471149	0.567845034
0.06002303	0.060006703	0.059982452	0.640155152	0.640459688	0.640177573
0.872700498	0.873659801	0.055310408	0.165112901	0.168790317	0.654922211
0.104015423	0.866338526	0.866899146	0.615342891	0.158855058	0.162878318
0.88344431	0.027327062	0.875645362	0.174991628	0.695283341	0.170280943
0.85558042	0.079909875	0.071550598	0.149283221	0.647721691	0.627692805
0.872329669	0.87474468	0.065200745	0.165474151	0.168796416	0.652708859
0.071297144	0.854642341	0.06880379	0.629431249	0.148765445	0.649801299
0.86684739	0.095663261	0.867075261	0.162533072	0.61739751	0.159252897
0.075073007	0.077785774	0.854608637	0.650308246	0.629125243	0.14862891
0.87724537	0.492630952	0.496694761	0.170548987	0.561315995	0.531666032
0.877658267	0.448030312	0.432818383	0.170516373	0.591239552	0.558588132
0.445454444	0.449260997	0.877349121	0.608474778	0.57826926	0.170600606
0.246495157	0.826171029	0.242802928	0.584217916	0.118718295	0.611794056
0.877410958	0.484001782	0.399675701	0.170613245	0.607632508	0.564980001
0.054279273	0.876582422	0.883472305	0.690560391	0.17103549	0.17534941
0.100165002	0.841856897	0.114031389	0.600729326	0.135014862	0.62593688
0.448011954	0.432647424	0.877512394	0.591023313	0.55827494	0.170521706
0.324872542	0.337919317	0.824769461	0.61644412	0.589563151	0.118623471
0.099792241	0.841632701	0.092700281	0.604285253	0.134881221	0.629441345
0.438423915	0.876878544	0.438428637	0.596540598	0.169991541	0.626478984
0.123175627	0.86333525	0.85554554	0.588419909	0.155223305	0.156502722
0.047778542	0.042042616	0.073480372	0.67795432	0.677658549	0.680468935
0.876981442	0.493102219	0.491953763	0.16991326	0.558377915	0.530055435
0.068965291	0.079508054	0.855108988	0.651915355	0.632389632	0.148840883
0.876813646	0.882215632	0.013706173	0.171433722	0.175579646	0.69728917
0.081683268	0.866789343	0.865708499	0.621184854	0.159271153	0.161796459
0.845395445	0.137268109	0.861438336	0.148714814	0.566349893	0.154120524
0.48095717	0.410203853	0.877637869	0.559372948	0.517530656	0.170578747
0.141837511	0.860882823	0.844394179	0.564656647	0.153103275	0.149190599
0.872475432	0.87494486	0.065205711	0.165197979	0.168808135	0.652738891
0.424865391	0.877403994	0.46450951	0.57350727	0.170618668	0.609724509
0.43571308	0.87738926	0.454044527	0.576601755	0.170550142	0.609939426
0.099776541	0.841635543	0.092841547	0.604313643	0.134881273	0.629585774
0.871285229	0.874262506	0.055333763	0.164409463	0.16808155	0.654876477
0.473749068	0.404361012	0.877999559	0.625845718	0.586088967	0.170796361
0.072652072	0.070023551	0.07496891	0.649627045	0.650129789	0.649711005
0.083449449	0.869299119	0.101054902	0.6558601	0.162728054	0.667084281
0.276904066	0.267868189	0.826465215	0.614314252	0.589221196	0.118777339
0.437761168	0.445771629	0.877740273	0.593067349	0.563449693	0.170678632
0.426816051	0.877073051	0.450242617	0.593084989	0.170367251	0.626487276
0.877379442	0.451412556	0.431956673	0.170567112	0.610026821	0.576447113
0.062885369	0.060226338	0.065945818	0.652081396	0.65192017	0.651642763
0.437007605	0.446328741	0.877266051	0.57562565	0.546015532	0.170647405
0.135163836	0.827906203	0.139678417	0.577285775	0.119589702	0.605692499
0.854542965	0.116665093	0.864460571	0.155832224	0.590254059	0.155853579
0.877349114	0.458859095	0.42209537	0.17029323	0.590829081	0.554746671
0.041129682	0.040782245	0.881974179	0.691746337	0.692835892	0.175596377
0.859358208	0.846542726	0.154008025	0.152576344	0.151759389	0.561064459
0.07148216	0.856995384	0.068857398	0.629683595	0.149345405	0.649954204
0.110960701	0.110827246	0.166289799	0.617071945	0.619315356	0.61859951
0.426511903	0.876464417	0.449938025	0.592945786	0.170403973	0.626608083
0.884297367	0.013705703	0.875952932	0.176080699	0.697299909	0.171004116
0.425534625	0.877420326	0.464176352	0.573577259	0.170575296	0.609860078
0.245625243	0.825384559	0.23858832	0.582308534	0.118434213	0.612677689
0.271130681	0.276931379	0.825533909	0.614450795	0.589106022	0.118630684
0.825712549	0.285670004	0.298319454	0.118630424	0.613199229	0.583828287
0.877399273	0.461992589	0.421693617	0.170584965	0.608149734	0.57166442
0.877794918	0.459699009	0.429732866	0.170756674	0.559760989	0.524463603
