Vam	Vbm	Vcm	Iam	Ibm	Icm
0.108107658	0.865667531	0.854489817	0.593523299	0.156426746	0.154673672
0.077015687	0.867640368	0.865714093	0.623177609	0.159995226	0.161957991
4.99105E-06	4.81903E-06	0.880974063	0.699226397	0.699448753	0.175177217
0.11377219	0.100023182	0.841797488	0.626122411	0.60089166	0.135079813
0.855285233	0.091353369	0.074128242	0.149288747	0.645701709	0.62583939
0.429558128	0.877439981	0.459528469	0.524224051	0.170573947	0.559938614
0.445101957	0.877481526	0.43831532	0.561939303	0.170551796	0.591616793
0.127859866	0.826942568	0.145484593	0.574541067	0.119456264	0.603548275
0.081382339	0.084234469	0.868420719	0.676318755	0.663747212	0.162646765
0.872324603	0.87434764	0.055313262	0.164534126	0.168310528	0.654976706
0.040981755	0.041279236	0.041166105	0.692472187	0.692192999	0.692404253
0.855480518	0.103076476	0.078882687	0.14957576	0.643434191	0.623649502
0.427021123	0.877474619	0.450438656	0.592869851	0.1707808	0.626481759
0.104074081	0.865981043	0.866678065	0.615080187	0.158412337	0.162856261
0.445735477	0.877001151	0.437295864	0.562361762	0.170480529	0.591647773
0.470294972	0.419778817	0.877558324	0.559556171	0.520986391	0.170611259
0.055310745	0.87170727	0.875558967	0.655056854	0.16434788	0.168310353
0.082635631	0.86891426	0.092616041	0.656875485	0.162617782	0.670102531
0.067328786	0.052107733	0.080911763	0.672961374	0.672893718	0.674420836
4.87771E-06	0.88132908	4.86375E-06	0.699566293	0.175079231	0.699184276
0.086667173	0.077986346	0.869069611	0.671820609	0.66054746	0.162628065
0.081721741	0.866265005	0.865070619	0.621253278	0.159605709	0.161591909
0.13377504	0.861098468	0.842714404	0.567762508	0.154583023	0.147611477
0.854911015	0.111532872	0.864311912	0.155620995	0.591955551	0.156613067
0.47040268	0.419937513	0.877820336	0.559648576	0.52104054	0.170858474
0.854362272	0.107989993	0.864698803	0.154781218	0.59381685	0.157144826
0.422300729	0.877849834	0.459458159	0.554811823	0.170340765	0.59059519
0.448116955	0.432755464	0.877729984	0.591120407	0.558384822	0.170632229
0.875629758	0.883983196	0.013708267	0.170582213	0.175917769	0.697409677
0.87678534	0.480363302	0.401162684	0.170190825	0.590046427	0.548220743
0.111458522	0.864975804	0.855157063	0.592264729	0.155971982	0.154915379
0.062475715	0.062474269	0.06238862	0.638756656	0.6386486	0.638615436
0.081832903	0.866751896	0.864814304	0.620911003	0.159508501	0.161624347
0.884350236	0.027325165	0.875095179	0.175151079	0.695172037	0.169852198
0.877874539	0.448989851	0.439801244	0.170794204	0.559783972	0.527772115
0.459178645	0.42560854	0.877422116	0.575526763	0.53942838	0.170531134
0.445217907	0.87707249	0.43775795	0.562091593	0.170366221	0.591810319
0.855452918	0.102950639	0.078830372	0.149339108	0.643456535	0.623674954
0.048729142	0.045124942	0.052718589	0.655562637	0.65637756	0.655966883
0.102236707	0.841386413	0.083356875	0.605895956	0.134852472	0.631180061
0.877058139	0.469768443	0.411401376	0.170069515	0.590411333	0.551617852
0.867788343	0.865552233	0.087790992	0.15975508	0.16201373	0.619530262
0.095466231	0.867102591	0.866323851	0.617433573	0.159245766	0.162449807
0.48656207	0.401969784	0.877370073	0.607570741	0.564647703	0.170434521
0.448222036	0.432813056	0.877884686	0.590979236	0.558223945	0.170689762
0.083399713	0.083665261	0.083809305	0.632055819	0.632244146	0.632447351
0.856664706	0.130460494	0.863640111	0.156693697	0.586480065	0.154800235
0.071821254	0.85604187	0.079717404	0.627473391	0.149327534	0.647877912
0.415654529	0.877847304	0.462219814	0.589607715	0.170562149	0.626280387
0.877480261	0.480810858	0.41021128	0.170501545	0.559512311	0.517429548
0.869128138	0.079420041	0.077390351	0.162568478	0.674877856	0.662503815
0.444708718	0.877478305	0.438687338	0.561896832	0.170717826	0.591600863
0.881742795	0.054604063	0.054135933	0.175354275	0.689912527	0.690472047
0.47005439	0.419600981	0.877125224	0.559524163	0.520939875	0.170697071
0.082812713	0.85506548	0.067826414	0.631574343	0.148928899	0.653045482
0.860949755	0.844953283	0.137060643	0.153935406	0.148752745	0.566271467
0.445643173	0.877530817	0.43786733	0.562639956	0.170367803	0.591798773
0.464430029	0.425522237	0.877250336	0.609069247	0.572226664	0.170540507
0.881867929	0.04108838	0.040856748	0.175345732	0.692540908	0.692435129
0.470048843	0.411775274	0.877719481	0.590693932	0.551585352	0.170763687
0.88175618	0.05460464	0.05413592	0.175353239	0.689918327	0.690471707
0.438580236	0.43857553	0.877181614	0.626485756	0.596347574	0.170224041
0.866269507	0.087892038	0.867335296	0.162366731	0.619335351	0.159555185
0.074914784	0.074899148	0.075212277	0.634247219	0.634492189	0.63449347
0.842837663	0.137248919	0.860468129	0.148050472	0.566182459	0.153869021
0.841717477	0.083370415	0.102292277	0.134690147	0.631247582	0.60573973
0.48074221	0.409942487	0.877157435	0.559333384	0.517659195	0.170497287
0.876774515	0.076050151	0.873467846	0.169278075	0.650533091	0.165045467
0.072201728	0.070097625	0.074504869	0.649640879	0.649975488	0.650107354
0.861377021	0.844828805	0.137043505	0.154317344	0.149151622	0.566259924
0.221655018	0.826469753	0.223029466	0.583752494	0.119268061	0.612635184
2.74814E-06	3.13987E-06	3.0706E-06	0.699061669	0.699109806	0.699575646
0.863786581	0.844943413	0.133783619	0.155456846	0.148426448	0.567813754
0.401573542	0.877698957	0.481193339	0.548307194	0.170615803	0.590292309
0.07716389	0.867499677	0.865012716	0.623085285	0.160007391	0.161602241
0.877505351	0.459627867	0.429514301	0.170732371	0.559846466	0.524305995
0.067704001	0.079246233	0.855434012	0.652378569	0.633227285	0.148993397
0.448499971	0.877347691	0.444793737	0.578604193	0.170605947	0.608858572
0.877306141	0.469953984	0.411462195	0.170173827	0.59044026	0.551628908
0.054260829	0.875665808	0.883535143	0.690350439	0.17054089	0.175322017
0.047207741	0.871924526	0.875402236	0.657022811	0.165064866	0.168607188
0.041103254	0.040784138	0.881395493	0.692408116	0.692680236	0.175394299
0.877246097	0.461916314	0.415357287	0.170525534	0.626155329	0.589735307
0.86043155	0.847164705	0.153985831	0.152527557	0.151718559	0.560867026
0.877713259	0.450560587	0.427137905	0.170740874	0.626365847	0.593024511
0.877246231	0.483999924	0.399535981	0.170592459	0.60857006	0.565940678
0.415639612	0.877425366	0.47003657	0.536153773	0.170588279	0.575466268
0.106386728	0.083077799	0.854482749	0.643312385	0.623540283	0.149052566
0.862719971	0.844133295	0.133787526	0.155469029	0.148633009	0.567804568
0.099297403	0.841735293	0.103177384	0.602410848	0.135170813	0.627920575
0.855723476	0.079746649	0.07157026	0.149628865	0.647841077	0.627715104
0.459154504	0.425691579	0.877470005	0.57541476	0.539329165	0.170593373
0.102218671	0.841555107	0.08338287	0.606051406	0.134780468	0.631275689
0.877289507	0.438634101	0.438629335	0.170477766	0.626442685	0.596433531
0.87732131	0.448075278	0.435858547	0.170637507	0.575714393	0.542764992
0.869015128	0.080642747	0.077950728	0.162522733	0.674909749	0.663402877
0.866746054	0.865765654	0.087849413	0.159497132	0.16183025	0.619640158
0.059778848	0.042621021	0.076382155	0.675497538	0.674880943	0.676777163
0.448411288	0.877337702	0.444895138	0.578597365	0.170604458	0.608839428
0.135273974	0.828190843	0.140727815	0.577007017	0.119383727	0.605189562
0.877375228	0.884029614	0.04085049	0.170971353	0.175655689	0.692925476
0.084852957	0.869131395	0.100218177	0.654409758	0.162653238	0.667724983
0.865150092	0.077071955	0.867673614	0.161145153	0.623364642	0.159920898
0.877196075	0.473346292	0.403961062	0.170635881	0.625935427	0.586077577
0.063598227	0.060097353	0.065585628	0.652090667	0.651931335	0.651573185
0.866480979	0.866828055	0.104029275	0.158960233	0.162846627	0.615277975
0.077346712	0.868133469	0.866068403	0.622994907	0.160110709	0.161429684
0.432458195	0.877228678	0.448131886	0.558587351	0.170564235	0.591555138
0.027410258	0.076983158	0.076958606	0.67871863	0.6800689	0.678528191
0.132156622	0.825166882	0.138297444	0.576963856	0.118690625	0.605955099
0.083910316	0.869143021	0.099541771	0.654427644	0.162617588	0.667830272
0.074913962	0.077659463	0.854971652	0.650376452	0.629389505	0.148638216
0.87680188	0.48053911	0.409803686	0.170611401	0.559454359	0.517493398
0.130509105	0.862680144	0.857443083	0.586512003	0.154856864	0.156965931
0.028156251	0.028207055	0.881921031	0.694729309	0.695406982	0.175201811
0.875574278	0.065216757	0.872469605	0.168804534	0.652793479	0.164897768
0.872008347	0.875205842	0.065209312	0.165215609	0.168840642	0.652734367
0.072224382	0.070038707	0.07425254	0.649030869	0.649990914	0.64912966
0.8740858	0.881745988	0.040853729	0.170065221	0.174660677	0.693024162
0.093761548	0.08107088	0.869259473	0.668310822	0.655584623	0.162675819
0.141815007	0.859365314	0.843689982	0.564585596	0.153027552	0.149220054
0.08339671	0.083688908	0.083919575	0.632088166	0.632090063	0.632496346
0.877365769	0.451151148	0.432273433	0.170558689	0.610102041	0.576557331
0.878361219	0.459985984	0.430010234	0.170861427	0.559891379	0.524383866
0.100181001	0.841819547	0.11400715	0.600425834	0.134894648	0.625613913
0.047237901	0.872301765	0.87448009	0.65839311	0.164851634	0.168445376
0.072145329	0.070025149	0.074146732	0.649559492	0.649930841	0.649520312
0.410456983	0.877962197	0.481029783	0.5177334	0.170682681	0.559351005
0.875665259	0.882958346	0.027326117	0.170545467	0.174883349	0.69514638
0.87182092	0.875289955	0.046395406	0.16493511	0.168633562	0.658968838
0.128244838	0.123091966	0.204185425	0.617520401	0.619159461	0.618201153
0.869125495	0.078598702	0.082006753	0.162579196	0.677189443	0.66504441
0.480550109	0.401170281	0.877044864	0.589959341	0.548253447	0.170026312
0.130460316	0.862838725	0.857236472	0.586383766	0.154790415	0.156890721
0.055066633	0.054501204	0.055236691	0.689886193	0.690301434	0.689926756
0.419768732	0.87748153	0.470224731	0.521069611	0.170651217	0.559637488
0.877542425	0.469953482	0.411698856	0.170598365	0.590342374	0.550978853
0.027331003	0.875298462	0.884022927	0.695391727	0.170729536	0.175880661
0.855020309	0.111520843	0.864207408	0.155164733	0.59212232	0.156127665
0.054649398	0.054230858	0.882033224	0.69011132	0.689980598	0.175493884
0.42556905	0.877406669	0.459147018	0.53975473	0.17061916	0.575795544
0.455217967	0.435679444	0.877393339	0.609361014	0.576020922	0.170607644
0.85680989	0.123058581	0.863578876	0.156746832	0.588460303	0.155842994
0.102285659	0.841664344	0.083371317	0.605964261	0.134782129	0.631439925
0.45517794	0.435995374	0.877319531	0.610004442	0.576420397	0.170571943
0.826822805	0.19242482	0.194706507	0.119452822	0.611740305	0.579721785
0.87711402	0.461850686	0.415290641	0.170590027	0.626149633	0.58969421
0.463211987	0.878017089	0.452148917	0.530744775	0.171040986	0.560111392
0.82580286	0.220657002	0.224127364	0.119305046	0.609486925	0.581323181
0.877437054	0.447775817	0.432883741	0.170451264	0.591235833	0.558535778
0.880725054	0.0142312	0.014041735	0.175276216	0.696437262	0.697160059
0.068982924	0.079164783	0.855299644	0.652161594	0.632377441	0.148939383
0.02822349	0.882231893	0.028135097	0.694992188	0.175558624	0.695642632
0.048749793	0.041105817	0.073447805	0.677499632	0.677629918	0.679587116
0.845057415	0.133730279	0.862629591	0.14835156	0.567800292	0.155406669
0.877473055	0.484776549	0.392950038	0.170431723	0.625245459	0.582444386
0.014020404	0.014152391	0.881632661	0.69709612	0.697105218	0.175307978
0.825890195	0.145521499	0.128540891	0.119348851	0.60349574	0.574402508
0.071484334	0.85586435	0.068811802	0.629459999	0.149464703	0.649855941
0.841692082	0.083367519	0.102274278	0.134695314	0.631240315	0.605732551
0.480854802	0.41011693	0.877456864	0.559288923	0.517644841	0.170487867
0.084147531	0.86913519	0.099627024	0.654439025	0.162602433	0.667837648
0.05425304	0.881685609	0.05458623	0.690420667	0.175305447	0.690370892
0.87498777	0.076018174	0.871303055	0.168968634	0.65050919	0.164411499
0.100232055	0.841748325	0.113857951	0.600555836	0.135004607	0.625684159
0.122993725	0.121550413	0.099022368	0.612268568	0.611727564	0.613830726
0.072422672	0.07020077	0.07513447	0.649169884	0.649953583	0.64907779
0.867654291	0.866490165	0.077341183	0.159935836	0.161710991	0.62288831
0.877700712	0.448070366	0.432897625	0.170721895	0.590975165	0.558180495
0.864290673	0.858022718	0.130379133	0.155488	0.157356169	0.586492824
0.874555079	0.076028319	0.871081428	0.168985336	0.650642316	0.164242354
0.841602756	0.08334662	0.102251377	0.134722132	0.631221133	0.605746405
0.081721966	0.868018546	0.865248074	0.621194273	0.159713174	0.161696729
0.41431776	0.8772723	0.474604551	0.568921144	0.170584248	0.608394
0.86748036	0.86555149	0.081542723	0.159804811	0.161748984	0.621489778
0.4358961	0.877364253	0.448129474	0.542823958	0.17058316	0.575786351
0.062462198	0.062521197	0.062392467	0.638103597	0.638320976	0.638547676
0.154009051	0.859795891	0.846541639	0.560871129	0.152350553	0.151617721
0.877656155	0.473575364	0.404192302	0.170672979	0.625846158	0.586155582
0.868975843	0.099180404	0.082344164	0.162832849	0.666713764	0.654305522
0.135750552	0.126580117	0.826655425	0.604168777	0.575666982	0.11918539
0.825875255	0.293793369	0.298163145	0.118593298	0.612414934	0.585962691
0.870485343	0.874099252	0.065210262	0.164262082	0.168371238	0.652722496
0.077223942	0.86737067	0.865104207	0.623027878	0.160023536	0.161607043
0.082009149	0.869019688	0.093478576	0.657131885	0.162637139	0.670522118
0.438582055	0.438577349	0.877185258	0.626506361	0.59635306	0.170232906
0.0927527	0.099780964	0.841539094	0.629605324	0.604198717	0.134806923
0.083690159	0.080685768	0.86907629	0.674378693	0.662642525	0.162567819
0.048253577	0.871814827	0.874496408	0.658782768	0.165138189	0.168311375
0.876215291	0.065217515	0.873151526	0.169146308	0.652726707	0.164991824
0.872214421	0.874938435	0.055275817	0.164959333	0.169025502	0.65493395
0.873275935	0.876064485	0.075925887	0.165000932	0.168891268	0.650532511
0.175629331	0.091155845	0.181362554	0.61237771	0.616140161	0.617202493
0.874780259	0.065209351	0.871928035	0.168740868	0.652952776	0.164567835
0.87691874	0.483942991	0.494360947	0.169940833	0.559913727	0.530996486
0.014398692	0.881152496	0.014322875	0.697126428	0.17515421	0.697424944
0.088049229	0.867379385	0.865765685	0.619257869	0.159352912	0.162031404
0.116654698	0.864197206	0.85577541	0.59046352	0.155561958	0.155827023
0.435269197	0.877406717	0.455016605	0.576121169	0.170568635	0.6097605
0.876806673	0.883897752	5.49654E-06	0.171366065	0.175665047	0.699242088
0.103977367	0.866478499	0.86688671	0.615292526	0.158846056	0.162821292
0.427085388	0.877608179	0.45050789	0.592964144	0.170670305	0.626474663
0.843755496	0.137265011	0.860628597	0.148470001	0.566235796	0.153840619
0.07715295	0.867586033	0.865539242	0.623128853	0.160007763	0.161538456
0.446357269	0.877367452	0.437076393	0.546075387	0.170621358	0.575726871
0.865502421	0.081465861	0.867413048	0.161388707	0.62148073	0.159730201
0.107926165	0.86510545	0.854520337	0.59363354	0.156597676	0.15472711
0.877544406	0.480620091	0.405756267	0.170565024	0.575389091	0.532960743
2.76124E-06	3.18594E-06	3.06924E-06	0.698883696	0.699045455	0.69936561
5.49528E-06	0.875206197	0.883753111	0.699140482	0.170346157	0.175123777
0.872462899	0.875063368	0.055274091	0.164958742	0.169064377	0.654923107
0.865866014	0.087786321	0.867097272	0.161707563	0.619606317	0.159549579
0.071345306	0.855989878	0.068860148	0.629601529	0.149040064	0.649860651
0.092415191	0.079048888	0.869197212	0.670586259	0.657394788	0.162507163
0.448189568	0.436003514	0.877497708	0.575554499	0.542754436	0.170619469
0.076936815	0.867735482	0.86581446	0.623249861	0.159944816	0.161805208
0.079115034	0.855872944	0.102948698	0.623544375	0.149919303	0.643304384
0.475281615	0.414544963	0.877293594	0.608065066	0.568476931	0.170572253
0.048186537	0.04186887	0.073667108	0.677484146	0.677988176	0.680160291
0.883388483	0.027328991	0.875519857	0.175179282	0.695296831	0.17030003
0.877283432	0.484263037	0.39923505	0.170593417	0.608530774	0.565907668
0.099282937	0.841046707	0.102979124	0.602518261	0.135014889	0.627638705
0.014505639	0.881303171	0.014441715	0.697138008	0.175186075	0.697343799
0.014474834	0.88133408	0.014463774	0.697222142	0.175173672	0.696612907
0.104063712	0.866135782	0.867231688	0.615136979	0.158693901	0.16317604
0.422241984	0.877430225	0.459061573	0.554541043	0.170572811	0.590336449
0.054274229	0.876006975	0.882639005	0.690562761	0.17094898	0.175365358
0.825590757	0.286514915	0.297164454	0.118648761	0.613961898	0.587329978
0.059814661	0.04249434	0.076226956	0.675620348	0.674927042	0.677281598
0.21620709	0.214715706	0.826138292	0.607579671	0.580225961	0.118812785
0.083297389	0.075857631	0.853646416	0.647893467	0.627668641	0.148697365
0.437078654	0.446346254	0.877358287	0.575743179	0.546079064	0.170601688
0.028174594	0.027784665	0.880924529	0.694615781	0.695361017	0.175326402
0.401643358	0.877384181	0.48074554	0.548427005	0.170001463	0.590073451
0.877084234	0.469762721	0.411437749	0.170082108	0.590421876	0.551624482
0.103127478	0.099203736	0.841504276	0.627701269	0.602775308	0.135009081
0.459456916	0.429495247	0.877299573	0.559998823	0.524121627	0.170821215
0.474909349	0.414798895	0.877268624	0.608027798	0.568447105	0.170570735
0.127342525	0.827556417	0.145356258	0.574597094	0.119343645	0.603527153
0.86231316	0.844102077	0.137122165	0.154794469	0.14921467	0.566237064
0.13474757	0.126393089	0.82668961	0.604150743	0.575614097	0.119483271
0.877386604	0.469914875	0.415398124	0.170539527	0.575552743	0.536234264
0.884377426	0.027326487	0.876993127	0.175486725	0.695187324	0.171274541
0.154028283	0.858227746	0.845643701	0.560910099	0.151912809	0.151004987
0.875873361	0.884222614	0.054272656	0.170870744	0.17600548	0.690483081
0.458962655	0.422030954	0.87743291	0.590547607	0.554953064	0.170700068
0.05403821	0.051544205	0.057660957	0.654229314	0.65401968	0.65405646
0.874116171	0.047095447	0.871298831	0.168064561	0.657009581	0.164928556
0.415801835	0.877433642	0.469850415	0.536025643	0.170581152	0.575387146
0.079810578	0.082494976	0.868754775	0.675690149	0.663534981	0.162661562
0.081027922	0.078718541	0.868902717	0.674198196	0.662245314	0.162463334
0.877339731	0.473419883	0.404030913	0.170628146	0.625949619	0.586112163
0.882763186	0.040853253	0.875469054	0.174841749	0.692930292	0.170729864
0.027731364	0.881110559	0.028507999	0.695454614	0.175277008	0.695476042
0.437078524	0.446346164	0.877358069	0.575742953	0.546078944	0.1706017
0.8420985	0.125115873	0.103492369	0.135177362	0.623512802	0.598079204
0.883428894	5.49755E-06	0.876331946	0.175646621	0.699299047	0.170867415
0.864347348	0.856239358	0.123073206	0.155323612	0.156541676	0.588671109
0.877399314	0.461991433	0.42169608	0.17058502	0.608149932	0.571664187
0.154032009	0.859137191	0.846848714	0.560974433	0.152389048	0.151774106
0.429599919	0.877513004	0.459557161	0.524284655	0.170843718	0.559818756
0.095560096	0.866291314	0.866625516	0.617318808	0.159228599	0.16259437
0.473292136	0.403920311	0.877100343	0.625699515	0.586142388	0.170544504
0.083485022	0.08365457	0.084027323	0.632371862	0.632066681	0.632518474
0.126375761	0.825657502	0.144498575	0.57510661	0.118524455	0.603837444
0.855475852	0.068937448	0.071427267	0.149068187	0.649807064	0.62928538
0.855750442	0.069016023	0.071366136	0.149126826	0.649710215	0.629595706
0.855422549	0.116694386	0.864964491	0.156116274	0.59027194	0.156487554
0.877345775	0.480583633	0.405650419	0.170564773	0.575138634	0.53277242
0.435889103	0.877365341	0.448130264	0.542824611	0.170581647	0.575786796
0.095463483	0.866508363	0.866545858	0.617222301	0.158873868	0.16245778
0.84472032	0.147398552	0.860685386	0.150772603	0.562739314	0.153145463
0.116690677	0.864587993	0.855615055	0.590377475	0.155669169	0.155854548
0.486842159	0.401511709	0.877374151	0.607344726	0.564435714	0.170493884
0.877223189	0.484675206	0.398794624	0.170612578	0.608250171	0.565634773
0.884306503	5.49528E-06	0.876413002	0.17578483	0.699342963	0.170879419
0.41202575	0.877917106	0.470487182	0.551738394	0.170686039	0.590725762
0.877412189	0.480802976	0.410147069	0.170516839	0.559510804	0.517431667
0.877338421	0.448058619	0.435911972	0.170587896	0.57568169	0.542849457
0.87691874	0.483942991	0.494360947	0.169940833	0.559913727	0.530996486
0.05428663	0.875917616	0.883064784	0.690732882	0.170942441	0.175171496
0.048511827	0.041162204	0.07326787	0.677462134	0.677646027	0.679586765
0.88201309	0.054274564	0.87507844	0.174880572	0.690534172	0.170341028
0.419715911	0.877391	0.470182594	0.521060459	0.17064524	0.559484357
0.40586654	0.877350653	0.480569634	0.533008728	0.170527901	0.575365065
0.473342839	0.403941729	0.877174162	0.625739234	0.586273052	0.170699281
0.422165119	0.877517926	0.459275332	0.554582263	0.170539273	0.5904042
0.103993071	0.866626365	0.866956464	0.615409437	0.158972824	0.16281373
0.083997976	0.869293733	0.080228347	0.664845909	0.16260377	0.677335797
0.826556797	0.190057767	0.186113447	0.118835857	0.611381097	0.580799234
0.055311833	0.871805489	0.87480806	0.655022639	0.164816543	0.16870692
0.86128296	0.844890208	0.137040591	0.154195717	0.149026373	0.566277732
0.87526445	0.055383461	0.871313293	0.168968897	0.654799181	0.164692723
0.053442313	0.05151549	0.056731645	0.654096986	0.654196794	0.654173003
0.469774094	0.41151657	0.877214093	0.590789162	0.551517661	0.170268073
0.411817596	0.877346277	0.470129134	0.551187591	0.170409179	0.589896269
0.123211637	0.862960101	0.857094067	0.588455355	0.154947332	0.156202263
0.107959416	0.865172444	0.855158282	0.593669203	0.156932056	0.154757732
0.877371063	0.459075549	0.425559442	0.17059477	0.575653858	0.539589583
0.425552875	0.877411583	0.464219269	0.573551607	0.170587283	0.609894352
0.224071711	0.82649055	0.225253387	0.582145253	0.119213869	0.612480679
0.863900599	0.856960713	0.130399497	0.154832074	0.156788613	0.586534247
0.054688788	0.054523795	0.054764907	0.690011414	0.690233496	0.690214696
0.068711164	0.079458267	0.855124066	0.651912923	0.632361523	0.148811781
0.877387623	0.451129314	0.432462265	0.170542057	0.609046865	0.575774441
0.48089049	0.410152453	0.877514553	0.559289898	0.517626137	0.170515364
0.855886023	0.079918058	0.071556727	0.149310617	0.64787939	0.627812858
0.047904807	0.87175165	0.874413579	0.658321618	0.164807758	0.168496674
0.855560949	0.123042775	0.864026144	0.156516242	0.588475311	0.155574734
0.066403116	0.052802307	0.08120438	0.673301973	0.672317073	0.674063532
0.067898463	0.079772803	0.855674493	0.651817799	0.63228699	0.148920283
0.880741552	4.84259E-06	4.89447E-06	0.17523579	0.698799852	0.699166389
0.877499213	0.473067797	0.410295635	0.17060118	0.609013307	0.569421068
0.877344693	0.484089247	0.399392293	0.170582069	0.608764468	0.566081949
0.054216359	0.881150238	0.054614974	0.690785166	0.175275735	0.690214345
0.867018518	0.865091395	0.081558662	0.159672679	0.161713353	0.621232054
0.401697387	0.877726632	0.481092474	0.548320004	0.170610476	0.59029864
0.842084267	0.124955074	0.103615936	0.135184229	0.623545163	0.598071203
0.846163509	0.147391531	0.861176294	0.150983113	0.562772131	0.153471573
0.449118147	0.877330639	0.444139848	0.578761627	0.170597169	0.608888901
0.867226079	0.866388039	0.095485443	0.159326803	0.162422874	0.617546669
0.432908363	0.877449245	0.447918218	0.558448789	0.170529036	0.591541332
0.462044522	0.415485968	0.877503374	0.626247407	0.589604877	0.170651892
0.435679554	0.877407575	0.454081098	0.57642576	0.170550644	0.60973111
0.866756139	0.104344765	0.866607975	0.162373959	0.615366183	0.15913221
0.469776992	0.415780366	0.877369471	0.575348793	0.536053272	0.170559246
0.092700072	0.099781177	0.84150262	0.629639274	0.604156066	0.134766383
0.881217419	4.8314E-06	4.8569E-06	0.175257087	0.699306899	0.698994125
0.87735138	0.451261342	0.431944395	0.170561688	0.610102599	0.576610319
0.425514475	0.877376594	0.459186921	0.539726165	0.170580385	0.575721213
0.882196957	0.054597492	0.054157699	0.175632061	0.690318071	0.690440138
0.877192959	0.459420831	0.429419419	0.170568469	0.559826663	0.524394927
0.861554256	0.843746359	0.137034097	0.153740871	0.148611322	0.566187767
0.825555744	0.136901386	0.130465478	0.118975031	0.604548352	0.575526542
0.054630295	0.054229484	0.882158207	0.690099861	0.689992582	0.175479368
0.86700093	0.104460927	0.866726934	0.162925224	0.615211024	0.159229396
0.825759507	0.223666909	0.226201001	0.119151327	0.608974901	0.582982837
0.079087208	0.856314356	0.102995691	0.623725528	0.149913207	0.643258778
0.884269987	5.49629E-06	0.875776109	0.176061049	0.699350099	0.170712996
0.855579022	0.065862216	0.078227321	0.149030487	0.652405836	0.632259432
0.444767965	0.877543938	0.438604997	0.561964405	0.170462534	0.591679738
0.102269742	0.841589964	0.083360027	0.6058548	0.134774266	0.631456496
0.864435168	0.855641891	0.116654801	0.156022643	0.156196092	0.590247011
0.881411239	4.86004E-06	4.87202E-06	0.175259963	0.698890342	0.699473026
0.086105503	0.077361789	0.86913425	0.672250262	0.660427831	0.162618712
0.432683412	0.877409633	0.448137129	0.557963413	0.170467972	0.590328435
0.868810164	0.077803848	0.080540325	0.162471781	0.677520125	0.665701821
0.864102957	0.857517642	0.130363958	0.15546021	0.157302006	0.586511485
0.062565221	0.062414812	0.062485783	0.638551278	0.63832945	0.63852397
0.405938928	0.877402828	0.480576877	0.532727988	0.170497542	0.575168122
0.845107544	0.141821602	0.860701855	0.149726121	0.564426247	0.153385421
0.107967579	0.864235453	0.854564423	0.593697659	0.156585106	0.154552859
0.877474091	0.448865411	0.439536853	0.170677227	0.559680487	0.527746346
0.8773055	0.480403351	0.405770829	0.170569493	0.575163186	0.532826131
0.027403089	0.028034729	0.028082155	0.695151037	0.694750846	0.695227119
0.473456603	0.404060176	0.877406465	0.62571168	0.586196692	0.170445237
0.866963694	0.866676382	0.095431443	0.159381747	0.162592234	0.617334293
0.077059159	0.867808792	0.865820461	0.623303936	0.159981133	0.161802291
0.841901864	0.125006793	0.103337903	0.135155439	0.62368177	0.59847003
0.135163836	0.827906203	0.139678417	0.577285775	0.119589702	0.605692499
0.445434169	0.449273029	0.877346112	0.608474527	0.578268307	0.170601262
0.866336167	0.0877772	0.867663405	0.162077715	0.619802151	0.15973685
0.465443659	0.877494023	0.449634839	0.531183204	0.170691262	0.560348651
0.014004404	0.014023469	0.88126478	0.696980735	0.697252439	0.175174073
0.103128866	0.099307511	0.841530618	0.627824012	0.602703826	0.135026299
0.486480503	0.401981318	0.877417243	0.607583951	0.564673279	0.170431262
0.877319832	0.437064419	0.446323424	0.170611717	0.575741255	0.546101087
0.141834248	0.85896752	0.843221361	0.564514367	0.152948302	0.149319611
0.871524197	0.874187999	0.06519667	0.164451627	0.167807453	0.65275537
0.13051183	0.863625388	0.857218858	0.586547729	0.154967736	0.157185266
0.877151448	0.48050477	0.401362962	0.170103687	0.589791285	0.548245365
0.874308713	0.076031877	0.87194037	0.168960186	0.650584855	0.165078928
0.877179893	0.459395435	0.429436165	0.170581377	0.559831793	0.524313348
0.083370657	0.102240764	0.841541258	0.631296949	0.605887309	0.1347151
0.084068494	0.869187658	0.099509187	0.654546679	0.162570635	0.667843841
0.855460724	0.116649351	0.864312466	0.155494718	0.590332782	0.155360525
0.041186421	0.040854658	0.881538266	0.692366022	0.692736564	0.175382152
0.404202297	0.877674479	0.473583198	0.5860735	0.170663505	0.625847872
0.861199347	0.846411829	0.147410897	0.153274574	0.150958768	0.562716468
0.088097938	0.866740069	0.865638009	0.619496492	0.159078724	0.162050452
0.401979218	0.877312534	0.486960079	0.564055237	0.170542878	0.607055351
0.087991733	0.866010934	0.865392185	0.619319361	0.159325778	0.161919686
0.415541578	0.877333092	0.470059932	0.535894807	0.170573944	0.57520676
0.448397238	0.877299234	0.444834017	0.579419284	0.170600263	0.609495455
0.111515285	0.864771578	0.855321714	0.59219408	0.156347214	0.155363359
0.142634044	0.133199404	0.098906952	0.611338881	0.611707907	0.614049153
0.877331698	0.448059925	0.435901404	0.170591135	0.575687952	0.542846898
0.469901564	0.411665793	0.877497914	0.590919365	0.551689213	0.170694938
0.87731618	0.437062683	0.446321448	0.170611191	0.575739065	0.546098894
0.86907554	0.077327662	0.080734481	0.162531366	0.677364379	0.665476533
0.062549639	0.062416177	0.062434664	0.638705669	0.638533649	0.638543684
0.88344431	0.027327062	0.875645362	0.174991628	0.695283341	0.170280943
0.867559429	0.865812369	0.081585822	0.159804136	0.161723713	0.621312414
0.123347103	0.120174552	0.098512145	0.612615088	0.611717007	0.613991347
0.083403193	0.868788306	0.094129336	0.655372025	0.162782831	0.668537926
0.480907439	0.410105168	0.87748711	0.559273911	0.517613857	0.170564524
0.865248849	0.077114754	0.867571599	0.161177557	0.623036412	0.160108177
0.847017243	0.153980447	0.859353316	0.151787338	0.560839864	0.152460898
0.844845272	0.133726745	0.862211668	0.1483986	0.567689474	0.15516932
0.866301074	0.095622547	0.867046791	0.162341253	0.617352183	0.159054654
0.884212528	0.027324451	0.875392248	0.175749156	0.695156874	0.170505754
0.875466586	0.055396177	0.870973062	0.16897138	0.654811727	0.164734169
0.867913777	0.10441108	0.867226291	0.162822996	0.615057872	0.159151582
0.059685416	0.042957761	0.076881208	0.674828888	0.67503985	0.676492164
0.873938961	0.050434305	0.870977941	0.168220789	0.658609849	0.165072273
0.054271001	0.875601717	0.883987535	0.690437137	0.170579835	0.175410421
0.826025686	0.23137864	0.229098703	0.119123196	0.60997502	0.582116672
0.435040779	0.877336141	0.455399269	0.576270512	0.17055589	0.609902398
0.465015285	0.424935268	0.877349878	0.610078045	0.573195436	0.170541129
0.130521407	0.862792645	0.85668478	0.586391135	0.154892347	0.157003002
0.116685657	0.864407701	0.855444309	0.590367201	0.155610398	0.155897968
0.855519526	0.068938728	0.071393464	0.149022427	0.649750854	0.62937789
0.844980165	0.137283532	0.861538098	0.149338703	0.566307387	0.154829912
0.16473048	0.090261758	0.161792468	0.619629815	0.616170085	0.621047229
0.877907501	0.450657368	0.427235483	0.170747272	0.62649499	0.593066502
0.075440125	0.076858514	0.856563654	0.649775321	0.629646861	0.149189956
0.884472028	0.040855939	0.875519583	0.175283645	0.693005824	0.170181788
0.401651895	0.877338587	0.487238413	0.564588825	0.170537908	0.607670725
0.877561167	0.436983021	0.444662746	0.170571748	0.591595139	0.562005707
0.47606534	0.41352375	0.877375034	0.609201929	0.569620981	0.170583845
0.866778486	0.866602532	0.0953679	0.159444299	0.162248828	0.617556719
0.11378533	0.100085817	0.841790162	0.626127964	0.600883863	0.135072081
0.111396623	0.865024878	0.855993667	0.592088895	0.156232984	0.155649248
0.074969487	0.074917415	0.075299758	0.634403747	0.634287466	0.634626047
0.459985174	0.430039114	0.878388212	0.559914649	0.524469265	0.170806058
0.881280857	0.014275074	0.014259177	0.17553701	0.697529732	0.697735026
0.446323248	0.877307771	0.43705248	0.546085668	0.170587644	0.575737663
0.419999341	0.877902683	0.470413269	0.520923006	0.170971869	0.559693321
0.027449276	0.028337925	0.028147588	0.694905151	0.694840442	0.695076605
0.868878025	0.077663524	0.080147338	0.162480949	0.677366867	0.665599828
0.404079017	0.877428328	0.473460583	0.586030595	0.17056811	0.625892424
0.865609179	0.07696793	0.867847611	0.161265701	0.623241983	0.160075323
0.429839872	0.878093284	0.459886346	0.524350861	0.170843503	0.559920319
0.429599156	0.877489731	0.459532614	0.5242991	0.170880143	0.559880294
0.107707268	0.082942694	0.855866107	0.643499152	0.624247769	0.149560992
0.074952409	0.076958167	0.8549951	0.649583051	0.62959481	0.149261186
0.083391021	0.102224048	0.841687555	0.63132606	0.606036492	0.134678242
0.216968618	0.215373484	0.826162081	0.607541212	0.579763776	0.118755941
0.469948671	0.411656367	0.877526089	0.590630836	0.551463347	0.170793544
0.130510697	0.862582452	0.857036706	0.586571167	0.154913011	0.15708059
0.883360102	0.013707849	0.876381194	0.175582889	0.697382074	0.171539747
0.435523976	0.877340659	0.454165354	0.576673144	0.170552362	0.610030945
0.860819468	0.846174757	0.147396054	0.153320452	0.15109238	0.562580851
0.464745025	0.424656506	0.877443639	0.608033098	0.571416474	0.170512554
0.867119445	0.864582012	0.077211013	0.1597256	0.161156378	0.623046538
0.863956547	0.856951758	0.130424947	0.154803869	0.156722879	0.586489262
0.083139903	0.869159482	0.079415273	0.664517723	0.162679512	0.677639857
0.877348174	0.447973475	0.432595221	0.17048923	0.591083945	0.558411804
0.048564417	0.045116818	0.052770751	0.656118567	0.65638809	0.655976186
0.055338277	0.871881547	0.874434833	0.655026878	0.164733544	0.168549972
0.865837246	0.081863144	0.867891933	0.162094227	0.620772375	0.159914738
0.884144585	0.054272377	0.875794963	0.175621394	0.690525931	0.170490733
0.027267346	0.075542362	0.07547448	0.678893664	0.680020507	0.678509844
0.082632518	0.855233151	0.067789488	0.631831774	0.148829165	0.653071978
0.877566286	0.484836671	0.392981136	0.170725913	0.625354548	0.582490143
4.86546E-06	4.89645E-06	0.881054457	0.699357239	0.699373776	0.175226196
0.874385024	0.076011514	0.870534704	0.168735446	0.65036987	0.164552379
0.874950926	0.065215065	0.871998629	0.168805283	0.652834866	0.164834938
0.877397963	0.459054565	0.425604649	0.170616059	0.575789836	0.539668679
0.877468574	0.462028066	0.415467915	0.170544525	0.62622543	0.589608224
0.047171669	0.871852256	0.874423998	0.657081664	0.165137356	0.168638127
0.0927527	0.099780964	0.841539094	0.629605324	0.604198717	0.134806923
0.87745929	0.462026279	0.415459918	0.170567703	0.626153138	0.589715082
0.88146708	0.041133441	0.040817271	0.175468874	0.692308017	0.692733525
0.881245822	4.92556E-06	4.80259E-06	0.175235167	0.699379495	0.69895272
0.403923618	0.87710146	0.473290212	0.586104593	0.170588577	0.625814924
0.877407888	0.484747249	0.392913402	0.17041046	0.625246575	0.58244271
0.429767556	0.877775563	0.459644539	0.524352985	0.170632104	0.55983909
0.123211588	0.862959715	0.857091079	0.588456206	0.154946697	0.156201627
0.411327019	0.877232784	0.470545969	0.551617862	0.170165917	0.590231501
0.028550659	0.882202437	0.028363877	0.695066663	0.175489876	0.695840496
0.869109452	0.083767609	0.075473537	0.162532328	0.670775234	0.659026157
0.884121418	5.49502E-06	0.87525851	0.175654447	0.699262795	0.170461625
0.133771693	0.862951427	0.843063608	0.567880927	0.155034321	0.147906615
0.065228888	0.871080415	0.874950344	0.652582508	0.164592038	0.168651787
0.425537929	0.877359762	0.459134977	0.539728721	0.170601379	0.575749468
0.865935846	0.087674862	0.867054495	0.161687778	0.619692908	0.159612559
0.855600331	0.079887955	0.071543827	0.149275279	0.647707515	0.627694822
0.079702912	0.869230079	0.081618028	0.663079188	0.162397213	0.675914748
0.08167746	0.867377121	0.866098504	0.621376626	0.159355694	0.161865398
0.44589563	0.449217274	0.877322733	0.608494924	0.578295874	0.170598355
0.040858107	0.881688643	0.041233715	0.692572608	0.175197432	0.692589756
0.074757387	0.07500505	0.075095217	0.634139191	0.634411251	0.634708103
0.877354432	0.439344394	0.443940492	0.170577854	0.608407357	0.578252089
0.432844697	0.877483529	0.447980999	0.558436759	0.17060564	0.591528578
0.211521792	0.207702082	0.826088544	0.60784293	0.580506784	0.119058071
0.23919141	0.825964759	0.234504343	0.584157042	0.118501089	0.613338891
0.825788405	0.136666696	0.127419366	0.119156093	0.605945909	0.577407523
0.401410112	0.877359802	0.487305849	0.564717509	0.170535494	0.607785645
0.242438307	0.825869679	0.234009688	0.583747279	0.118888892	0.612015951
0.147505248	0.860325143	0.845321051	0.562730384	0.152653214	0.15036113
0.425560186	0.877312538	0.459085957	0.539557481	0.170553284	0.575618421
0.100429108	0.841821766	0.114218639	0.600739478	0.135162544	0.625865029
0.877650828	0.470020517	0.411743227	0.170628078	0.590490787	0.551053975
0.11382137	0.099809504	0.841736478	0.626182383	0.60102245	0.135049008
0.460108283	0.877700843	0.45388948	0.53160434	0.170865624	0.560882397
0.448188113	0.432816548	0.877855255	0.59103176	0.558217039	0.1708305
0.415647755	0.877403602	0.469897864	0.536282019	0.170562936	0.575622722
0.027986159	0.027534529	0.88186958	0.694573659	0.694873832	0.175371878
0.470024987	0.411701689	0.877624968	0.590674456	0.551512019	0.170799919
0.091446453	0.306309005	0.260240167	0.622351239	0.627912007	0.623882795
0.131473529	0.827641871	0.141302723	0.577402593	0.119790927	0.605932516
0.876589049	0.882502316	0.013706039	0.170631657	0.174838365	0.69727641
0.429561732	0.877484658	0.459567512	0.524204329	0.170655055	0.559957856
0.450523187	0.427096352	0.877634249	0.626341277	0.593171241	0.170699288
0.082735757	0.869146699	0.079555634	0.664445727	0.162524158	0.677499699
0.082929266	0.869277004	0.099246686	0.654996673	0.162660788	0.667573621
0.841451969	0.113828229	0.100321506	0.135108501	0.625797896	0.600563923
0.405636599	0.87744877	0.480812213	0.533017193	0.170603561	0.575379942
0.881024343	4.96569E-06	4.77739E-06	0.17525565	0.699202589	0.699021525
0.108124832	0.86495362	0.854648443	0.593575516	0.156717187	0.154483931
0.107123216	0.083117698	0.855084877	0.643504904	0.624296852	0.149475416
0.092240776	0.078762897	0.869216353	0.670416533	0.65746023	0.162513913
0.084387683	0.076067621	0.856096764	0.647627044	0.628157448	0.149245149
0.876886965	0.882215952	0.013705915	0.170743559	0.175038894	0.697268785
0.462048665	0.415477097	0.87749931	0.626037515	0.589812234	0.170589634
0.048497963	0.872309134	0.874616021	0.658456649	0.164821047	0.168264061
0.055326089	0.872885659	0.874521652	0.655049834	0.164786068	0.168667197
0.054552502	0.054243545	0.881669519	0.68967401	0.69064151	0.175477707
0.86568161	0.081793066	0.866561958	0.161761124	0.621252178	0.159614389
0.13446979	0.125168434	0.825739468	0.604661048	0.577117957	0.118845487
0.106024989	0.082811626	0.855605051	0.643443579	0.62360736	0.149706136
0.865737605	0.077071996	0.867620794	0.161335217	0.623086156	0.16002856
0.080137225	0.206979964	0.205608613	0.620416646	0.62089986	0.624565338
0.868966773	0.080880051	0.078117236	0.162557916	0.674954004	0.663298358
0.884876158	0.013706763	0.877106615	0.175623115	0.697372765	0.171369228
0.877025898	0.473263755	0.403873157	0.170613783	0.625954851	0.586099178
0.074909641	0.074881926	0.075236425	0.634217155	0.634510474	0.634546512
0.027448819	0.0283345	0.028152087	0.694901875	0.694810957	0.695099892
0.099811637	0.84163604	0.092719774	0.604321796	0.134880861	0.629422868
0.877399393	0.461992798	0.421693347	0.170584928	0.608149628	0.571664527
0.081004687	0.08392017	0.868309048	0.676337411	0.663722372	0.16262931
0.873891324	0.050495659	0.870843484	0.168155438	0.658638866	0.165055594
0.869029863	0.083030082	0.074412422	0.162559069	0.672110262	0.659787305
0.055334326	0.871324509	0.875479545	0.654556452	0.16481945	0.169035086
0.08404234	0.869322215	0.100951877	0.655839863	0.162736876	0.667202642
0.066487281	0.052664606	0.08111725	0.673269244	0.672314352	0.674003252
0.083553249	0.07608305	0.855409829	0.648621745	0.627621951	0.149364953
0.87715895	0.438568681	0.438563997	0.170502277	0.626414574	0.596405711
0.877380904	0.48423508	0.39960689	0.170630427	0.607601326	0.564894765
0.047251355	0.872513585	0.874417369	0.658391459	0.164810243	0.168551553
0.462864923	0.877652616	0.448520753	0.531479364	0.170766417	0.560243521
0.113766907	0.100064871	0.841799193	0.626114057	0.600896945	0.135082255
0.060021482	0.060007045	0.059976097	0.64017679	0.640460161	0.640176597
0.841598985	0.102988309	0.099339733	0.134945077	0.627896998	0.602908592
0.872510463	0.875252776	0.065196683	0.165259916	0.168923782	0.652792602
0.448842768	0.439586443	0.87751151	0.559646989	0.527799088	0.170608249
0.438451742	0.438447067	0.876924441	0.62635175	0.596296482	0.17016303
0.825606019	0.137340962	0.127801553	0.119151325	0.605614799	0.577057377
0.059401278	0.042795478	0.076365074	0.674967277	0.674986718	0.676446631
0.872215579	0.873393374	0.046683556	0.16539865	0.168305368	0.658826761
0.846130414	0.153926042	0.859196538	0.150551708	0.560870012	0.151443723
0.841999635	0.103086576	0.099196043	0.134890246	0.627915008	0.602500064
0.872440014	0.873798782	0.046772103	0.165409368	0.168302021	0.658826742
0.877330808	0.448059951	0.43590026	0.170591448	0.575688557	0.542846508
0.437851202	0.44555053	0.877684962	0.593069485	0.563403457	0.170666822
0.07147613	0.856045095	0.06880932	0.629516019	0.149121329	0.649998923
0.825652321	0.137434486	0.129285861	0.118969983	0.604535321	0.57551968
0.068728279	0.0796873	0.855067787	0.652009678	0.632278474	0.148921357
0.14177398	0.86065907	0.84639713	0.564480209	0.153205107	0.149557361
0.427051477	0.877540054	0.450473622	0.592893301	0.170637927	0.626525618
0.05423044	0.051394118	0.057417659	0.654097323	0.654325514	0.654030317
0.861532883	0.843648099	0.137133281	0.15382707	0.148279888	0.566287945
0.425510309	0.877405693	0.464224721	0.573547314	0.170588386	0.609891665
0.863904686	0.856566395	0.123093952	0.155254778	0.156466576	0.588716406
0.46464208	0.424725871	0.877458919	0.608088204	0.571497368	0.17051285
0.841978664	0.103092522	0.099155409	0.134870019	0.62789505	0.602524172
0.877332081	0.451027233	0.432487233	0.170520695	0.608635484	0.575290454
0.877602688	0.450505904	0.427081946	0.170486753	0.626545913	0.593003611
0.863714429	0.85526846	0.11673207	0.155245129	0.155188905	0.590290149
0.85642921	0.130421514	0.863658924	0.157010077	0.586409236	0.155012576
0.425573258	0.877290162	0.464086413	0.572076469	0.17056765	0.60856531
0.074901473	0.076764182	0.855889558	0.649378364	0.629846996	0.149112028
0.856793519	0.123128887	0.863605454	0.156309127	0.588295797	0.155318596
0.884126011	5.49578E-06	0.876202082	0.175774134	0.69934589	0.170893356
0.866732915	0.087879602	0.867713096	0.162055593	0.619327527	0.159640581
0.071375128	0.065763606	0.085395283	0.669919573	0.670049481	0.670453054
0.877362579	0.451195559	0.432038636	0.170554158	0.609421795	0.576123981
0.459661702	0.429591101	0.877611681	0.559896354	0.524425408	0.170795058
0.435918649	0.877404972	0.448144079	0.542789041	0.170575136	0.575665257
0.099979605	0.081583338	0.868978071	0.668603656	0.657152729	0.162834505
0.047157587	0.872077594	0.874735829	0.658397555	0.164848259	0.168487477
0.083423541	0.102213523	0.841784822	0.631278082	0.605847083	0.134706844
0.085799084	0.077420133	0.868860712	0.67304952	0.660990538	0.162498152
0.877334473	0.439294628	0.443881765	0.170587723	0.608379533	0.57824418
0.10808273	0.865071537	0.854655752	0.59355724	0.156690002	0.154494622
0.404207261	0.877675879	0.473579375	0.585949439	0.170512954	0.62570009
0.877977522	0.481115552	0.410381326	0.170737524	0.559422645	0.517341814
0.405903723	0.877490594	0.480636605	0.533020199	0.170609044	0.575384845
0.842066141	0.125125172	0.103458618	0.135184395	0.623531273	0.598066075
0.435420685	0.877276264	0.454850343	0.57642735	0.170549286	0.610055942
0.43576584	0.877353178	0.453814478	0.576712674	0.170545814	0.610080153
0.825729311	0.13791578	0.12857329	0.119058052	0.605357783	0.576288924
0.826929142	0.190543783	0.19619246	0.119102034	0.609159798	0.579927943
0.85574607	0.103032976	0.078848066	0.149659248	0.643484154	0.62361311
0.072072358	0.065687318	0.085980848	0.670225468	0.670088693	0.670996826
0.881613757	0.054594422	0.054134778	0.175352324	0.689895603	0.690453493
0.878079021	0.470552122	0.420038251	0.170905367	0.559702581	0.521009166
0.841574131	0.09276932	0.099828074	0.134857397	0.629515311	0.604483433
0.411630892	0.877273653	0.470268946	0.551644506	0.170618299	0.590503743
0.448149462	0.436001448	0.877448588	0.575570291	0.542786443	0.170621465
0.876484274	0.882562281	0.027326185	0.171242704	0.175560467	0.695159798
0.876268002	0.883945349	0.027327998	0.171076668	0.175733263	0.695214229
0.877381083	0.469905814	0.415481058	0.170539981	0.575369108	0.536094954
0.055334313	0.87132516	0.875479197	0.654556329	0.164819361	0.169034643
0.12321675	0.862905407	0.856530565	0.588445711	0.154864539	0.156150235
0.877412793	0.473135936	0.410173653	0.170633646	0.608993413	0.569399623
0.883933389	5.4973E-06	0.876183571	0.175664553	0.699339692	0.170952037
0.409940238	0.876889254	0.480491513	0.517539221	0.170598461	0.559283447
0.415497516	0.877528792	0.462058636	0.589753522	0.170573977	0.626138039
0.480616185	0.405786156	0.877264004	0.574935829	0.532458793	0.170570825
5.49629E-06	0.875847091	0.884698689	0.699540188	0.170715508	0.176336316
0.877067796	0.884322023	0.013705995	0.171447041	0.175602481	0.697298042
0.474489153	0.415453149	0.877289832	0.608184966	0.568587307	0.170570169
0.842157004	0.124991616	0.103560342	0.135188038	0.623662351	0.598159876
0.884765281	5.49528E-06	0.876988343	0.176071882	0.699355535	0.170754146
0.876499776	0.882182764	0.054278243	0.171092132	0.175239981	0.690511413
0.027965409	0.027445518	0.881651444	0.694546094	0.694640143	0.175343488
0.875770329	0.88334669	0.054274718	0.170518067	0.175143675	0.690523676
0.845653553	0.137284305	0.861483799	0.148781692	0.566282325	0.154190237
0.100242069	0.841697334	0.113885867	0.600472542	0.134990762	0.625654793
0.09255442	0.080009517	0.86916239	0.669338912	0.656407211	0.162684302
0.877355707	0.437073937	0.446348674	0.170616337	0.575715345	0.546065411
0.093517786	0.338568489	0.288834445	0.622637537	0.62923356	0.624068023
0.048215665	0.045080516	0.052232437	0.656150714	0.656141773	0.656257834
0.876785878	0.882064238	5.49578E-06	0.170779571	0.175363305	0.699126666
0.877331365	0.473108351	0.410427297	0.170606739	0.608864761	0.56932126
0.876429481	0.884349996	5.49755E-06	0.170777143	0.176289646	0.699522847
0.455420068	0.436253687	0.877368824	0.607971393	0.574666857	0.170580073
0.856022488	0.123164592	0.863207721	0.15611304	0.588599004	0.155317815
0.437770706	0.445407832	0.877675014	0.593031397	0.56343079	0.170760964
0.445149157	0.876534402	0.437716548	0.562953896	0.170001209	0.591868774
0.055306788	0.871671681	0.874802305	0.655005136	0.164470755	0.168385012
0.062558139	0.062421546	0.062422447	0.638652268	0.638473209	0.638545817
0.013749892	0.014325346	0.014321013	0.696847874	0.697433367	0.697302135
0.8774443	0.462018615	0.4154528	0.17050275	0.626158879	0.589752243
0.855506938	0.111549995	0.864927676	0.155553727	0.592257037	0.156600673
0.869081998	0.077981911	0.081265881	0.162612234	0.677391784	0.664935704
0.877350663	0.451346715	0.431823298	0.170554701	0.609474511	0.576170449
0.393182832	0.877964174	0.48503441	0.582565264	0.170880555	0.625435959
0.048303226	0.872051067	0.874344405	0.658560808	0.164855186	0.168193065
0.855463363	0.111525274	0.864346138	0.155528002	0.592284079	0.156659357
0.100257125	0.842063164	0.114075135	0.600803476	0.135122709	0.625909549
0.859658821	0.846566197	0.153974046	0.152400192	0.151520948	0.560979664
0.125135936	0.103214599	0.841496069	0.623823533	0.598649902	0.135342049
0.083440019	0.102244156	0.841885319	0.631217727	0.605711744	0.134701602
0.047228993	0.870782378	0.874227957	0.656660032	0.164110083	0.168443027
0.459161467	0.425624636	0.877421957	0.575471451	0.539376583	0.170544525
0.867167318	0.867182061	0.103978922	0.159537099	0.163221754	0.615380233
0.470294972	0.419778817	0.877558324	0.559556171	0.520986391	0.170611259
0.825216687	0.214442461	0.206990254	0.118757949	0.609489327	0.58365888
0.871295112	0.874413725	0.047110612	0.164957353	0.168049122	0.657080719
0.866292346	0.095513235	0.866299541	0.16246153	0.61778364	0.15903412
0.874907344	0.047090691	0.872135544	0.168207249	0.657000067	0.164911705
0.126346525	0.825070865	0.143939965	0.575116452	0.119120625	0.603634635
0.855114519	0.107846139	0.864498952	0.154540814	0.59393974	0.156582537
0.095482085	0.866967807	0.866399427	0.617442529	0.159241215	0.162451344
0.277480781	0.281470551	0.825778252	0.613624678	0.585536123	0.118543885
0.045456888	0.048446979	0.052453143	0.657343606	0.658399172	0.658678869
0.067677554	0.067638413	0.067868248	0.63653677	0.63644555	0.636884415
0.841684241	0.092690202	0.09982436	0.134856636	0.629402269	0.604019615
0.07489441	0.076593746	0.855596509	0.649108971	0.629680147	0.149249824
0.86324536	0.844235966	0.13380273	0.155575097	0.148429912	0.567740933
0.446337606	0.877320619	0.437050694	0.546041686	0.170632494	0.575675674
0.455052933	0.436188875	0.877330025	0.610005554	0.576422893	0.170567292
0.459008517	0.422033004	0.877479019	0.590689504	0.55501288	0.170480846
0.877385439	0.480739993	0.40141308	0.170240644	0.590185626	0.5480305
0.415626487	0.877352423	0.469875696	0.53613192	0.170588836	0.575430239
0.841576564	0.083393823	0.10226194	0.13474111	0.631243145	0.6058054
0.875559338	0.055302464	0.872378484	0.168478164	0.65486733	0.164803391
0.071684138	0.855144799	0.07963559	0.627699036	0.148780903	0.647749192
0.48055566	0.401210454	0.87708394	0.589948499	0.548229419	0.169994023
