Va	Vb	Vc	Ia	Ib	Ic
0.422109259	0.877456269	0.458970276	0.555311821	0.170429683	0.59114721
0.111414528	0.864089917	0.855807194	0.592068663	0.156328635	0.155238487
0.133706258	0.861989834	0.84424015	0.56779328	0.155131991	0.148094529
0.855705191	0.079522509	0.071846431	0.148979701	0.647932865	0.627495201
0.859794995	0.846100592	0.147439576	0.153136646	0.150784305	0.562530823
0.054272976	0.876796418	0.882958921	0.690472336	0.171572216	0.175559176
0.45952117	0.429551559	0.877432412	0.559815005	0.524374292	0.170644044
0.040857728	0.876913997	0.883593417	0.693095587	0.170552868	0.175681305
0.8772994	0.47309127	0.410613504	0.170540204	0.609267073	0.569381894
0.856093787	0.091288992	0.074066226	0.149395002	0.645854828	0.625500191
0.880531799	0.054616006	0.054318419	0.175277019	0.689911157	0.690711521
0.092747063	0.099677117	0.841389163	0.629549232	0.604419932	0.134830322
0.867477737	0.864963069	0.077314964	0.16005433	0.161181758	0.623080197
0.864707505	0.854550725	0.107673283	0.156463566	0.154059351	0.593706189
0.077056188	0.868016081	0.865662213	0.62319548	0.160376073	0.161216226
0.469867208	0.415689948	0.877296353	0.575270281	0.536075601	0.170541818
0.419807342	0.877545143	0.470256329	0.520796657	0.170895383	0.559752884
0.855601253	0.065488032	0.079204513	0.148658407	0.652429629	0.631758655
0.041586991	0.041056702	0.041977929	0.692978723	0.691967085	0.692169502
0.040842279	0.875778758	0.882063621	0.692813949	0.170478924	0.175479694
0.43705811	0.446289861	0.877279691	0.575772021	0.546016994	0.17058045
0.8631171	0.855623753	0.116644824	0.155440621	0.155475974	0.590386819
0.876135396	0.884091987	0.0000055	0.17084002	0.175801431	0.699390442
0.873834563	0.055356989	0.871267863	0.168342714	0.654925017	0.164382152
0.480613577	0.401231729	0.877161936	0.590164428	0.548193505	0.170145438
0.855963349	0.116763848	0.863307752	0.155469051	0.59030185	0.155376394
0.861375595	0.843584111	0.137123681	0.154031624	0.148462672	0.566245422
0.027403411	0.881838645	0.027757875	0.694963089	0.175357058	0.695335305
0.875803821	0.883290336	0.013707254	0.170385397	0.17531509	0.697343494
0.876937027	0.447672307	0.432800977	0.170340203	0.590813698	0.558380011
0.876751136	0.469748108	0.411982842	0.170435292	0.589999302	0.551179713
0.41555896	0.877654771	0.462122832	0.589694408	0.170692865	0.626230842
0.476036897	0.413660596	0.877391289	0.610647978	0.570721031	0.170544771
0.883769576	0.0000055	0.875511019	0.175667439	0.699407031	0.170724654
0.435253386	0.87723275	0.455039847	0.57428023	0.170572954	0.608114553
0.286043597	0.298014463	0.825569358	0.61618527	0.588277214	0.11871545
0.877854076	0.437570345	0.444464142	0.170884673	0.592314132	0.562763024
0.458686932	0.421618113	0.876742069	0.590841023	0.555006085	0.170330846
0.876664647	0.877758352	0.878021584	0.170558315	0.17073492	0.170763741
0.129290845	0.108491707	0.151200054	0.615451871	0.613165967	0.614656751
0.013757618	0.014108035	0.013984277	0.697136249	0.696756156	0.696369274
0.877484212	0.480622308	0.405692476	0.170554744	0.575127067	0.532780559
0.448859881	0.439835968	0.87777543	0.559867007	0.527555385	0.170463892
0.079770003	0.071476342	0.855636077	0.648044093	0.627382719	0.14919401
0.404099251	0.877461699	0.473473986	0.586157352	0.170819776	0.625815128
0.877330893	0.448090763	0.43584813	0.170623121	0.575743065	0.542862065
0.249392864	0.258992376	0.825197685	0.608688748	0.581009158	0.118531823
0.868711557	0.076304627	0.079673497	0.162581155	0.676065525	0.664271027
0.079762111	0.071468292	0.855744671	0.647895651	0.627325512	0.149381206
0.240424586	0.248376271	0.825503166	0.610533272	0.57992846	0.118505396
0.393058754	0.877709522	0.484903807	0.582653453	0.170873209	0.625243789
0.147419289	0.859284123	0.845176594	0.562799535	0.152469029	0.150339549
0.404111438	0.877490894	0.473491437	0.586189221	0.170876299	0.625889533
0.877455954	0.45081647	0.432201391	0.170554908	0.609520289	0.576164101
0.070662722	0.051232398	0.082384603	0.67348211	0.672548069	0.674886591
0.57279546	0.877111153	0.543614978	0.538592658	0.17040433	0.56590662
0.865270136	0.855039884	0.111369582	0.155697371	0.154625489	0.592010094
0.841344516	0.083372892	0.102215085	0.134787122	0.631363825	0.606209797
0.027494298	0.881914413	0.027791397	0.694988902	0.175037241	0.695105477
0.054598012	0.054234482	0.882004192	0.689922841	0.690717105	0.175350613
0.869129892	0.097680282	0.078900921	0.162749414	0.66992398	0.657314182
0.08339378	0.102220415	0.841795467	0.631206323	0.605862729	0.13472693
0.826376473	0.147585527	0.131887092	0.119157276	0.604802236	0.575469972
0.056302685	0.044820739	0.074986527	0.675488504	0.674682025	0.67592571
0.00000497	0.00000479	0.881612616	0.699286783	0.699113081	0.175082136
0.843139377	0.845673737	0.846559527	0.256757975	0.256815869	0.257286948
0.405921747	0.877322058	0.480537591	0.53275971	0.170541533	0.575087729
0.876043253	0.88361128	0.040860261	0.170835537	0.175926031	0.693135288
0.04496275	0.048879855	0.051268255	0.657283785	0.658054689	0.659045115
0.445716063	0.877355416	0.444613256	0.57681193	0.170569945	0.607664755
0.040861783	0.87577616	0.883499487	0.693144691	0.170617203	0.175525569
0.438936242	0.438931583	0.877893979	0.626575638	0.596506439	0.170713641
0.090796641	0.07685762	0.868980343	0.667932511	0.65789629	0.162544728
0.415590439	0.877419518	0.469983495	0.536173463	0.17053595	0.575462656
0.480788453	0.405835115	0.87745728	0.574761295	0.532335812	0.170575306
0.425649738	0.877322602	0.459088281	0.539463774	0.170503864	0.575593123
0.070415355	0.071518027	0.074052231	0.649918341	0.650235615	0.650684157
0.045612412	0.04820537	0.054063877	0.655515606	0.656510273	0.65530018
0.872859163	0.87409375	0.873002768	0.188559476	0.189282088	0.188966092
0.448814552	0.439625549	0.877513548	0.559795931	0.52770014	0.170642461
0.877489684	0.484806583	0.392934304	0.17072312	0.625343571	0.582672888
0.147451954	0.859990128	0.846048264	0.562690854	0.153030722	0.150727992
0.424185549	0.877388539	0.465194604	0.573174663	0.170547326	0.609860884
0.856020009	0.07945199	0.071861766	0.149301051	0.647801543	0.627211395
0.884318017	0.02732534	0.875187813	0.176112243	0.695222071	0.170606531
0.00000484	0.0000049	0.881686506	0.699291254	0.699150911	0.175261194
0.874501045	0.873405011	0.874692454	0.188882616	0.188605314	0.189071882
0.279148951	0.289395708	0.825686584	0.61220086	0.585057576	0.118724427
0.079601294	0.082675481	0.868910195	0.67926427	0.666286969	0.162499774
0.825511128	0.264512302	0.278494295	0.1184567	0.611267824	0.584468559
0.88121591	0.00000489	0.00000478	0.175384946	0.699057287	0.698983003
0.884293331	0.04084369	0.875653644	0.175455363	0.692831624	0.17025428
0.826111578	0.148514266	0.131937766	0.119106731	0.605045201	0.57556552
0.132786688	0.825566296	0.149438176	0.574827147	0.118937188	0.603886572
0.062515385	0.062502207	0.062454737	0.638405178	0.638464586	0.638561706
0.861570055	0.84370497	0.137207088	0.15450381	0.148851467	0.566215457
0.857110186	0.102854774	0.078846461	0.149476532	0.643435131	0.623876975
0.877386134	0.469842458	0.415539726	0.170593624	0.575603362	0.536333306
0.154108031	0.140805962	0.096309877	0.618611937	0.616768883	0.61526863
0.480612016	0.401350813	0.877273111	0.589900931	0.548029158	0.170830502
0.027322784	0.876845233	0.882763176	0.695123806	0.170665932	0.17520574
0.103148157	0.099175961	0.841597794	0.627693593	0.602524694	0.135012956
0.437653314	0.445161118	0.877398196	0.591322497	0.561969504	0.170389868
0.841699786	0.124788782	0.103611986	0.135291043	0.623292766	0.598050016
0.865367033	0.076975064	0.867176811	0.160903294	0.623405113	0.159518243
0.445515267	0.877360871	0.444720383	0.576621324	0.170571962	0.607400809
0.868690202	0.077389922	0.079842595	0.162579026	0.676207812	0.664300956
0.058029913	0.045141232	0.076847932	0.675473963	0.674600933	0.67634228
0.124909342	0.10329367	0.841670916	0.623338367	0.598387132	0.135161191
0.014665104	0.880856841	0.014786798	0.697291515	0.175344613	0.69678523
0.480699438	0.401351154	0.877375932	0.590161432	0.548029354	0.170482388
0.438881013	0.438876294	0.877783529	0.626685497	0.596337027	0.170647574
0.844864945	0.141726784	0.860856761	0.149594462	0.564622489	0.153592951
0.470161262	0.411795964	0.877894691	0.590528475	0.551829491	0.170245493
0.862979565	0.856551605	0.130355209	0.154736897	0.156840572	0.586417929
0.866675462	0.095134954	0.867342404	0.162420472	0.617942724	0.15933544
0.435895286	0.877304988	0.448079031	0.542811172	0.170555906	0.57570099
0.874485924	0.051075171	0.872366102	0.168277728	0.658937945	0.165032665
0.876377297	0.883844814	0.027326272	0.170586187	0.175777481	0.695198624
0.12309918	0.863184543	0.856292312	0.588488686	0.15516054	0.156269298
0.146125062	0.131965741	0.826227279	0.60153309	0.57244734	0.11966662
0.85612296	0.091277238	0.074175122	0.149282196	0.646045983	0.625657522
0.858989009	0.846255061	0.153951818	0.152233204	0.151304324	0.560876554
0.054273894	0.875220566	0.883537155	0.690505855	0.170879482	0.175332271
0.43892863	0.438923876	0.87787891	0.626636232	0.596324702	0.170708235
0.871323639	0.875466696	0.055330301	0.165247804	0.168932311	0.654875557
0.469582246	0.411291977	0.876778242	0.590496183	0.551912277	0.170251925
0.868895414	0.080525198	0.077558938	0.162534756	0.674711747	0.662978953
0.425683113	0.877442036	0.45913012	0.539347657	0.170657291	0.575341932
0.874453798	0.047216955	0.872223093	0.168567484	0.656876237	0.164906117
0.450308796	0.426884245	0.877207533	0.626427802	0.593061784	0.170403453
0.065212452	0.871605227	0.874602429	0.65270712	0.164419378	0.168658521
0.822075168	0.823607086	0.824362068	0.298514325	0.298725296	0.298473871
0.062503309	0.0624727	0.062440471	0.638275122	0.638271718	0.638498646
0.855463312	0.102833177	0.079040782	0.149278959	0.643590112	0.623374054
0.841472866	0.124852743	0.104068221	0.135340881	0.622914283	0.597809813
0.877528264	0.450468863	0.427044786	0.170693266	0.626494517	0.593027022
0.103035964	0.841847523	0.125013622	0.598571623	0.135127169	0.623577177
0.06620748	0.080180377	0.853976511	0.652659924	0.632998161	0.14875901
0.874280133	0.065246926	0.871063459	0.168263675	0.652792684	0.164342354
0.841675204	0.083355501	0.102299706	0.134899518	0.631417354	0.605880478
0.424365079	0.877457831	0.46531403	0.573134226	0.170552324	0.609863555
0.027525012	0.881554817	0.027677972	0.695381042	0.174975327	0.694316929
0.882928121	0.054280792	0.875759077	0.17500078	0.690582387	0.170783058
0.480714598	0.406000234	0.87750412	0.574766705	0.532241138	0.170539823
0.153945488	0.859903819	0.846891847	0.560828032	0.152717354	0.151819103
0.444127058	0.877820344	0.439329523	0.562310362	0.170493569	0.591941796
0.875700297	0.883860269	0.0000055	0.170839928	0.175798702	0.699394323
0.877499825	0.462043821	0.415483327	0.170497708	0.626087697	0.589817597
0.854531303	0.107622769	0.86510125	0.154432523	0.593789673	0.156467642
0.059445987	0.064489207	0.063425844	0.652335086	0.651207431	0.651568041
0.073728919	0.854898859	0.082007447	0.627745727	0.149422302	0.647475128
0.054590136	0.054216329	0.88201223	0.689987939	0.69058109	0.175760309
0.444591594	0.877365753	0.438547847	0.56181088	0.170410068	0.591289806
0.861833406	0.863470485	0.862323443	0.218513883	0.219210233	0.219085549
0.107814922	0.864961805	0.855267874	0.593784727	0.156849467	0.15461544
0.103176531	0.078835581	0.856240301	0.643196871	0.623706011	0.149671574
0.873800753	0.873477852	0.874836262	0.189014747	0.188805061	0.189770081
0.866924981	0.866379974	0.081775472	0.159566409	0.161956651	0.62109097
0.133729016	0.86266544	0.84405789	0.567796363	0.155459671	0.148445422
0.868804624	0.082985117	0.075176755	0.162663519	0.673403526	0.661696485
0.331000861	0.825952305	0.319469195	0.582538312	0.118800276	0.612444958
0.877387366	0.469817168	0.415549496	0.170556689	0.575404546	0.536119938
0.044471727	0.872367531	0.873632525	0.65923295	0.165481962	0.16821336
0.270113174	0.283320634	0.82556999	0.613715965	0.58422088	0.118680099
0.856883622	0.068724054	0.0720986	0.149526564	0.650180355	0.628913632
0.447832288	0.432517529	0.877214947	0.590787674	0.55845984	0.170202803
0.872490158	0.874397842	0.04718751	0.164845646	0.168070799	0.657086471
0.881429407	0.00000482	0.00000492	0.175450268	0.698861363	0.699274664
0.07703699	0.867447979	0.864693097	0.623174947	0.160365172	0.161209349
0.875013665	0.076030039	0.871971911	0.168359058	0.650563383	0.164821583
0.882121015	0.054639838	0.054253614	0.175673711	0.689986915	0.690428131
0.415419415	0.877386437	0.461993657	0.589849544	0.170440393	0.626080073
0.877578424	0.480932228	0.410171534	0.170902255	0.559588589	0.517362031
0.841867179	0.103079605	0.098865246	0.135029085	0.627748578	0.602567329
0.149613914	0.133406108	0.826184121	0.603015685	0.575308894	0.119234958
0.480700481	0.40135266	0.877378552	0.590161166	0.548030337	0.170482426
0.215591182	0.825518159	0.209721975	0.577869232	0.118794178	0.605969721
0.866133254	0.081572214	0.867015779	0.161708793	0.621354429	0.159581877
0.859491866	0.846250167	0.154030686	0.152272076	0.151307607	0.5607819
0.42552945	0.877217824	0.459083788	0.539481818	0.17053224	0.575563856
0.425647418	0.877412402	0.459168672	0.539415031	0.170550172	0.575462954
0.87232417	0.873507804	0.047353054	0.165691413	0.168610032	0.656912532
0.82421614	0.822885113	0.823399491	0.298463606	0.298545029	0.29770662
0.42960022	0.8776395	0.459686731	0.524429471	0.170829708	0.559751288
0.88148733	0.00000493	0.0000048	0.175534021	0.698984389	0.699222211
0.855228776	0.079627836	0.071949278	0.148850583	0.647904255	0.628053879
0.073847984	0.855212372	0.08213759	0.627997255	0.149428284	0.647840568
0.845388667	0.141821003	0.861570476	0.149816392	0.564626349	0.153786345
0.111377307	0.864705648	0.85555167	0.592038804	0.156214701	0.155199476
0.877159434	0.484644012	0.392765925	0.170695467	0.625341832	0.58265712
0.856068997	0.07945459	0.071863751	0.149280487	0.64782787	0.627206772
0.083394038	0.102165265	0.84127261	0.630706696	0.605728717	0.134786221
0.047145456	0.872095593	0.873363256	0.656872388	0.165180307	0.168252319
0.856096522	0.091248397	0.074117814	0.149223266	0.645795608	0.625474939
0.027979321	0.027597325	0.028337995	0.695306762	0.695565393	0.695362283
0.0798423	0.869057909	0.088777981	0.664330331	0.162632611	0.674069976
0.869133156	0.098260901	0.080978428	0.162682842	0.66953367	0.657263017
0.051939221	0.053603283	0.058345195	0.654256354	0.654208743	0.654296912
0.486884998	0.401208504	0.877366584	0.607627656	0.564661481	0.170501367
0.446320779	0.877329676	0.43707405	0.546075391	0.170537777	0.575749203
0.077052873	0.867513231	0.864420995	0.623131274	0.160205424	0.161193219
0.825892926	0.281350676	0.297201236	0.11848688	0.610254818	0.582921062
0.846347366	0.147482863	0.860898429	0.150354186	0.562879703	0.1527211
0.088295728	0.079370874	0.868738691	0.672643905	0.660745387	0.162673002
0.874125796	0.87270876	0.87352749	0.189031326	0.188324127	0.188249096
0.057506877	0.045124581	0.076301479	0.675541607	0.674477952	0.676387891
0.345798062	0.825469245	0.339511568	0.586722189	0.118530235	0.612617627
0.872926095	0.87436987	0.874362709	0.188765309	0.189025197	0.189314508
0.874390122	0.87297745	0.874713839	0.189036471	0.188188883	0.188255831
0.421719585	0.877086457	0.458995257	0.554916241	0.170045306	0.590277141
0.877712082	0.43831394	0.443567041	0.170679609	0.591323797	0.561638467
0.079657065	0.071547822	0.855630856	0.647689625	0.627645102	0.149178321
0.877346448	0.459021793	0.425587135	0.170598279	0.575689229	0.539652781
0.873308418	0.874805535	0.875047529	0.188217954	0.189186198	0.189277568
0.041490379	0.881805261	0.041654352	0.692941829	0.175270729	0.692824877
0.099724539	0.841613701	0.092680112	0.604568519	0.134805726	0.629793827
0.877800724	0.48098502	0.410347645	0.170958618	0.559600375	0.517343975
0.865459088	0.077054426	0.867660532	0.160929923	0.623433348	0.159528153
0.344101557	0.825342155	0.334423923	0.582023492	0.118447731	0.613155323
0.862760107	0.857220516	0.130383755	0.154629094	0.156738269	0.586470511
0.480881959	0.410201097	0.877557643	0.559377538	0.517518137	0.170646785
0.865115394	0.85473429	0.10762202	0.156260993	0.154333293	0.593682386
0.859312004	0.846338201	0.153982946	0.152208005	0.151230962	0.56074859
0.432570566	0.877604412	0.448231254	0.558396989	0.170460439	0.591014204
0.29667823	0.82631378	0.295939943	0.590456404	0.118978896	0.614902804
0.066596522	0.078351771	0.854961044	0.654004603	0.634135843	0.148642095
0.062497549	0.062481109	0.062479489	0.638262049	0.638419828	0.63852243
0.087166555	0.079328507	0.868701259	0.672394423	0.660129702	0.162650022
0.458973927	0.421941653	0.877354028	0.590758815	0.555082473	0.170371915
0.014191144	0.881185375	0.014189625	0.69707476	0.175371601	0.696833738
0.419618234	0.877406266	0.4702906	0.521050262	0.170648274	0.559652354
0.87829117	0.481170655	0.402142577	0.17093523	0.590046118	0.547827901
0.329477259	0.825966656	0.31749868	0.585422389	0.118711657	0.612858391
0.84556184	0.141814086	0.860254198	0.149626908	0.564484123	0.153376744
0.124671821	0.103162085	0.841993323	0.623796757	0.598642001	0.135235629
0.8777046	0.470346077	0.419872372	0.170756476	0.55963985	0.520952871
0.240847623	0.24230106	0.826255411	0.609488606	0.583247089	0.118975927
0.866234597	0.077168713	0.867833862	0.161569184	0.623015808	0.160413659
0.445431884	0.877884288	0.438164832	0.562172371	0.170497371	0.591560239
0.027322978	0.87659532	0.882559363	0.695151611	0.171177673	0.17573272
0.09271152	0.099638934	0.841597344	0.629584028	0.604576024	0.134961226
0.09968635	0.081134446	0.868911633	0.667576672	0.657154454	0.162574362
0.856683116	0.079511121	0.071910144	0.149361973	0.647920194	0.627526648
0.475978454	0.413276438	0.877224011	0.609263346	0.569955823	0.170620445
0.473470501	0.404089263	0.877448248	0.625801798	0.586127471	0.170677105
0.099736218	0.841628502	0.092682053	0.604566882	0.134785906	0.629818722
0.480516952	0.409960818	0.876931686	0.559227384	0.517577663	0.170588607
0.868854258	0.080414846	0.07709079	0.162636718	0.672660526	0.661560261
0.877468433	0.480518186	0.405821146	0.17052524	0.574998656	0.532630517
0.068980001	0.071384677	0.8556025	0.650021	0.629427125	0.149185869
0.099423823	0.841922467	0.103237975	0.602307833	0.134908458	0.627733362
0.8657285	0.081526473	0.867589275	0.161382117	0.621170935	0.159667504
0.572780494	0.877109552	0.543622695	0.53859645	0.170404566	0.565913101
0.442843121	0.448503453	0.877342948	0.60655261	0.576621881	0.170601369
0.458728822	0.42165337	0.876816467	0.59070076	0.554994392	0.170315664
0.86696603	0.104018441	0.866766698	0.162802636	0.615464764	0.158961005
0.877401843	0.450651945	0.432491865	0.170573908	0.609770155	0.576349053
0.145458054	0.132257356	0.825405922	0.60194318	0.572892006	0.119430135
0.8776202	0.448790538	0.439745234	0.170718166	0.5599665	0.527629037
0.130403356	0.863581369	0.857561419	0.586392734	0.15513307	0.157431417
0.511165166	0.506357481	0.877480997	0.559714754	0.530850788	0.170693954
0.137179509	0.861733485	0.844234291	0.56612639	0.154622962	0.149072937
0.855882954	0.107566079	0.865195871	0.155211933	0.593663349	0.157104345
0.027500649	0.881751994	0.027648511	0.695247534	0.175327655	0.694627206
0.856114363	0.130400394	0.861619128	0.156523751	0.58648796	0.154359671
0.877076804	0.884268911	0.0000055	0.171078168	0.176514863	0.699625165
0.438216572	0.444535719	0.877451417	0.592822703	0.563254813	0.170424139
0.858522794	0.845354448	0.153946331	0.151597986	0.150833704	0.560965888
0.571463603	0.877085496	0.54479952	0.538983004	0.17040388	0.566545342
0.06245718	0.062481482	0.062413219	0.638235832	0.638381272	0.638559903
0.877300651	0.440450596	0.443861225	0.170520993	0.608051771	0.577718755
0.027322049	0.87646699	0.882943474	0.695105922	0.170731244	0.175282835
0.103541755	0.841937573	0.125135552	0.598625919	0.135322045	0.623596199
0.133745664	0.861999901	0.844342128	0.567773261	0.154845902	0.14785714
0.876270099	0.884125944	0.05427516	0.171069201	0.175601636	0.690530151
0.070830617	0.065207053	0.085823741	0.670045931	0.670777737	0.671912796
0.085794367	0.869107614	0.082347672	0.664931431	0.162365675	0.677165556
0.113963558	0.100030895	0.841867572	0.625857723	0.600580688	0.135040031
0.857246577	0.130485623	0.862614672	0.156593397	0.586481387	0.154363731
0.44773971	0.432441946	0.877029095	0.590813627	0.558338265	0.170111827
0.877533811	0.48087813	0.410183441	0.170901573	0.559608084	0.517399059
0.877208059	0.480707754	0.410038749	0.17093918	0.559614392	0.517385074
0.826270346	0.148981605	0.131878485	0.119608539	0.60166928	0.573562134
0.877309518	0.470445682	0.411808708	0.170406046	0.590700139	0.551656468
0.877491762	0.440275933	0.444392938	0.170619898	0.609499717	0.578969706
0.045487004	0.049248067	0.051943758	0.657561277	0.658152973	0.659171541
0.85547426	0.11673518	0.86328212	0.155353855	0.590482927	0.155237803
0.07035419	0.071299	0.073826935	0.649785072	0.650001227	0.650590623
0.875234391	0.076022134	0.871224767	0.168489638	0.650494111	0.164528148
0.877732942	0.885007634	0.013707267	0.170957965	0.175818929	0.697390583
0.073251098	0.854526133	0.071380645	0.629555655	0.148779642	0.649788625
0.480439517	0.409819514	0.876706972	0.559347511	0.517514387	0.170712478
0.438676392	0.877383833	0.438681067	0.596455637	0.170487006	0.626625577
0.419901222	0.877651004	0.470266613	0.520887282	0.170583309	0.559677338
0.877704923	0.480925746	0.401836067	0.170862712	0.590288523	0.54796366
0.00000492	0.00000487	0.88209418	0.699244785	0.699370684	0.175084437
0.122682372	0.112894366	0.147290626	0.616647292	0.614894875	0.616099768
0.47027627	0.419791875	0.877553505	0.559657598	0.520991503	0.170611188
0.854801591	0.068614293	0.072059486	0.149199457	0.649913292	0.629192854
0.082492525	0.293609594	0.275572544	0.620386388	0.619385374	0.616144422
0.102170133	0.841576003	0.08344364	0.606081002	0.13470624	0.631436665
0.868852759	0.080435501	0.077280241	0.162636169	0.672681565	0.661559839
0.882685041	0.027727432	0.027479418	0.175402176	0.694913811	0.694826539
0.877193482	0.459167708	0.421919385	0.170285284	0.59045804	0.554575972
0.044562295	0.049209929	0.050718711	0.658106319	0.658454148	0.658464762
0.070202044	0.051503221	0.082419167	0.673566156	0.672651909	0.674860591
0.439034912	0.878100576	0.43903963	0.596278473	0.17123506	0.626723896
0.425498117	0.877175746	0.459069809	0.539485962	0.170516177	0.57559613
0.877352923	0.483941273	0.399897122	0.170490488	0.608211304	0.565465618
0.419764191	0.877586678	0.47032177	0.521036672	0.170614624	0.559629916
0.141121055	0.130399722	0.825141052	0.605350282	0.577648349	0.118674822
0.473159915	0.403798144	0.876845649	0.625760236	0.586006557	0.170438566
0.877349268	0.440463689	0.444180948	0.170618198	0.609869857	0.579581763
0.877579696	0.450495313	0.427069329	0.170663578	0.626547155	0.593053638
0.877601724	0.470357665	0.419749323	0.170803215	0.559660909	0.520962785
0.480619526	0.405692387	0.877281576	0.575152444	0.532666895	0.170520912
0.147823947	0.826078118	0.150134595	0.576576047	0.119351668	0.605293746
0.864188321	0.856101223	0.123148322	0.155676093	0.156467098	0.588407318
0.401608554	0.877581742	0.48072343	0.548225444	0.170458277	0.589948849
0.473558159	0.40418388	0.877629735	0.625900571	0.586124266	0.170792261
0.147438936	0.861029638	0.846338546	0.562771376	0.153098626	0.150753397
0.473592313	0.404206256	0.877687557	0.625731384	0.586232401	0.170590421
0.85497219	0.111438876	0.863890216	0.154933482	0.592055959	0.155754234
0.881496743	0.0000048	0.00000492	0.175287445	0.699672691	0.699544422
0.142512382	0.825479991	0.146423641	0.575080497	0.118874713	0.601990671
0.045360827	0.047972121	0.053228476	0.655546201	0.656487742	0.6552417
0.875084051	0.047240647	0.871131738	0.168583002	0.65669187	0.164255613
0.867455313	0.866517998	0.095462035	0.159495979	0.162632713	0.617428304
0.866069514	0.081559784	0.867585289	0.162067665	0.621662877	0.159852597
0.07928987	0.082663901	0.868827564	0.677562282	0.665304106	0.162583752
0.473482122	0.404103856	0.877474116	0.625882235	0.58605282	0.170538883
0.869046281	0.076443343	0.08072636	0.162542379	0.676564068	0.664508719
0.877575687	0.448829841	0.439646375	0.170683686	0.559998475	0.527654197
0.480772607	0.40584465	0.877430801	0.574757386	0.532326564	0.170570404
0.072780933	0.855994568	0.071177984	0.629531251	0.149443463	0.650193237
0.877340119	0.459006091	0.425597296	0.170582086	0.575611268	0.539608915
0.863325805	0.856668328	0.123165254	0.15571401	0.156480591	0.588426659
0.846037678	0.147497288	0.860062643	0.150234969	0.562796841	0.152701926
0.856761353	0.130500083	0.86225011	0.156595901	0.586478694	0.154391274
0.448148698	0.435890982	0.877397855	0.575771919	0.542839409	0.170566292
0.862789954	0.843635809	0.133722593	0.155324552	0.148208562	0.567788889
0.883325472	0.013706684	0.875805625	0.175142305	0.697335999	0.17051981
0.826981462	0.192342252	0.190348186	0.1188948	0.609992749	0.580321149
0.877291866	0.440342711	0.44404607	0.170516322	0.608050442	0.577723695
0.866353864	0.866791394	0.104239789	0.159196159	0.163034122	0.615615699
0.141704282	0.825186702	0.147307017	0.573780038	0.118777344	0.602012458
0.111440033	0.86416531	0.85565735	0.592115653	0.155840618	0.155072463
0.339702171	0.825835022	0.330056498	0.582292399	0.118909959	0.612326076
0.864268282	0.853723573	0.107683579	0.156451754	0.154062368	0.593729679
0.877807928	0.480978449	0.410357727	0.170892835	0.559603354	0.517393036
0.059415026	0.06421391	0.063364662	0.652180065	0.651529936	0.651782287
0.874483012	0.055444735	0.871826157	0.168544528	0.655052687	0.164613427
0.09943113	0.081168051	0.869173193	0.668624811	0.657695528	0.16260641
0.059573212	0.064478267	0.062980791	0.652081069	0.651685177	0.652092626
0.438666516	0.438661783	0.877354407	0.62657892	0.596369361	0.170524583
0.844380357	0.846455021	0.845652998	0.256670891	0.257145429	0.257025379
0.141480188	0.129819156	0.825075623	0.605348954	0.577648084	0.11867847
0.437050357	0.446284887	0.877266836	0.575737625	0.546002476	0.170582206
0.058898483	0.039016048	0.078189964	0.679329034	0.679123709	0.679879724
0.103060021	0.078857624	0.855940424	0.643263068	0.623478235	0.149572799
0.876757921	0.884244407	0.0000055	0.171063586	0.176472085	0.699618195
0.87468679	0.065241833	0.872185521	0.16847539	0.652728368	0.164753124
0.147439899	0.860015768	0.846101261	0.562744776	0.152525293	0.150375325
0.130455825	0.825984219	0.149509478	0.575310511	0.118947686	0.603812235
0.469865788	0.415737936	0.877393534	0.575423666	0.53626134	0.170586663
0.08191149	0.867360779	0.865241597	0.620972857	0.159765997	0.161585143
0.415413742	0.877249165	0.470019333	0.536051728	0.170522785	0.575350201
0.059979344	0.06003719	0.059968033	0.640231075	0.640110819	0.639912363
0.403010557	0.877243441	0.485656829	0.565048178	0.170549401	0.607905546
0.113818766	0.100267594	0.841439334	0.626070316	0.600647288	0.13502841
0.826361538	0.243390752	0.235209343	0.118834867	0.611498932	0.582611617
0.047136327	0.871922764	0.873979276	0.656858801	0.164673612	0.167944753
0.855335722	0.102895975	0.079024757	0.14919454	0.643424854	0.623685867
0.855371928	0.111472006	0.864689529	0.155422041	0.592141805	0.156830375
0.877687217	0.48092851	0.401816111	0.170805592	0.590286607	0.547959311
0.877339105	0.468341833	0.482841188	0.170660479	0.562494651	0.533661266
0.881639617	0.04116205	0.040967839	0.175343432	0.692889718	0.692975467
0.867346633	0.866511701	0.095491483	0.159492093	0.162736473	0.617328466
0.040858353	0.875369217	0.883415002	0.693118878	0.170030576	0.17527704
0.100300193	0.841762268	0.113947337	0.600893862	0.134996477	0.625947354
0.825728596	0.149027458	0.13185355	0.11921659	0.604657456	0.575398391
0.275100645	0.277583729	0.826175201	0.612044227	0.581617381	0.118853332
0.877195902	0.462348038	0.420771348	0.170607547	0.609148277	0.572526241
0.877600141	0.470311651	0.419807521	0.17068146	0.559632468	0.520921134
0.425686072	0.877444626	0.459157367	0.539374222	0.170594087	0.575451709
0.045212609	0.871909616	0.875003924	0.659055189	0.165412588	0.168476325
0.051808893	0.053879101	0.058485746	0.653956889	0.654335524	0.653829714
0.8673711	0.865911247	0.077470413	0.160128753	0.161829929	0.622828136
0.448142216	0.435911898	0.877412646	0.575826369	0.542883905	0.170552155
0.569775219	0.877216876	0.553641705	0.537274001	0.170478248	0.565566647
0.439626597	0.877525876	0.44882198	0.527661012	0.170614295	0.559773894
0.881619936	0.041101712	0.040903312	0.175507169	0.692755782	0.692933775
0.073084778	0.855216097	0.071616482	0.6294178	0.148706798	0.649692192
0.872876119	0.87409372	0.87300362	0.188561326	0.189274991	0.188955519
0.459674432	0.429660306	0.87769891	0.559826543	0.524419121	0.170723571
0.12460371	0.103142122	0.841837502	0.623845181	0.598137428	0.135138521
0.014518992	0.014159564	0.881621278	0.697567709	0.697518429	0.175161913
0.841026683	0.083310981	0.102218727	0.134813004	0.631264165	0.605944273
0.883801365	0.013703502	0.876391728	0.17558076	0.697178165	0.171210769
0.847946714	0.846088314	0.847925673	0.257388439	0.257004061	0.257339503
0.027846776	0.027623045	0.02808441	0.694914563	0.694548993	0.695640133
0.140383335	0.826471797	0.151922254	0.576274159	0.11887543	0.603224777
0.100390067	0.082261556	0.869274528	0.669030067	0.657711806	0.162659973
0.123089069	0.863215755	0.856895181	0.588389205	0.155691055	0.156899724
0.871489228	0.874004097	0.055337067	0.164531514	0.167635095	0.654749064
0.877384449	0.451135318	0.431846925	0.170531425	0.608914178	0.575557579
0.884349935	0.0000055	0.875199829	0.175368517	0.699306547	0.170370796
0.873044391	0.874451934	0.873540695	0.188219875	0.189298481	0.189291456
0.872538659	0.875956575	0.075941438	0.164784422	0.169225422	0.650520157
0.087235148	0.078845139	0.86874618	0.672754887	0.661132587	0.162686684
0.062489196	0.062476266	0.062461262	0.638326144	0.638502258	0.638484311
0.143688402	0.826097779	0.149077963	0.576203041	0.119289052	0.605651066
0.866908452	0.866126138	0.081772926	0.159218073	0.161852115	0.621200976
0.459059317	0.422129007	0.877619513	0.590856417	0.555017394	0.170573953
0.87683558	0.473163032	0.403784421	0.170567009	0.62593005	0.586034024
0.123102026	0.86392764	0.855884304	0.588555685	0.155859224	0.15679222
0.045167085	0.871758963	0.873507665	0.659038701	0.165294786	0.168175939
0.882847077	0.054280987	0.875576317	0.175017877	0.690582324	0.170779007
0.415496252	0.877386915	0.470041038	0.536201729	0.170528115	0.575449962
0.051890524	0.053873872	0.058671395	0.653981585	0.654120853	0.654050281
0.00000493	0.881294698	0.00000483	0.699310472	0.175167984	0.699074937
0.825602671	0.201311612	0.200103928	0.118797635	0.609552401	0.577640429
0.432581404	0.877382851	0.448022591	0.558249042	0.170434323	0.590931147
0.439890211	0.877960369	0.448975916	0.52752113	0.170833724	0.560000692
0.447820824	0.4325292	0.877209512	0.590782912	0.558449598	0.170227218
0.87242237	0.875006347	0.046990357	0.165208086	0.168327432	0.658465892
0.202987898	0.826054974	0.209666637	0.578326355	0.118988987	0.607364184
0.872859163	0.87409375	0.873002768	0.188559476	0.189282088	0.188966092
0.082882722	0.080172734	0.868852724	0.675969929	0.663714018	0.162603908
0.107773752	0.864535622	0.855190612	0.593779449	0.157011326	0.154897868
0.865263173	0.081489413	0.86693679	0.161476728	0.621393362	0.159307376
0.855427136	0.102862683	0.07896615	0.149293515	0.643425242	0.623680065
0.861801254	0.843011587	0.133705306	0.154724829	0.147457391	0.567706523
0.85580658	0.116675075	0.864128259	0.155539774	0.590239295	0.155795323
0.081749761	0.867742612	0.865737165	0.621379318	0.159880024	0.161423238
0.208639996	0.825981045	0.208376642	0.578079937	0.118905945	0.608131176
0.573027761	0.877193095	0.543943559	0.537921181	0.170399308	0.564711703
0.077096175	0.867576952	0.864637545	0.623233212	0.160073351	0.161119821
0.856822305	0.06871377	0.072084285	0.149455337	0.650150025	0.628625939
0.141554518	0.826097764	0.147903296	0.576252582	0.119188887	0.60569912
0.099151592	0.841865061	0.103147368	0.602329529	0.134896385	0.627677392
0.040840418	0.875810066	0.882208187	0.692782388	0.170543039	0.175502159
0.87686848	0.470329051	0.411549237	0.170350089	0.589925805	0.551234732
0.051808225	0.053351745	0.057697891	0.654057163	0.653949416	0.653788567
0.865829047	0.081512602	0.867500154	0.161404393	0.621175312	0.159630573
0.214084923	0.825999419	0.212613132	0.578382211	0.11928904	0.606282422
0.459045452	0.425680696	0.877362455	0.57585652	0.539658575	0.170585079
0.865787851	0.856335702	0.111442084	0.156245947	0.155407022	0.592176219
0.080651837	0.08400555	0.868953458	0.679559428	0.666527222	0.162496074
0.497003268	0.5124178	0.877472344	0.559549743	0.531391078	0.170609693
0.863708019	0.863021368	0.863840082	0.219537788	0.21919845	0.219613934
0.459673102	0.429690004	0.877725465	0.559816712	0.524350236	0.170756368
0.469996112	0.415583023	0.877310629	0.575290004	0.536107132	0.170543501
0.88156498	0.028060776	0.027593702	0.175345823	0.694995194	0.695398319
0.432687662	0.877487294	0.448019979	0.558404828	0.170353868	0.59103813
0.882729219	0.054278435	0.875817891	0.174757505	0.690559413	0.170825604
0.07930193	0.082251714	0.86879505	0.677775046	0.665504599	0.162591371
0.081606628	0.869221411	0.099469975	0.657148141	0.162652524	0.669524318
0.039799102	0.046559996	0.073630867	0.677350577	0.676641893	0.677756243
0.054652642	0.054886494	0.054780954	0.69047517	0.689902716	0.690149788
0.027410052	0.881151165	0.027602556	0.695194532	0.174982458	0.69432974
0.065200646	0.871681537	0.875027174	0.652842379	0.164482982	0.168682505
0.459095975	0.425687033	0.877344141	0.575453748	0.539366523	0.170567048
0.877284552	0.473459793	0.41034353	0.170509632	0.609060194	0.569262961
0.254392081	0.237296464	0.826493446	0.6073767	0.581947244	0.118974093
0.866806155	0.866819679	0.095342931	0.159286791	0.16247463	0.617291738
0.877844584	0.481042343	0.410322741	0.170418994	0.559356151	0.517641921
0.41554508	0.877623394	0.462105402	0.589655297	0.17076685	0.626162765
0.422047569	0.877384121	0.458956411	0.555254285	0.170209879	0.59096936
0.401220421	0.876971417	0.480505282	0.548588491	0.170030834	0.590487619
0.877902846	0.464341979	0.490376134	0.170591136	0.560306946	0.531605188
0.099226074	0.841953389	0.103020036	0.602423013	0.134868271	0.627737843
0.087861875	0.867070253	0.866562602	0.619388059	0.159596129	0.162444685
0.88127537	0.0000049	0.00000477	0.175372008	0.699079245	0.69903712
0.845936099	0.153881505	0.85947599	0.151256454	0.560785645	0.152210569
0.087654772	0.079195318	0.868720634	0.672670013	0.66091034	0.162681623
0.028187682	0.028065361	0.881101388	0.69479558	0.695026348	0.174882367
0.41434458	0.877176913	0.474694578	0.568656758	0.170617495	0.60766055
0.856370485	0.123106032	0.864146825	0.156512234	0.588368968	0.155792388
0.062509234	0.062480994	0.062409186	0.638245339	0.638262582	0.638517923
0.066305076	0.079987988	0.854074839	0.653042943	0.633382994	0.148787596
0.496850872	0.512053078	0.877515081	0.560667002	0.531706379	0.170634925
0.871935348	0.87458317	0.055330859	0.164970868	0.168614083	0.654846496
0.822898997	0.823205104	0.822573562	0.298001176	0.29870778	0.298214924
0.846889991	0.153922436	0.859186476	0.151482996	0.560953894	0.152108199
0.572797951	0.877111423	0.543613704	0.538592028	0.170404291	0.565905542
0.487184837	0.401251528	0.877468993	0.607918482	0.564652596	0.170528935
0.0665652	0.07861951	0.855782952	0.653584552	0.633141191	0.149606482
0.8550807	0.111467431	0.864503952	0.155424739	0.59213824	0.156817874
0.251206738	0.249559296	0.825696506	0.608573338	0.581485507	0.119063347
0.102997497	0.078823165	0.85534064	0.643474856	0.623657205	0.14926161
0.401611771	0.877570767	0.480716555	0.548225168	0.170454523	0.589948579
0.014458391	0.014478732	0.881833707	0.696905125	0.697399431	0.175313361
0.882266319	0.054368126	0.054273965	0.175354787	0.689857925	0.690262333
0.872709284	0.874110409	0.047242293	0.16495282	0.168125037	0.65698913
0.059165702	0.038384435	0.07772013	0.679750104	0.679103823	0.680208101
0.060004255	0.060017654	0.059974985	0.63951146	0.640176581	0.639829629
0.145372181	0.825515837	0.147731664	0.57496118	0.119149267	0.605311785
0.470067762	0.411743612	0.877723276	0.590694561	0.55144971	0.170730318
0.143032623	0.825542193	0.149451389	0.573816523	0.118514384	0.60164259
0.87729091	0.473393371	0.404008768	0.170544841	0.625950862	0.586043824
0.393168151	0.877951598	0.485034354	0.582666996	0.170794269	0.625227598
0.070520837	0.051615333	0.082913123	0.673439638	0.672521371	0.674090053
0.877400766	0.450668666	0.432492522	0.170569477	0.609756209	0.576346306
0.054265228	0.876223595	0.882387287	0.690392534	0.171139915	0.175406144
0.079606403	0.071522694	0.85570894	0.647819988	0.627756939	0.149023734
0.437047305	0.446296603	0.877276174	0.575728948	0.546008857	0.170577933
0.077048482	0.86750763	0.864848197	0.62314713	0.160407666	0.161212931
0.877354314	0.483939551	0.399902026	0.170490329	0.608210384	0.565465745
0.881972447	0.02762904	0.027205639	0.175423153	0.694402548	0.694717063
0.882006513	0.027571438	0.027406527	0.175474273	0.694349601	0.694809447
0.435818582	0.877272139	0.448120987	0.542835262	0.170553377	0.575736324
0.459035614	0.425809555	0.877421188	0.575519815	0.539402303	0.170567936
0.124637229	0.103184615	0.841642635	0.624122809	0.598467801	0.135109309
0.87737763	0.448720792	0.439564615	0.170556841	0.559756569	0.527756952
0.465761558	0.424659585	0.877402415	0.608791764	0.572170797	0.170588436
0.877450308	0.462518889	0.487508366	0.170614012	0.560617471	0.532328655
0.877376618	0.448091037	0.435859229	0.170624874	0.575748355	0.542887013
0.87767551	0.448916407	0.43966707	0.170671356	0.560007223	0.527580763
0.073392202	0.855283829	0.071821771	0.629119293	0.148853576	0.649155485
0.877404832	0.47359036	0.410222642	0.170556284	0.609107026	0.569231324
0.825625596	0.274879961	0.284995677	0.118333976	0.610985806	0.582247451
0.107741234	0.86552029	0.854968369	0.593978043	0.157127762	0.154946681
0.082828467	0.85579829	0.068694143	0.633532392	0.148992112	0.654216827
0.884343141	0.027325752	0.874521198	0.17582782	0.695229467	0.170415727
0.877368316	0.464227838	0.493332344	0.170679324	0.561285544	0.531986048
0.876189057	0.883273495	0.054274491	0.171094645	0.175612819	0.690519922
0.080541624	0.85524831	0.104513768	0.623438384	0.149167261	0.643372355
0.413902786	0.877393954	0.47567462	0.566034193	0.170676518	0.605483716
0.027320759	0.876370121	0.883028786	0.695089633	0.170996373	0.175599158
0.872593436	0.874946622	0.055339575	0.165626282	0.168718344	0.654794489
0.027572607	0.0276874	0.028097661	0.694979202	0.695079223	0.695721566
0.884956623	0.027327912	0.877332753	0.176377345	0.695259625	0.170700099
0.07046867	0.051954509	0.083537373	0.672895302	0.672501882	0.674287174
0.470187779	0.419829456	0.87750022	0.559625997	0.520998307	0.170821747
0.868867042	0.081130948	0.078112978	0.162616129	0.673284629	0.661671053
0.877407744	0.450745451	0.432445787	0.170560857	0.609761692	0.57635409
0.059374902	0.064128266	0.063364738	0.652179925	0.651565923	0.651808619
0.878243182	0.470617013	0.4201294	0.170841903	0.559724777	0.521017107
0.877614723	0.448790104	0.439740578	0.170716335	0.559966084	0.527629463
0.073934893	0.855543989	0.082331085	0.628189034	0.149396436	0.648034179
0.051834238	0.053763975	0.058337512	0.654382233	0.654298004	0.654427895
0.227217685	0.220753579	0.825108356	0.606098413	0.580232826	0.118988806
0.863460446	0.856221602	0.12314729	0.155788547	0.156567939	0.588484651
0.437956111	0.444883827	0.87740838	0.592712237	0.563218911	0.170332075
0.825627669	0.276232943	0.286212313	0.118325738	0.61095617	0.582435858
0.079762004	0.869040421	0.088412636	0.659871014	0.162606449	0.670597301
0.403954406	0.877187617	0.473344406	0.586302033	0.170721237	0.625773362
0.42449292	0.877429815	0.46516909	0.573195852	0.170544512	0.609869458
0.877375446	0.45903562	0.425601254	0.170602672	0.57570726	0.5396693
0.877231769	0.473361563	0.403981837	0.170570144	0.625889978	0.586066954
0.877342924	0.437071396	0.446338481	0.170588272	0.57573713	0.546083527
0.480837056	0.405873786	0.877511871	0.574762525	0.532253679	0.170543735
0.843669423	0.137203522	0.862074986	0.148377426	0.566165696	0.154144724
0.088188288	0.867139116	0.865944076	0.619347295	0.159554567	0.162122237
0.113772245	0.100289987	0.841940234	0.625863458	0.600618121	0.135209833
0.153910658	0.859934328	0.846774623	0.560909375	0.152477912	0.151670473
0.874672477	0.047271076	0.872022343	0.168220358	0.657044424	0.164655576
0.865382879	0.07712421	0.867115354	0.161202886	0.622920486	0.160268016
0.874503172	0.065245154	0.872438526	0.16862046	0.652710362	0.164810986
0.131971715	0.312833747	0.211719431	0.622508703	0.624163806	0.621724564
0.1284755	0.321523251	0.224301771	0.622409522	0.622588669	0.620877257
0.041165902	0.040860918	0.88119076	0.692357138	0.693117552	0.175223226
0.476366723	0.413328261	0.877400219	0.610628174	0.570663256	0.170548096
0.041011519	0.882105156	0.041665073	0.692780329	0.175735122	0.692051711
0.883414456	0.0000055	0.875852229	0.175514691	0.699329356	0.170549399
0.447762384	0.432432218	0.877051283	0.590832341	0.558349332	0.170145341
0.069687696	0.065517762	0.085611639	0.670516752	0.670308138	0.672668849
0.08580343	0.869037032	0.082363642	0.664926979	0.162384034	0.677150022
0.877384777	0.469842414	0.415538062	0.17059419	0.575604868	0.536332597
0.825611667	0.823039967	0.825940404	0.29848341	0.298554522	0.297857329
0.102913267	0.841963585	0.12496901	0.598600739	0.135210516	0.623694219
0.069920581	0.065299663	0.084738399	0.670332321	0.671125688	0.672744589
0.866888494	0.865940605	0.081763096	0.159505793	0.161831677	0.621453799
0.875156478	0.055372369	0.8719244	0.168545507	0.654878569	0.164335052
0.871458321	0.874122364	0.048123482	0.165209565	0.168375477	0.658793186
0.869079909	0.089418098	0.075680857	0.162683965	0.671559613	0.659551157
0.825521826	0.137175156	0.128407625	0.118610427	0.606619586	0.57740102
0.881587857	0.00000486	0.00000488	0.175407339	0.699124903	0.699337633
0.872702087	0.874606377	0.874282446	0.18869028	0.189037773	0.189200241
0.00000549	0.875664857	0.883068011	0.699256566	0.17033377	0.174909989
0.470037183	0.415490524	0.877281529	0.575216265	0.536011248	0.170535712
0.864390024	0.856351737	0.123138412	0.155285647	0.156148586	0.588607271
0.450414487	0.426987397	0.877416464	0.626539496	0.593080832	0.170534644
0.404018679	0.877316994	0.473409751	0.586251262	0.170741001	0.625793931
0.438649654	0.877330522	0.43865439	0.596439672	0.17049431	0.626591359
0.00000479	0.00000491	0.881586758	0.699461887	0.699126917	0.174993984
0.329098804	0.825968736	0.319381878	0.586662716	0.118664882	0.61317087
0.865410534	0.076970149	0.867765328	0.161026478	0.623393174	0.159581795
0.045233086	0.872070817	0.874810406	0.659157894	0.165540595	0.168758976
0.875985043	0.884283265	0.013707026	0.170847207	0.176123284	0.697372152
0.43850126	0.438496494	0.877023863	0.626593835	0.596333263	0.170438747
0.060014879	0.060018585	0.059992268	0.639420476	0.640104153	0.639919494
0.446383594	0.877441906	0.437124027	0.546081145	0.170606787	0.575759269
0.85574247	0.09125715	0.07426277	0.149382144	0.645137539	0.625834717
0.438827145	0.87768538	0.438831832	0.596453089	0.170495799	0.626615734
0.459093775	0.425699856	0.877423886	0.57594547	0.539766809	0.170579978
0.869100853	0.077086762	0.080863028	0.162560248	0.676720103	0.66444932
0.424490344	0.877427104	0.464904123	0.573003906	0.17056228	0.609764729
0.448794994	0.439581171	0.877444532	0.559668416	0.527845091	0.170616894
0.166287438	0.153685522	0.095196769	0.61756251	0.617048949	0.615761224
0.107746813	0.864936011	0.854802791	0.593959103	0.156889411	0.154546444
0.392971132	0.877529226	0.484810174	0.582406669	0.170593211	0.625297836
0.866150565	0.095150258	0.867264432	0.162317894	0.617556516	0.15947095
0.062471206	0.062476134	0.062429029	0.638268202	0.638466656	0.638508709
0.855898995	0.091236366	0.074103554	0.149422584	0.645437553	0.625698756
0.070196521	0.065619327	0.085900621	0.670338081	0.670937339	0.672372248
0.445269834	0.877372509	0.438023555	0.562846762	0.170466101	0.592564465
0.087722616	0.07926248	0.868538975	0.672859491	0.661835933	0.162797475
0.039666086	0.046674624	0.073599141	0.676679096	0.676920288	0.677081513
0.473623383	0.404241927	0.877753392	0.625927626	0.586156263	0.170719075
0.413721102	0.8773842	0.47567038	0.566004333	0.170681054	0.605588946
0.044562183	0.871921876	0.874074765	0.659306454	0.164862112	0.167896685
0.123082238	0.86362366	0.856967837	0.588424885	0.155719828	0.15695071
0.047150772	0.871876564	0.874102327	0.65686645	0.164683658	0.168285383
0.872546091	0.873873917	0.055341544	0.164873842	0.168187839	0.654681858
0.87730491	0.43983678	0.444511676	0.170630847	0.608706249	0.578103065
0.856006404	0.091309927	0.074137294	0.149435808	0.645671808	0.625512331
0.447662341	0.432369395	0.876887578	0.590864857	0.558311159	0.170369225
0.045638633	0.048247167	0.05431859	0.655568501	0.656408181	0.655272713
0.876849008	0.883575685	0.040856367	0.170884167	0.175937436	0.693070896
0.848722572	0.846572571	0.847882956	0.257378728	0.257099249	0.257035867
0.393020787	0.877638614	0.484869225	0.582424825	0.170583964	0.625318608
0.869144541	0.090409913	0.076202329	0.162661905	0.672096513	0.659844703
0.446305343	0.877295913	0.437056033	0.546061323	0.170537975	0.575734104
0.067627267	0.067725035	0.067911518	0.6363144	0.636612162	0.636765725
0.05427391	0.881580794	0.054688679	0.690558094	0.175363226	0.689946666
0.875574571	0.055395703	0.871824974	0.16844993	0.6549914	0.164417537
0.027504985	0.027583503	0.027809725	0.695182195	0.695606479	0.695361861
0.874205718	0.047215374	0.872397219	0.168527514	0.656906197	0.164876599
0.271453271	0.283000572	0.825442461	0.613927272	0.58627745	0.118688691
0.415564145	0.877275383	0.469882397	0.536014359	0.170506378	0.575268421
0.414510917	0.877179385	0.474696743	0.568740477	0.170610866	0.607735266
0.845225195	0.147511154	0.859418253	0.150236908	0.562680984	0.15260102
0.056684537	0.045030984	0.075726294	0.675629173	0.674633166	0.675999401
0.881645206	0.0000055	0.873627408	0.174769416	0.699357583	0.170094691
0.00000279	0.00000298	0.00000286	0.699237803	0.698963412	0.698450654
0.841678146	0.124888348	0.103501773	0.135276426	0.623434391	0.598009847
0.860924527	0.845358013	0.141715311	0.153848374	0.149997701	0.564595474
0.860746236	0.84510304	0.147544152	0.152687187	0.15024947	0.562802826
0.4808374	0.410135547	0.877435551	0.559400512	0.517485177	0.170749764
0.442945364	0.448251162	0.877347035	0.606569875	0.576604725	0.1706031
0.137194358	0.860793288	0.844420615	0.566396905	0.154080593	0.148879944
0.446048186	0.877354969	0.444521754	0.576445081	0.170561489	0.606946199
0.392925288	0.87745509	0.484780515	0.582448605	0.170516442	0.625309121
0.10324266	0.841808714	0.125127647	0.598519894	0.135123278	0.62357147
0.00000489	0.881640572	0.00000488	0.699332587	0.175358579	0.699159682
0.098315937	0.135686802	0.177053684	0.618352784	0.618901445	0.62085207
0.470040981	0.411723408	0.877678473	0.590653593	0.551447291	0.17064678
0.877683436	0.470319364	0.419881383	0.170742627	0.559655543	0.520957697
0.147420958	0.859716391	0.845466957	0.562799845	0.152444754	0.150366275
0.841915705	0.092739372	0.099648503	0.134785525	0.629658381	0.604389103
0.869125694	0.082713382	0.074430911	0.162577799	0.672561632	0.659630983
0.411674518	0.877646264	0.470060784	0.551409143	0.170733068	0.590647183
0.075995827	0.871543865	0.874764433	0.650500436	0.164426533	0.168736605
0.864859829	0.863406592	0.864343407	0.219698685	0.219775894	0.219203506
0.082349373	0.289005982	0.271572071	0.620370233	0.619323036	0.616563506
0.041103984	0.04091337	0.881134015	0.692474484	0.692991755	0.174976633
0.486387516	0.402014759	0.877316323	0.607542655	0.564711825	0.170480798
0.099670836	0.841700514	0.092679251	0.604500958	0.134894514	0.629763116
0.419923634	0.877873938	0.470455579	0.521100487	0.170777385	0.559684265
0.88121591	0.00000489	0.00000478	0.175384946	0.699057287	0.698983003
0.081784653	0.867641194	0.866031094	0.621348346	0.160042983	0.161573653
0.824879362	0.190550323	0.202749083	0.118710097	0.612130097	0.579639049
0.087911332	0.867594199	0.865937618	0.619248042	0.159734065	0.161942295
0.443161384	0.448147988	0.87737182	0.6065464	0.576681989	0.170594974
0.877190064	0.459232439	0.421882462	0.170429578	0.590602709	0.554750507
0.165280397	0.152624642	0.095219894	0.617569154	0.617093196	0.615710175
0.045247808	0.872601693	0.874871453	0.659153562	0.165534707	0.168776977
0.11137999	0.864827373	0.854816557	0.592038534	0.15632067	0.155285837
0.877554557	0.462075284	0.415506149	0.170557865	0.626166167	0.589814383
