Vam	Vbm	Vcm	Iam	Ibm	Icm
0.046549187	0.87199045	0.874044502	0.658837903	0.164742959	0.168070504
0.876886965	0.882215952	0.013705915	0.170743559	0.175038894	0.697268785
0.825787615	0.145670027	0.128663857	0.118864268	0.603470596	0.574544286
0.401583121	0.877724641	0.481140056	0.548322192	0.170625885	0.590298052
0.825155902	0.822837082	0.825844565	0.298926015	0.298470119	0.298387092
0.878434673	0.878048245	0.877319092	0.171051894	0.171020627	0.170665897
0.083458844	0.08363811	0.083973139	0.632365527	0.632122671	0.632355805
0.095455004	0.866431823	0.866620265	0.617302961	0.158908707	0.162581037
0.874205396	0.055329305	0.871918787	0.168127366	0.65475575	0.164566792
0.127584373	0.12527157	0.098737205	0.612027265	0.610607893	0.615100137
0.841634593	0.103061311	0.099217353	0.134941996	0.627910088	0.602908151
0.869010409	0.080088946	0.077125558	0.162504716	0.674599243	0.663590837
0.448120283	0.436003636	0.87740472	0.575573231	0.542812165	0.170587805
0.137137946	0.862566717	0.843925856	0.566161617	0.154393222	0.148973368
0.825829833	0.199633906	0.197459027	0.11880384	0.60948864	0.577704549
0.076050901	0.870531139	0.874452701	0.650579605	0.16450355	0.168622926
0.415512359	0.877567993	0.462082559	0.589768559	0.170497507	0.626192574
0.014257313	0.881264535	0.014111993	0.697051329	0.175111344	0.697323869
0.104141025	0.865709016	0.866956172	0.615265062	0.158817577	0.162767966
0.059988001	0.060018372	0.06001814	0.640286731	0.640104084	0.640077657
0.866218689	0.095662861	0.866852642	0.162121956	0.617301785	0.159348169
0.096104914	0.337259883	0.284699172	0.622070624	0.623751851	0.62165229
0.135009904	0.125944772	0.827510704	0.60579674	0.576783283	0.119341918
0.855633463	0.066501531	0.078498056	0.148861881	0.652549629	0.632231008
0.028134944	0.028053247	0.882250893	0.694606614	0.695021866	0.175433236
0.863937032	0.85569503	0.116726596	0.1557923	0.155606875	0.590306405
0.100130754	0.841964895	0.1140773	0.600459357	0.135037179	0.625746893
0.867597512	0.86644033	0.087781505	0.159949025	0.162427903	0.619362777
0.882828601	0.054269714	0.875998385	0.175067339	0.690453154	0.170512143
0.065247609	0.871234536	0.87547762	0.652740329	0.164770117	0.169070826
0.116722213	0.864074044	0.856257963	0.59038165	0.155723313	0.155980087
0.867627305	0.865943752	0.077310379	0.15985405	0.161285546	0.622879068
0.867544757	0.866624199	0.087823997	0.159582117	0.162114598	0.619497291
0.860308571	0.846965743	0.154001132	0.152577163	0.151730228	0.560957063
0.877319905	0.451069174	0.432417149	0.170504477	0.608594309	0.575172081
0.413915012	0.877478332	0.474936891	0.568348701	0.170601356	0.608212157
0.470291753	0.419779168	0.877554584	0.559568608	0.520986183	0.170613141
0.867455269	0.104112572	0.866348448	0.162963662	0.61531546	0.158893706
0.867667455	0.866116074	0.081587353	0.159893138	0.161734204	0.621389742
0.872598136	0.875640678	0.075938711	0.165083139	0.16927037	0.650388637
0.878542346	0.877464626	0.877329388	0.171027445	0.170924946	0.170579696
0.856023764	0.079789138	0.071575619	0.149621012	0.648085795	0.627745116
0.875012922	0.882543194	0.027326057	0.170512413	0.174910885	0.695176186
0.154028363	0.858456495	0.845823901	0.560905124	0.151915542	0.151026454
0.454975947	0.436296779	0.877454566	0.609069869	0.575777176	0.170591212
0.846481792	0.847372644	0.847971745	0.256807588	0.257101762	0.257056912
0.432795364	0.877422433	0.44807082	0.557985632	0.170479713	0.590322567
0.429583404	0.877467255	0.459532086	0.524225623	0.170594449	0.559938342
0.103993071	0.866626365	0.866956464	0.615409437	0.158972824	0.16281373
0.877671111	0.459078671	0.422203328	0.170498775	0.590899841	0.555351093
0.859918872	0.846492304	0.153989135	0.152424839	0.151619214	0.560787189
0.427259861	0.877958699	0.45068376	0.592941637	0.170689548	0.626471446
0.844383069	0.14183818	0.860857451	0.149851323	0.564506319	0.153792297
0.875052826	0.065204837	0.871343664	0.168916691	0.652952489	0.164677647
0.486714964	0.401700847	0.8774303	0.607572764	0.564656422	0.170467228
0.095449239	0.866445286	0.866704984	0.61727255	0.158933906	0.162592359
0.862244243	0.844239165	0.133807225	0.155492948	0.148661908	0.567723397
0.475688977	0.414002458	0.877443617	0.607916304	0.568343	0.170587169
0.103091447	0.09922696	0.841531323	0.627718576	0.602406935	0.135020563
0.425534745	0.877420394	0.464176356	0.573577379	0.170575299	0.609860517
0.484738456	0.392895107	0.877381158	0.625506452	0.582332865	0.170848175
0.484414969	0.392583498	0.876744066	0.625399824	0.582372863	0.17045911
4.92697E-06	0.881032441	4.83312E-06	0.699346021	0.175044392	0.69912291
0.876187689	0.883625934	0.040844952	0.171008897	0.175824725	0.692794244
0.859525331	0.846480072	0.153984147	0.15239237	0.151506563	0.561047462
0.210645869	0.213366035	0.826471638	0.606845566	0.579740232	0.119363603
0.076040801	0.871068414	0.874938054	0.650486251	0.164388575	0.168899849
0.114297198	0.112783461	0.173567867	0.618417547	0.618142685	0.618977737
0.116646247	0.864354713	0.856266587	0.590473456	0.155559499	0.155816461
0.877304521	0.461948269	0.415383415	0.170445498	0.626140872	0.589755412
0.413150787	0.877447475	0.475809129	0.568261906	0.1705752	0.608113648
0.821177987	0.823643494	0.822857628	0.298570751	0.298839412	0.299303862
0.104066532	0.866399896	0.867280011	0.615211892	0.15871412	0.163145955
0.855519504	0.103040551	0.078902274	0.149629235	0.643509854	0.623592998
0.846003485	0.147403006	0.860745464	0.150600836	0.562736597	0.153105971
0.866380475	0.081571091	0.86765564	0.161962729	0.621327084	0.159596164
0.877758574	0.459069017	0.422299731	0.170264962	0.590920381	0.55491075
0.874379283	0.049818056	0.872738673	0.168002754	0.658988933	0.165401509
0.077177395	0.080839369	0.868849733	0.675527898	0.664987978	0.162433254
0.014231073	0.014468396	0.881353339	0.696603824	0.69734863	0.175141485
0.404083298	0.877436219	0.473464247	0.586030559	0.170566903	0.625892277
0.847039441	0.154023852	0.859111986	0.151412705	0.560787435	0.152092417
0.027408793	0.077006643	0.076718306	0.678626084	0.680240014	0.678656765
0.100321961	0.8418316	0.114066286	0.600412836	0.134902821	0.625624383
0.10316168	0.099247513	0.841521149	0.627756947	0.602765544	0.135010112
0.102220337	0.841586374	0.083394978	0.606118613	0.134754197	0.631278164
0.825839903	0.295905503	0.314303225	0.118572111	0.614926852	0.584524075
0.856533594	0.123068988	0.864224003	0.156656315	0.588459621	0.155910798
0.875258575	0.065206123	0.872176465	0.168962104	0.652730499	0.164809499
0.859017038	0.845594439	0.147523793	0.152434786	0.150270892	0.562720382
0.103546657	0.84173715	0.125037432	0.59791433	0.135269379	0.623286046
0.438124237	0.445430944	0.877680247	0.592951576	0.563375882	0.170831848
0.865409476	0.854679906	0.107710198	0.157215637	0.15500683	0.593915391
0.855044825	0.091350585	0.074270987	0.14912307	0.645669355	0.625794921
0.825808018	0.289851687	0.283870023	0.118635451	0.613921614	0.585953823
0.077225064	0.867794862	0.865118985	0.62325385	0.1599899	0.16140361
0.027832814	0.881940377	0.028096799	0.695114744	0.175479595	0.695648488
0.145552841	0.128347192	0.826062031	0.603202659	0.574874137	0.119355967
0.071614161	0.855534709	0.079662863	0.627676081	0.149083029	0.648013931
0.825769499	0.136735307	0.126697659	0.119038531	0.60604189	0.577146678
0.137155053	0.861754278	0.844939506	0.566124667	0.154446987	0.149044785
0.842075879	0.125060431	0.10332185	0.135155147	0.623884014	0.598417471
0.855101633	0.065565288	0.078091923	0.149129117	0.65199808	0.632395545
0.878048715	0.470511529	0.420047439	0.170909111	0.559769924	0.520953513
0.12678631	0.825554063	0.144635486	0.574919417	0.118956051	0.603829639
0.165934816	0.090951235	0.168472067	0.617628819	0.616449695	0.621902644
0.862321576	0.844139707	0.137123079	0.154785469	0.149209152	0.566237712
0.843675505	0.133712591	0.8621446	0.148158056	0.567889982	0.155332351
0.459120281	0.425676269	0.877420836	0.57544443	0.539300622	0.170638121
0.086509219	0.076891459	0.869174563	0.671915995	0.660532129	0.162639517
0.864761937	0.855317224	0.107808784	0.15645779	0.15453466	0.593537846
0.438540535	0.445023828	0.87770465	0.591026128	0.561660101	0.170806698
0.103099191	0.099233951	0.841523836	0.627809535	0.602719303	0.135029151
0.047526938	0.046858213	0.053742209	0.657877943	0.658303991	0.657389965
0.419977632	0.877863402	0.470394567	0.521067531	0.170775012	0.559633584
0.867387235	0.8657579	0.087853792	0.159510622	0.161711887	0.619583498
0.841644106	0.103020133	0.099229803	0.13495836	0.627795667	0.60278896
0.113799731	0.099909373	0.841770435	0.626108215	0.600928536	0.135071272
0.082538952	0.869222318	0.098969027	0.654659383	0.162615427	0.66741733
0.425429815	0.877288785	0.459179256	0.539662005	0.170572615	0.575682737
0.082974217	0.869095647	0.098881622	0.654659617	0.162599103	0.667530928
0.066886046	0.05291706	0.081981272	0.673302703	0.672358239	0.673966679
0.826129243	0.137998113	0.129051757	0.119227143	0.605904229	0.577131975
0.071094393	0.06557366	0.084769891	0.669603738	0.670128344	0.670693538
0.448760185	0.439561788	0.877403726	0.559760905	0.527716058	0.170536986
0.876557048	0.475092856	0.505902149	0.169847364	0.559081917	0.530525757
0.486091236	0.402333821	0.877452731	0.607603614	0.564687132	0.170464493
0.877499852	0.877915761	0.877480182	0.170668607	0.170696988	0.170632057
0.068007603	0.079277584	0.855953038	0.652133541	0.632283611	0.148964399
0.077567877	0.869184036	0.085873325	0.661309693	0.162579587	0.673581408
0.048174803	0.871981193	0.873938397	0.6587179	0.165067005	0.168248608
0.137168549	0.860201193	0.843353511	0.566216601	0.15386175	0.148430849
0.059456899	0.042770169	0.076337361	0.675099873	0.674948704	0.67648201
0.877804058	0.470373062	0.419945464	0.17086945	0.559621927	0.520841755
0.081943793	0.85527084	0.067750455	0.631999812	0.14883788	0.653000793
0.411615201	0.877355455	0.470327086	0.551179197	0.170288455	0.589837908
0.846477622	0.147387998	0.861360078	0.151018968	0.562785896	0.153421534
0.116740912	0.863267339	0.855305287	0.590373554	0.155645175	0.155806071
0.425576165	0.877335169	0.464201447	0.572188721	0.170575981	0.608724106
0.445968749	0.449116336	0.877354641	0.608489675	0.578286747	0.170592265
0.459053122	0.425526681	0.877186365	0.575791739	0.53981981	0.170505827
0.072283195	0.069914373	0.07428802	0.649627749	0.649816405	0.649850665
0.825592261	0.145941584	0.129419679	0.119232253	0.603106148	0.574221536
0.825801844	0.229430857	0.24755199	0.119028297	0.607538963	0.580852393
0.081568981	0.855621571	0.067656515	0.632123052	0.149025465	0.652659846
0.06524374	0.871209068	0.875454035	0.652748548	0.164830761	0.16913744
0.881891382	0.054539249	0.054137754	0.175553959	0.689520003	0.690301877
0.127599971	0.826542332	0.145795338	0.574494655	0.119493099	0.603379117
0.877719359	0.437268097	0.44453807	0.1706457	0.59161262	0.562098638
0.859017038	0.845594439	0.147523793	0.152434786	0.150270892	0.562720382
0.866747754	0.087915986	0.867822968	0.162078448	0.61934607	0.159745171
0.161566587	0.091845782	0.166180518	0.619782917	0.616616564	0.620343962
0.436904456	0.446228688	0.877477977	0.592981562	0.563212886	0.170575549
0.074259369	0.855655614	0.091189485	0.625905375	0.149254831	0.645638914
0.103126765	0.099219417	0.841452958	0.627639822	0.60271171	0.135014866
0.454924786	0.436489332	0.877321043	0.609949821	0.576235697	0.170549388
0.028655855	0.028231058	0.882815582	0.694831466	0.695438282	0.175406294
0.846359063	0.846232045	0.845886611	0.256748435	0.257045052	0.256731698
0.882993862	0.054266091	0.875365619	0.175040863	0.690410111	0.170491954
0.869080356	0.077869362	0.081311432	0.162603825	0.677384508	0.664944678
0.079672789	0.869263238	0.082624883	0.662807819	0.162533305	0.67485486
0.877361076	0.448638739	0.439649567	0.170500035	0.55984302	0.527615056
0.868898038	0.077223179	0.081914572	0.16259467	0.676644687	0.66505464
0.078214861	0.869445448	0.081178799	0.662890688	0.162476245	0.674831474
0.825579098	0.206293616	0.217329873	0.11879117	0.610577653	0.584704027
0.845249645	0.141824646	0.861493089	0.149837065	0.564605704	0.153440572
0.845424186	0.141814695	0.859893914	0.150142672	0.564536181	0.153819321
0.877181915	0.492377578	0.492659402	0.170622492	0.561271831	0.532559357
0.873260041	0.873685858	0.874175772	0.188697777	0.188673565	0.188510305
0.86926176	0.090969468	0.078520043	0.162666331	0.67259427	0.658862812
0.877335383	0.451122393	0.432391223	0.170523558	0.608645491	0.575307761
0.444988217	0.449064413	0.87725701	0.609127791	0.578783753	0.170532524
0.146597775	0.13142941	0.826139869	0.603527971	0.573908688	0.119299414
0.041110746	0.040767234	0.881395356	0.692397788	0.692699994	0.175404011
0.865418687	0.854653635	0.107755402	0.157059357	0.15492709	0.594001961
0.05425304	0.881685609	0.05458623	0.690420667	0.175305447	0.690370892
0.877394937	0.480590492	0.405684819	0.170587072	0.575063851	0.53268501
0.081591185	0.867052501	0.865637735	0.621517555	0.159331109	0.161757365
0.877529104	0.448173348	0.435961938	0.170635484	0.575715296	0.542834903
0.083398165	0.10224822	0.841730568	0.631282425	0.606119999	0.134696709
0.448634211	0.439573379	0.877277393	0.559742821	0.527729461	0.170351927
0.095404761	0.305305315	0.254418497	0.622147099	0.621730502	0.619673859
0.872257843	0.874369747	0.05529099	0.16452673	0.168352813	0.65496287
0.419772757	0.877664956	0.470387605	0.521067921	0.170732334	0.559619726
0.07490716	0.074892924	0.075165693	0.6342857	0.634490893	0.634479664
0.876968811	0.46968802	0.41138072	0.170120778	0.590356864	0.551558031
0.856469905	0.123100814	0.863544793	0.156277709	0.588429121	0.155323402
0.4550263	0.436277292	0.877343802	0.610006325	0.576428097	0.170563662
0.863414406	0.844367105	0.133800664	0.155506866	0.148714162	0.567836696
0.419885973	0.877639746	0.470256094	0.521017317	0.170731558	0.559681045
0.480666255	0.401252851	0.877226024	0.589951454	0.548046594	0.170584066
0.425613447	0.877309776	0.459022374	0.539550158	0.170608872	0.575628417
0.48656207	0.401969784	0.877370073	0.607570741	0.564647703	0.170434521
5.4973E-06	0.877976987	0.885092703	0.699501806	0.170768486	0.176002143
0.884212528	0.027324451	0.875392248	0.175749156	0.695156874	0.170505754
0.071987771	0.065818946	0.085864953	0.670572089	0.66987033	0.670811187
0.872098756	0.875753659	0.075933913	0.165016578	0.169174501	0.650351825
0.859932658	0.844798457	0.147482121	0.152493013	0.150318956	0.562722863
0.412142515	0.877565768	0.470023168	0.551849584	0.170639344	0.590724349
0.869187144	0.091636288	0.078976736	0.162556926	0.672818747	0.659941779
0.8773699	0.473098404	0.410306792	0.170622942	0.608915841	0.569359073
0.877075375	0.877609065	0.877493406	0.170534687	0.170666909	0.170701152
0.822644941	0.823257458	0.823434005	0.298007429	0.298717467	0.298849709
0.122981241	0.121515897	0.099039272	0.612279251	0.611720015	0.613850858
0.869208202	0.092785005	0.079432719	0.162662926	0.672303679	0.658655196
0.882596417	0.054284295	0.875572493	0.174906101	0.690598717	0.17034039
0.869079365	0.078165353	0.081669164	0.162609016	0.677388193	0.664938942
0.843487073	0.137271098	0.860998774	0.148682653	0.565997936	0.154085752
0.877648924	0.473572018	0.404188366	0.170673377	0.625846161	0.58615563
0.480917481	0.410284514	0.877675096	0.559288533	0.51761421	0.170571619
0.072073212	0.070008326	0.074121171	0.649582974	0.649865585	0.649567331
0.867737137	0.865676312	0.087801141	0.159774245	0.162076678	0.619582595
4.8973E-06	4.82824E-06	0.881010146	0.699024824	0.699364204	0.175433631
0.419945118	0.877900573	0.470450169	0.521096967	0.170635988	0.559503058
4.85718E-06	4.91089E-06	0.881274381	0.699378533	0.699444299	0.175251833
0.095438637	0.332985936	0.280875681	0.622581238	0.62554836	0.621707919
0.438748768	0.877528109	0.438753346	0.59655379	0.170402021	0.626549217
0.480826446	0.410058475	0.877363616	0.559295583	0.517634593	0.170525824
0.845831065	0.147370244	0.860222819	0.150699162	0.562842321	0.153059128
0.876813186	0.88301783	0.040843528	0.170993614	0.175829257	0.692776198
0.883394902	0.027326388	0.875663166	0.174979612	0.695267506	0.170283987
0.102259367	0.841623001	0.083365714	0.605934113	0.134765221	0.631436469
0.841691582	0.092687329	0.099821471	0.134855111	0.629403768	0.604025272
0.865996327	0.08184373	0.86750721	0.161816177	0.620954046	0.159655093
0.05394433	0.051061005	0.056658166	0.6542817	0.654196671	0.654679078
0.099218622	0.84123114	0.102901698	0.602539724	0.135020157	0.62771601
0.055066633	0.054501204	0.055236691	0.689886193	0.690301434	0.689926756
0.841631295	0.092780952	0.099912471	0.134877503	0.629471921	0.6045023
0.842142881	0.125096829	0.103518562	0.135183204	0.623617227	0.598121281
0.103606551	0.841825363	0.125040229	0.597840085	0.135317353	0.623327952
0.072166431	0.070021633	0.074126486	0.649561263	0.649893823	0.649548722
0.855010263	0.111494629	0.864480755	0.15507081	0.592113011	0.156247225
0.091254428	0.07472998	0.855935865	0.645863331	0.625855128	0.149301777
0.863789323	0.86461921	0.862943766	0.219032349	0.219080722	0.21909465
0.027502726	0.028389122	0.027942526	0.694929927	0.694997329	0.695342763
0.877434497	0.459065301	0.425636435	0.17060818	0.575789635	0.539683829
0.866123498	0.095812923	0.866424289	0.1621994	0.61743928	0.159369719
0.865172012	0.856474068	0.111442709	0.156189917	0.155004025	0.592139693
0.868175489	0.866426603	0.087776176	0.15998064	0.162401746	0.619411661
0.079050963	0.868968689	0.086228271	0.661062249	0.162480091	0.673517779
0.484851462	0.393002201	0.877601179	0.625474705	0.582373046	0.170687946
0.054289236	0.876418194	0.883059844	0.690745753	0.17084981	0.174943925
0.877378806	0.448083502	0.435891037	0.170585926	0.57573505	0.5428033
0.100254942	0.842018796	0.114045953	0.600834646	0.135136262	0.625913386
0.845342515	0.147369127	0.860698005	0.15036996	0.562730717	0.15277735
0.877378553	0.484272275	0.399510173	0.170630611	0.607602098	0.564895236
0.123188709	0.863438824	0.856330034	0.588512491	0.155560373	0.156645472
0.401705728	0.877462149	0.480739151	0.548314498	0.17049606	0.590281224
0.844603065	0.141834809	0.860483298	0.149726812	0.564433585	0.153386829
0.446380234	0.877408683	0.437094485	0.54609104	0.170589486	0.575743267
0.079123285	0.85631574	0.103016926	0.623842269	0.149855956	0.643438026
0.867117399	0.865591411	0.081540829	0.159485963	0.161619988	0.621339435
0.082282845	0.869029365	0.0926933	0.655858637	0.1626817	0.668568381
0.8750038	0.06521278	0.871610401	0.169025325	0.652964732	0.164754185
0.072515541	0.070127597	0.074963286	0.649479177	0.650096984	0.649744529
0.06248567	0.062489307	0.062388188	0.638736452	0.638671244	0.638588429
0.881487191	4.83169E-06	4.9295E-06	0.175270357	0.698883405	0.699605568
0.083276174	0.868792051	0.094090462	0.655309024	0.16278105	0.668566615
0.027388077	0.027773211	0.028048965	0.694986395	0.695090821	0.69523269
0.027453068	0.028132252	0.02791927	0.694919896	0.694893406	0.695108413
0.435894566	0.877376685	0.448136347	0.542830899	0.170593787	0.575791826
0.047041359	0.872219607	0.874664721	0.658395717	0.164847992	0.168461746
0.425572995	0.877323166	0.459108991	0.539559274	0.170579704	0.575621381
0.825627546	0.290367436	0.303608341	0.118848764	0.613114604	0.584972027
0.870557077	0.873957905	0.065198208	0.164467583	0.168021538	0.652758188
0.825457379	0.146693975	0.12967829	0.118858463	0.602566748	0.573983168
0.877305324	0.437056145	0.446316965	0.170598168	0.575728664	0.54608907
0.439749647	0.877702166	0.448884567	0.527564731	0.170807861	0.559858873
0.864137671	0.862583011	0.863495667	0.219431773	0.218533169	0.219216261
0.014412394	0.881181514	0.014480169	0.697103117	0.175140998	0.697072737
0.874625706	0.874866929	0.873381185	0.18895393	0.188986065	0.188529517
0.847187412	0.84655038	0.847175808	0.256895872	0.256563744	0.256568717
0.404202297	0.877674479	0.473583198	0.5860735	0.170663505	0.625847872
0.877346204	0.450986937	0.432378729	0.17056351	0.610101773	0.576580492
0.885069431	5.49578E-06	0.877013537	0.175720184	0.699340223	0.171014119
0.047189614	0.871858491	0.874645819	0.657086516	0.165143726	0.168636951
0.459755132	0.429720053	0.877837227	0.560001803	0.52415418	0.170797721
0.87733115	0.480425574	0.405800659	0.170566218	0.575139503	0.532773865
0.841755289	0.11355536	0.10024044	0.135236572	0.625985455	0.600397736
0.071476746	0.065569842	0.084766003	0.669592707	0.670127055	0.670677106
0.865288495	0.077125725	0.867927236	0.161342688	0.623066343	0.15999752
0.446327182	0.877311336	0.437052404	0.546087198	0.170592369	0.575732596
0.882683113	0.054269813	0.876247417	0.174615011	0.690436674	0.170448455
0.847033374	0.846977666	0.847295585	0.257456952	0.256996088	0.257378388
0.213037353	0.826454332	0.216043358	0.584221377	0.119277159	0.612605837
0.842025148	0.125118752	0.103575966	0.135212769	0.623873676	0.598333019
0.013708154	0.876353981	0.884088587	0.697417934	0.170868183	0.176088417
0.868922388	0.081997908	0.073027563	0.162661624	0.672790797	0.660461175
0.877381504	0.439484885	0.444284722	0.170550651	0.609390352	0.5792771
0.823052338	0.823555435	0.825847643	0.298774565	0.298697987	0.29874276
0.405889928	0.87739991	0.48062226	0.532720045	0.170545476	0.575181726
0.100205758	0.841810178	0.114029067	0.600742026	0.13501452	0.625900827
0.867727838	0.86578269	0.081595436	0.160010299	0.161798617	0.621332379
0.875119943	0.050204187	0.872732636	0.168196395	0.659186793	0.165268455
0.099251285	0.841323327	0.103078428	0.602437412	0.135102018	0.627474173
0.082269622	0.079969076	0.868802808	0.674273758	0.662515677	0.162565467
0.864610373	0.854809642	0.111445883	0.15649692	0.155005783	0.591990568
0.877352793	0.459026313	0.42559087	0.170617775	0.575679384	0.539599603
0.841635215	0.0833657	0.102228529	0.134790272	0.631038611	0.60592203
0.174684748	0.091458174	0.184875794	0.615798548	0.616546008	0.616254425
0.242732584	0.82638297	0.246475288	0.58445843	0.118864676	0.611820737
0.876408397	0.882693151	0.054281073	0.170477433	0.174801699	0.69058441
0.877782614	0.878570824	0.877340809	0.170965849	0.170913422	0.17056603
0.013773326	0.014368247	0.014140236	0.69720595	0.697529471	0.697269487
0.841626363	0.083370945	0.102269777	0.134701329	0.63112699	0.605719849
0.877394964	0.480590565	0.405684464	0.170587039	0.575063836	0.532685029
0.040791648	0.880973008	0.041019597	0.693093727	0.175489323	0.692379314
0.877725529	0.448035607	0.432903469	0.170666449	0.590952514	0.558182225
0.874749618	0.076013584	0.871104795	0.168825912	0.650391144	0.164546274
0.077122252	0.867437119	0.864806631	0.623257518	0.160018239	0.161554369
0.040866218	0.881675746	0.041156254	0.69277311	0.175238794	0.692809247
0.860789757	0.844385565	0.141779544	0.153107458	0.149166151	0.564524659
0.102245918	0.841554474	0.083362114	0.606012914	0.134841807	0.63119461
0.439383805	0.876976364	0.448511949	0.527781025	0.170647567	0.559747506
0.439862675	0.87778552	0.448860164	0.527559808	0.170744079	0.55985815
0.882941427	0.040857555	0.875524364	0.175125515	0.693049839	0.170625912
0.459160417	0.422152034	0.87775023	0.590758372	0.555132928	0.170433399
0.881003606	0.014146107	0.014331409	0.175198216	0.696268356	0.697306294
0.867527357	0.866114619	0.077139095	0.159846979	0.16133935	0.62313984
0.448057875	0.436036223	0.877397553	0.575625116	0.542789256	0.170607624
0.027326659	0.875059693	0.882806914	0.69523029	0.170109841	0.175242977
0.877897015	0.459184823	0.422365913	0.170876505	0.591036155	0.554875924
0.864432674	0.864038628	0.863123094	0.219506929	0.219147024	0.219119559
0.862267634	0.845270755	0.137099407	0.154593889	0.149496247	0.566263079
0.41214223	0.877565749	0.470023262	0.551849564	0.170639306	0.590724359
0.450523187	0.427096352	0.877634249	0.626341277	0.593171241	0.170699288
0.864211392	0.856343222	0.123084858	0.155277159	0.156494391	0.58869756
0.881775233	0.041166452	0.040794544	0.175027662	0.692470235	0.693008352
0.068902624	0.079492887	0.855166286	0.65194707	0.632406647	0.148825367
0.450441966	0.427014564	0.877471286	0.626469892	0.593172526	0.170624271
0.854705397	0.111497372	0.864010941	0.155083447	0.592132048	0.156245706
0.099778824	0.841656344	0.092890015	0.604361295	0.134874195	0.629583579
0.07724607	0.869260995	0.085660131	0.661355854	0.162561577	0.673575796
0.013751031	0.01454997	0.01458286	0.697008907	0.697269208	0.696987163
0.405785514	0.877262743	0.48052327	0.532930798	0.170496429	0.575243427
0.857617972	0.130422967	0.863461272	0.156985646	0.586454111	0.154980518
0.446356981	0.877366745	0.437075986	0.54607488	0.170621349	0.575726314
0.48466367	0.392825368	0.877236301	0.625251806	0.582494227	0.170411027
0.843507903	0.133740072	0.86168566	0.148394308	0.567719783	0.155158642
0.855871178	0.079758928	0.071626043	0.149403265	0.648106317	0.62728224
0.480905862	0.410156072	0.877536706	0.559279968	0.517616433	0.170585838
0.104098283	0.866187179	0.867278278	0.615104724	0.15850796	0.162947601
0.04119141	0.040790163	0.881362645	0.692518159	0.692626426	0.175347276
0.097951205	0.340356693	0.283381072	0.622614791	0.629330031	0.624241899
0.129217705	0.825572235	0.145940697	0.574366235	0.118572546	0.60362718
0.866301074	0.095622547	0.867046791	0.162341253	0.617352183	0.159054654
0.863264204	0.857002766	0.130374877	0.154842624	0.156810058	0.586559361
0.027996523	0.88212877	0.028413757	0.694854307	0.17553668	0.695945912
0.01410072	0.014095746	0.881862418	0.697322202	0.697090555	0.175417179
0.214750567	0.826343326	0.211504218	0.583533069	0.119125795	0.610262739
0.459561641	0.429609131	0.877524515	0.559980825	0.524193483	0.170593334
0.877063165	0.883897604	0.0408509	0.170967856	0.175701692	0.692929764
0.108074609	0.865156163	0.854728641	0.593677738	0.156673732	0.154476268
0.094154142	0.296456335	0.247227475	0.622131238	0.621326057	0.621312456
0.861226073	0.844358646	0.141807007	0.153132907	0.14918713	0.564459636
0.856565851	0.130450106	0.86296756	0.156332933	0.586538551	0.154539865
0.027965409	0.027445518	0.881651444	0.694546094	0.694640143	0.175343488
0.438349066	0.87672874	0.43835379	0.596509598	0.169915999	0.626401105
0.480710506	0.410028228	0.87720671	0.559336232	0.517594816	0.17050996
0.013744721	0.014538997	0.014752265	0.697163799	0.696531478	0.697091513
0.48053424	0.401149617	0.876988714	0.590081369	0.548097942	0.170593995
0.083394716	0.102240056	0.841807367	0.6310145	0.605739073	0.134738934
0.877674371	0.450542218	0.427117324	0.170770954	0.626489811	0.593049727
0.869009828	0.092012074	0.078975142	0.162566812	0.672224039	0.660097047
0.876223566	0.884192622	0.013707828	0.170656736	0.175937086	0.697409815
2.74915E-06	3.08683E-06	3.03423E-06	0.699182093	0.699418257	0.699042925
0.480932306	0.41024021	0.877652081	0.559415487	0.517467091	0.170777877
0.07733304	0.867867776	0.865956158	0.623033101	0.160193168	0.161467869
0.09550876	0.866658741	0.866416173	0.617189685	0.158906626	0.16235669
0.855294533	0.091359982	0.07440873	0.149012484	0.645729163	0.625786769
0.076936815	0.867735482	0.86581446	0.623249861	0.159944816	0.161805208
0.880950442	0.027688632	0.027481575	0.175196868	0.694938552	0.695283792
0.134591996	0.124455422	0.825345721	0.605793647	0.57725049	0.118284396
0.823599845	0.823392109	0.824591542	0.299073969	0.298685307	0.298689932
0.855683313	0.068941345	0.071361383	0.149171167	0.649762746	0.629727011
0.422254301	0.87749332	0.459244593	0.554580416	0.170540061	0.590403784
0.100313496	0.841838211	0.114021072	0.60039216	0.134967645	0.625682686
0.083604697	0.869184821	0.079982386	0.66450856	0.162663152	0.677638019
0.12524577	0.103299171	0.841399583	0.62384933	0.598712455	0.135341336
0.47350062	0.404110984	0.877500503	0.625748059	0.586208524	0.170537433
0.072552086	0.070094529	0.075200818	0.649378602	0.649823673	0.649359661
0.883101973	0.040849837	0.876497356	0.175144906	0.692861161	0.170971789
0.137163229	0.861189885	0.844644954	0.566242257	0.15404027	0.148832342
0.054286631	0.875917703	0.883064772	0.690732891	0.17094248	0.175171473
0.412137086	0.877566078	0.470025453	0.551849649	0.17063845	0.590724129
0.855895618	0.07984124	0.071618392	0.149644219	0.647826443	0.627800224
0.877413091	0.473136089	0.410173363	0.170633637	0.608993224	0.569399742
0.881003573	0.014146111	0.014331395	0.175198176	0.696268658	0.697305715
0.841819794	0.125030605	0.103180066	0.135187924	0.623619698	0.598493522
0.878192465	0.450801722	0.427376213	0.17064783	0.626379882	0.593205416
0.083624124	0.080723267	0.869126053	0.674311284	0.662597638	0.162571016
0.447951046	0.43593086	0.877186875	0.575537681	0.542725388	0.170617898
0.825989157	0.229090622	0.234079282	0.119290286	0.607156082	0.581543824
0.014433886	0.014265681	0.881680846	0.697084926	0.697191357	0.175207302
0.877399251	0.461987418	0.421703899	0.17058525	0.608150677	0.571663318
0.877345219	0.439412588	0.44384071	0.170585506	0.608392085	0.578253627
0.866177302	0.095582688	0.865901144	0.162285558	0.617787243	0.15884842
0.08489465	0.869207983	0.100725178	0.655678282	0.162772484	0.667447328
0.028136202	0.88223021	0.028673805	0.694999709	0.175589621	0.695394937
0.063650977	0.059742798	0.065217119	0.65201002	0.652021372	0.651947852
0.863412533	0.855487671	0.116736159	0.155192525	0.15511312	0.590333359
0.081872373	0.867054918	0.865282337	0.621121131	0.159240761	0.161527921
0.113938693	0.100134996	0.841691088	0.625793321	0.600483403	0.135058616
0.081542101	0.855855065	0.066077653	0.631308037	0.149336426	0.653233736
0.02839999	0.881776412	0.028751673	0.695110184	0.175575767	0.695169462
0.863669266	0.856649765	0.123106559	0.155274799	0.15649938	0.588642289
0.095531652	0.866676738	0.866157912	0.617140653	0.15897809	0.162364232
0.435571988	0.877263091	0.454638028	0.576518843	0.170539283	0.610142885
0.32684891	0.336482561	0.825556841	0.616068252	0.585452473	0.118662907
0.205548902	0.825439355	0.218590298	0.583015376	0.119048627	0.610009361
0.877345036	0.437067921	0.446344047	0.170576732	0.575767757	0.546066916
0.877287949	0.461507386	0.422193765	0.170557394	0.608956313	0.572739557
0.877684514	0.459695777	0.429635627	0.170690287	0.55983423	0.524296549
0.083532127	0.868970399	0.080116802	0.664943733	0.162604002	0.676634931
0.448213082	0.432858396	0.877924282	0.591040127	0.558223684	0.170808017
0.480493417	0.401136229	0.876935862	0.590132533	0.548078427	0.170611835
0.873052147	0.874761801	0.055266227	0.164886292	0.16900555	0.65492273
4.84058E-06	0.881311059	4.8834E-06	0.699082282	0.175099927	0.699327828
0.055317885	0.871820057	0.874727845	0.654538701	0.164332665	0.168683338
0.410272336	0.877616909	0.480875144	0.517692978	0.170670422	0.559333413
0.114029473	0.100175716	0.841680348	0.625957078	0.6006685	0.135059439
0.446357269	0.877367452	0.437076393	0.546075387	0.170621358	0.575726871
0.214846572	0.213367451	0.826060444	0.607597101	0.580520379	0.118875175
0.425518466	0.87739879	0.464853362	0.572514498	0.17058359	0.609102838
0.8691702	0.091797433	0.078684339	0.162632185	0.672971125	0.659580286
0.438493728	0.438489047	0.877008462	0.626380348	0.596316449	0.170158097
0.877767362	0.447997445	0.432991733	0.170646607	0.591229557	0.558606578
0.074914262	0.074912726	0.075164219	0.634253947	0.634481632	0.634495702
0.825680437	0.287315744	0.29711735	0.118635374	0.614074889	0.587606141
0.872189444	0.873310099	0.046525726	0.165156354	0.16813059	0.658939152
0.077049007	0.867765555	0.865686356	0.623142475	0.159968501	0.16193499
0.104013721	0.866383653	0.866898008	0.615354897	0.158849739	0.162877187
0.877387858	0.436981352	0.444626805	0.170346223	0.591961419	0.562371297
0.065231262	0.870615616	0.874322551	0.652693492	0.164189941	0.16829052
0.154031469	0.85869735	0.845986657	0.56089358	0.151916885	0.151042244
0.87765721	0.473575852	0.404192875	0.170672911	0.625846155	0.586155576
0.45972207	0.878288118	0.455525921	0.530349928	0.17080775	0.559217651
4.82278E-06	0.881462165	4.88226E-06	0.699013919	0.175320531	0.699224698
0.864796749	0.854600679	0.111434821	0.155702697	0.154213753	0.591952041
0.450383718	0.426958024	0.877356283	0.626471436	0.593153083	0.170462925
0.147419083	0.860532046	0.84494316	0.562692412	0.153218775	0.150776105
0.091292107	0.074408193	0.855498992	0.64555065	0.625544138	0.149145508
0.435554239	0.877296542	0.454732045	0.576336388	0.170550963	0.609975259
0.86001564	0.844906499	0.14751228	0.152391907	0.150220568	0.562718098
0.437078755	0.446379025	0.877389307	0.57570055	0.546102465	0.170631168
0.063481742	0.059943386	0.065399063	0.652082666	0.651923033	0.651702712
0.455597989	0.435832774	0.877302778	0.609754637	0.575947647	0.170554455
0.863234735	0.857337281	0.130377714	0.15535639	0.15713177	0.58644083
0.825834249	0.283199914	0.292067751	0.118647326	0.610158686	0.583445126
0.083507761	0.083636989	0.083881123	0.632104796	0.632110594	0.63247447
0.419980531	0.877866585	0.470395001	0.521067579	0.170773241	0.559633285
0.863735649	0.862406528	0.863562727	0.219955582	0.219200342	0.219283311
0.083345025	0.083798359	0.083854325	0.632254504	0.632213979	0.632434754
0.877065331	0.487701695	0.487237881	0.169893456	0.559981881	0.531092793
0.446363327	0.877379079	0.437082436	0.546082839	0.170577236	0.575764761
0.141761883	0.86109086	0.844345264	0.564632341	0.153460239	0.149578842
0.419980531	0.877866585	0.470395001	0.521067579	0.170773241	0.559633285
0.099792241	0.841632701	0.092700281	0.604285253	0.134881221	0.629441345
0.862730081	0.855212095	0.116737488	0.155164356	0.155085243	0.590328324
0.877675918	0.450542995	0.427118095	0.170770893	0.626489697	0.593050361
0.107992649	0.865111427	0.85439439	0.593631492	0.156555778	0.15470107
0.040882701	0.881470711	0.041137158	0.692953274	0.175526919	0.692352266
0.068860378	0.07918073	0.855154634	0.652014017	0.632265967	0.148871646
0.412171344	0.877583676	0.470031765	0.551419357	0.170700318	0.59053777
0.868857738	0.078275144	0.081328321	0.162442024	0.677882624	0.665836445
0.867361217	0.865702386	0.077280487	0.159846512	0.16110541	0.622946028
0.469849153	0.41574015	0.877370018	0.57536217	0.53609636	0.170516636
0.855889275	0.065713657	0.078447027	0.148985943	0.652613117	0.632977776
0.323474217	0.826065654	0.3053237	0.582634234	0.118587399	0.611700793
0.866155399	0.09550158	0.865895173	0.162266109	0.617782416	0.158823066
0.401341707	0.877244216	0.487653083	0.564281904	0.170546651	0.607366476
0.074935089	0.074890953	0.075191702	0.634295919	0.634474755	0.634477586
0.08297307	0.86908826	0.098855067	0.654667602	0.162586845	0.667639271
0.876749409	0.876936304	0.877385946	0.170789823	0.170489518	0.170586098
0.872510463	0.875252776	0.065196683	0.165259916	0.168923782	0.652792602
0.125145888	0.103097864	0.841916911	0.623655158	0.598640358	0.135173881
0.083910316	0.869143021	0.099541771	0.654427644	0.162617588	0.667830272
0.882054632	0.014268556	0.014218049	0.175466081	0.697113353	0.697442185
0.113918695	0.099887975	0.841771064	0.626160993	0.600963403	0.135065941
0.855059286	0.107803548	0.864345911	0.154388537	0.593928835	0.156534977
0.048250216	0.041850509	0.073693042	0.677461071	0.677971254	0.680038841
0.846299712	0.147386716	0.861163783	0.151024016	0.562787637	0.153417098
0.410277688	0.877622965	0.480876077	0.517693066	0.170671236	0.559333448
0.516373709	0.527398902	0.877779962	0.560729051	0.532027457	0.170963509
0.086387101	0.868311394	0.082969952	0.663699622	0.162505386	0.675198961
0.87522048	0.07603459	0.871350566	0.169118923	0.650418942	0.164369265
0.07605712	0.871353435	0.874592913	0.650432157	0.164534499	0.16864262
0.116641883	0.863417217	0.855050332	0.590367192	0.15568319	0.155774586
0.470642463	0.420055644	0.87818764	0.559623863	0.521073079	0.170670235
0.054216576	0.881388192	0.054554568	0.690170133	0.175392792	0.690045783
0.404087903	0.877444698	0.473468178	0.586030585	0.170565843	0.625892051
0.435893246	0.87746576	0.448233765	0.542786469	0.170577903	0.575676282
0.875032536	0.065208453	0.871734452	0.168968024	0.652912801	0.164728779
0.078998331	0.855871222	0.102952378	0.623552178	0.149772982	0.643315856
0.878104342	0.877638246	0.877274062	0.170909763	0.170733293	0.170573003
0.866777664	0.866581035	0.095435966	0.159365398	0.162201489	0.617549147
0.878007553	0.459800863	0.429844794	0.17057387	0.559825446	0.52437698
0.410303839	0.8777478	0.480968241	0.517568231	0.170607733	0.559332099
0.154069481	0.858418784	0.845832882	0.560892245	0.151834744	0.151067773
0.460159234	0.430125466	0.878657514	0.559997576	0.524244466	0.170762512
0.055298965	0.871152944	0.874279447	0.654953917	0.164140671	0.168228533
0.059414196	0.042793383	0.076374922	0.67497235	0.674979904	0.676446855
0.125136339	0.103082601	0.841814047	0.623639149	0.598614371	0.135167431
0.411614689	0.877355376	0.470327284	0.551179214	0.170288334	0.58983787
0.867743485	0.865650674	0.087795073	0.159772246	0.16205822	0.619620581
0.459096862	0.422085282	0.87762236	0.590723233	0.555072995	0.170543437
0.099931819	0.08126255	0.868788836	0.665663424	0.655645434	0.1627798
0.446318827	0.877311151	0.437059302	0.54606699	0.170581076	0.575756575
0.083532276	0.083642651	0.083986183	0.632106618	0.632142096	0.632483031
0.450354265	0.426931859	0.877300499	0.626458366	0.593137969	0.170513563
0.061256659	0.042220564	0.077281759	0.675653324	0.675134069	0.677419242
0.868883173	0.080664902	0.078475852	0.162527545	0.675120359	0.662547816
0.041010438	0.88101403	0.041178485	0.693072588	0.175009351	0.692375588
0.448887243	0.43981029	0.877779836	0.559742956	0.527800557	0.170513468
0.091170509	0.074605342	0.855704455	0.64558535	0.625650097	0.149511239
0.02845303	0.028067357	0.881230331	0.694636724	0.695157937	0.175130131
0.065255228	0.870527022	0.875198259	0.652432426	0.164632146	0.168642915
0.875187055	0.076025462	0.872213708	0.169127553	0.650409202	0.165323451
0.41036638	0.87781848	0.480975805	0.517724699	0.170617111	0.559376704
0.873419869	0.875409981	0.046600962	0.165177296	0.16838782	0.658958063
0.855874912	0.103075671	0.078834756	0.149747725	0.643459993	0.623629143
0.445149157	0.876534402	0.437716548	0.562953896	0.170001209	0.591868774
0.325118067	0.350727487	0.82482373	0.616441229	0.588418994	0.118617244
0.877744873	0.450574615	0.427155766	0.170824929	0.626475323	0.59303942
0.877245739	0.437027163	0.446288175	0.170569728	0.575713061	0.546066001
0.857530899	0.13044531	0.86268753	0.156538338	0.586434533	0.154276437
0.877126545	0.480632427	0.401241749	0.170134272	0.590311104	0.548138558
0.877393239	0.469977228	0.415412683	0.17054743	0.575379965	0.536114768
0.041105766	0.041281153	0.041788941	0.692556238	0.692641444	0.692251353
0.425878621	0.877334675	0.463713765	0.573492998	0.170610271	0.609635439
0.131024916	0.826950637	0.138327635	0.576566314	0.11975984	0.60569706
0.041177803	0.040789105	0.881662922	0.692729613	0.692611623	0.175313953
0.266766864	0.268954459	0.826447444	0.617597182	0.589935969	0.118993829
0.877381012	0.461989269	0.415418803	0.170654886	0.626241675	0.589680894
0.146975148	0.129530956	0.825773501	0.604188213	0.575541853	0.119283969
0.847125402	0.147389541	0.862090935	0.150996762	0.562779124	0.153448251
0.855330008	0.091396133	0.074185802	0.149264332	0.645697797	0.625838353
0.866654096	0.087865038	0.86780075	0.162109711	0.619329118	0.159818527
0.100258145	0.841810839	0.114008189	0.600408289	0.135014208	0.62567048
0.104091117	0.866126841	0.867127277	0.615158137	0.158430654	0.162849001
0.867589411	0.866167394	0.077284891	0.159824733	0.161800608	0.622891609
0.877352695	0.473408974	0.40996407	0.170582412	0.608768049	0.569120742
0.877476069	0.876346598	0.877486081	0.171021104	0.170668658	0.170707874
0.081832903	0.866751896	0.864814304	0.620911003	0.159508501	0.161624347
0.027731364	0.881110559	0.028507999	0.695454614	0.175277008	0.695476042
0.085014414	0.869185586	0.100356257	0.655363022	0.162769178	0.667602751
0.04631142	0.047938759	0.051526697	0.657027334	0.658342401	0.65847082
0.86681481	0.867116264	0.10398107	0.159242047	0.163004504	0.615198723
0.322255231	0.343007667	0.82534414	0.613086594	0.582526773	0.118660123
0.470577904	0.419900536	0.877973591	0.559599679	0.521069041	0.170614569
0.515680152	0.525922874	0.877450614	0.562061106	0.532305436	0.170605819
0.251197342	0.244534399	0.825033335	0.6097457	0.576983705	0.118697407
0.874007226	0.873611128	0.873161501	0.188814657	0.188520681	0.188313674
0.475727263	0.41385381	0.877443936	0.607919858	0.56834394	0.170588451
0.860104505	0.846747168	0.153967909	0.152505213	0.151724656	0.560832067
0.0876008	0.079308172	0.868891435	0.671876216	0.660668093	0.162571143
0.130164588	0.128429902	0.098524747	0.610787364	0.610075053	0.614815023
0.847151376	0.153945164	0.86047681	0.151807646	0.560927101	0.15244582
0.855480518	0.103076476	0.078882687	0.14957576	0.643434191	0.623649502
0.866083647	0.087851007	0.867490658	0.162338751	0.619231194	0.159742661
0.855900704	0.103050402	0.078848541	0.149417641	0.643651613	0.62355478
0.054224996	0.881522197	0.054618934	0.69024185	0.175373077	0.690103863
0.867847916	0.866128046	0.077065221	0.15976519	0.161573042	0.623215964
0.513637769	0.528601384	0.877295391	0.56139679	0.532996768	0.170494805
0.076031898	0.869304148	0.085034838	0.661299196	0.162502255	0.673533156
0.465547976	0.877479936	0.449588052	0.531203172	0.170688642	0.560345505
0.872412756	0.875426821	0.065202536	0.165479712	0.168806767	0.652625453
0.439785574	0.877836972	0.448960529	0.527810065	0.17086255	0.559733039
0.843878362	0.141839243	0.860808344	0.149818894	0.564464964	0.153752077
0.844481048	0.141788693	0.860665578	0.149694954	0.564502325	0.153379987
0.866366511	0.087860436	0.866919373	0.16164366	0.619727184	0.159440897
0.863460126	0.854446496	0.111436434	0.155684301	0.154192382	0.591982676
0.147462967	0.859696469	0.845541825	0.562645428	0.152770743	0.150363026
0.435853797	0.877330644	0.448130818	0.542772412	0.170569918	0.57564961
0.825412205	0.146696552	0.129509817	0.118940513	0.602555963	0.574004841
0.040754667	0.881371685	0.041036041	0.692824064	0.175206676	0.692331112
2.75016E-06	3.14296E-06	3.0715E-06	0.699353587	0.699211418	0.699269707
0.048081091	0.872161226	0.874296392	0.658817091	0.165208393	0.168377793
0.10790844	0.864700993	0.854589259	0.593635212	0.156515893	0.154647766
0.077964451	0.869134458	0.086202469	0.661138106	0.162589702	0.673588451
0.882212357	0.054598228	0.054149059	0.175630036	0.690300104	0.690483879
0.092738923	0.099618379	0.84165956	0.629627611	0.604564236	0.134901255
0.8773899	0.459052611	0.425610179	0.170620745	0.575756687	0.539658559
0.065246062	0.870520874	0.874386672	0.652736268	0.164583813	0.168697366
0.867667455	0.866116074	0.081587353	0.159893138	0.161734204	0.621389742
0.063648946	0.060008234	0.065646524	0.651965736	0.65201733	0.651938887
0.856672014	0.116682161	0.865098825	0.156095559	0.590328117	0.156396234
0.113863112	0.100166914	0.841807861	0.626134607	0.600858028	0.135051411
0.484710765	0.392857237	0.87731667	0.625281979	0.582507757	0.170421596
0.446367017	0.877388038	0.437087028	0.546083624	0.170582685	0.575747277
0.865269446	0.077088189	0.867849157	0.161166736	0.623321729	0.160011934
0.085582932	0.868751009	0.082215771	0.663331412	0.162411864	0.675258122
0.099837337	0.841627733	0.092821036	0.60437956	0.134876537	0.629364555
0.877348159	0.439401543	0.443839425	0.170584308	0.608375551	0.578253981
0.078981771	0.855429387	0.102969379	0.62372308	0.149390476	0.643310103
0.860199434	0.844242981	0.141779359	0.153113637	0.149173874	0.564508157
0.061016824	0.042265503	0.077450659	0.675608059	0.675142937	0.677442782
0.869220224	0.092495088	0.080043284	0.162662675	0.672274233	0.658644408
0.855412718	0.102983842	0.078899597	0.149729065	0.643395116	0.623633566
0.87470737	0.874533378	0.873320364	0.188862015	0.189143094	0.188725657
0.877821511	0.450614871	0.427191752	0.170835849	0.626400795	0.592999866
0.854620228	0.107821053	0.864773746	0.1543912	0.593869446	0.156596961
0.079124852	0.855842918	0.102948708	0.623555085	0.149870192	0.643318054
0.071886779	0.069933606	0.073420529	0.649626244	0.649932987	0.649104691
0.867643911	0.865966538	0.081582345	0.159837921	0.161717418	0.621389938
0.869125495	0.078598702	0.082006753	0.162579196	0.677189443	0.66504441
0.087834211	0.867447924	0.866697236	0.61943477	0.159598565	0.162156015
0.485652405	0.402742376	0.877441808	0.607483807	0.564564907	0.170475674
0.872135715	0.875011254	0.05526771	0.164877797	0.168977025	0.654923987
0.24903727	0.826548432	0.236144573	0.583603875	0.11879982	0.611240555
0.438581334	0.438576625	0.877183781	0.6265716	0.596364843	0.170281611
0.877375229	0.439224924	0.443890438	0.17055815	0.608411154	0.578214576
0.877761763	0.447999365	0.432977549	0.170657005	0.591229296	0.558606688
0.825953057	0.293828445	0.302033127	0.118561092	0.61582401	0.584668401
0.067703641	0.067647498	0.067914687	0.63648323	0.636416025	0.636820046
0.877365724	0.439362924	0.443921012	0.170575151	0.608402412	0.578256426
0.08183655	0.855576364	0.067460223	0.632125734	0.149003978	0.652799099
0.480354186	0.401086714	0.876756183	0.589879786	0.548057929	0.170216158
0.41029327	0.877655902	0.480899784	0.517598087	0.170543329	0.559341874
0.877716253	0.470316772	0.419920237	0.170783134	0.559755145	0.520890435
0.047818782	0.042931118	0.074571193	0.67814501	0.677602483	0.680305308
0.882305599	0.02758532	0.027392661	0.175545717	0.694524299	0.695128078
0.8756668	0.076052034	0.871186976	0.16945097	0.650494261	0.164769409
0.864580034	0.854854162	0.107753422	0.156624114	0.15452971	0.593996396
0.438494063	0.87701889	0.438498856	0.596586773	0.170218738	0.626538008
0.401564841	0.87738501	0.487280615	0.564759967	0.170531012	0.607790061
0.10024667	0.082221151	0.868987792	0.668596619	0.657067478	0.162826352
0.041152667	0.04089896	0.88209286	0.691938251	0.692848838	0.175680629
0.877307901	0.480604373	0.405594606	0.170568488	0.575139776	0.532802719
0.014268759	0.01413161	0.881049163	0.69701669	0.696924749	0.175212613
0.843852871	0.133737411	0.86369684	0.148686925	0.567821631	0.155801096
0.459208322	0.425676339	0.877486865	0.575486947	0.539339279	0.170613117
0.083202686	0.869256757	0.099625702	0.65489435	0.162643252	0.667533219
0.448267151	0.435946589	0.877528181	0.575538254	0.542679074	0.170612375
0.459883875	0.877387013	0.452668429	0.532303992	0.170778176	0.561241092
0.884098761	0.040849898	0.876815281	0.175291268	0.6928945	0.170725915
0.877507563	0.45962809	0.429516328	0.170736106	0.559846651	0.524306376
0.459021475	0.422015761	0.877473044	0.590706417	0.555013256	0.170483738
0.43817033	0.445062726	0.87777411	0.593105078	0.563458166	0.170622087
0.87645352	0.884020538	0.027325845	0.171093281	0.175773648	0.695173992
0.154054816	0.858728088	0.846994287	0.560954855	0.151752441	0.151088958
0.081644776	0.079631786	0.869279627	0.673643731	0.661872692	0.162549148
0.45901049	0.422021741	0.87746244	0.590697032	0.555011059	0.170471766
0.884307981	0.027325963	0.876096396	0.176188473	0.695204413	0.170749299
0.446358087	0.877366893	0.43707568	0.546076053	0.170625967	0.575719487
0.076054016	0.871024567	0.875181098	0.650434333	0.164545234	0.168679512
0.048556215	0.87179692	0.874621606	0.658498061	0.164833482	0.168202197
0.438137173	0.438132595	0.876296129	0.626747346	0.596170014	0.170557634
0.079638921	0.86925382	0.081514632	0.66340181	0.162381307	0.675849106
0.059743437	0.043084315	0.07714266	0.674764784	0.675073765	0.676564942
0.081693273	0.867019072	0.865325443	0.62119447	0.159615795	0.16146308
0.048675065	0.045643774	0.053718638	0.656279936	0.655838291	0.655769225
0.82576895	0.282366457	0.291910172	0.118636347	0.615897301	0.587537068
0.054640141	0.054200395	0.88185637	0.690112731	0.690115508	0.175411261
0.455224532	0.435928199	0.877404782	0.609157473	0.575846009	0.170599007
0.075169449	0.077422685	0.856350083	0.650057716	0.629730278	0.149307067
0.411427608	0.877299314	0.470445555	0.551266055	0.170177844	0.589866825
0.841948607	0.103050735	0.099184713	0.134930138	0.627904466	0.602502927
0.864722265	0.855373636	0.111438551	0.15649403	0.155001221	0.591971992
0.480798185	0.40572739	0.877438372	0.575029579	0.532604102	0.17055953
0.86629931	0.104418937	0.865984538	0.162583159	0.615282246	0.159127343
0.081005008	0.078679615	0.868893538	0.674197098	0.662236007	0.162467163
0.868957444	0.07783393	0.081952792	0.16248833	0.678517031	0.665632399
0.869028716	0.09119049	0.07900055	0.162566755	0.672434053	0.660095734
0.877890134	0.878129321	0.877190516	0.170695521	0.171144822	0.170741101
0.8637177	0.856628078	0.130373977	0.155334717	0.157034203	0.586441138
0.082209735	0.855388697	0.06552543	0.631043953	0.149230904	0.6530129
0.046946066	0.047829769	0.052332063	0.656846618	0.658338801	0.658450564
0.823740985	0.823648705	0.826715367	0.298942418	0.298814842	0.299680701
0.20346118	0.826129989	0.211978713	0.583485708	0.119118508	0.609922935
0.412085204	0.877586009	0.470122252	0.55182745	0.17059364	0.590657631
0.055311257	0.871818091	0.874804603	0.655027012	0.164806931	0.168660483
