Va	Vb	Vc	Ia	Ib	Ic
0.877288749	0.462529178	0.420935891	0.170600161	0.608622883	0.572161899
0.027830053	0.02737608	0.027881818	0.694815213	0.694810337	0.695848387
0.841882082	0.092740356	0.099581364	0.13478822	0.629680313	0.604348789
0.87757481	0.472180578	0.47935016	0.170689714	0.561249063	0.532263423
0.873842366	0.047226399	0.869871373	0.16846399	0.65692946	0.16454313
0.860612155	0.845440896	0.147446001	0.153376496	0.150856069	0.56290951
0.868748267	0.076192958	0.079347956	0.162543408	0.676404805	0.664303654
0.865563901	0.081509262	0.867532198	0.161427274	0.621119601	0.15976026
0.881427784	4.81932E-06	4.92049E-06	0.175446187	0.698873991	0.69925129
0.04508104	0.0487366	0.051014276	0.657237488	0.658332112	0.659068584
0.443767106	0.446831801	0.877355829	0.607981999	0.577415965	0.170588426
0.459559373	0.429652663	0.877572935	0.559819473	0.5243914	0.170626322
0.083392395	0.10222545	0.84179009	0.631243986	0.605995119	0.134738764
0.056125292	0.044944158	0.0750595	0.67443692	0.674673664	0.675620027
0.470133165	0.419560333	0.87717896	0.559672434	0.521055684	0.170716671
0.439059698	0.878149742	0.439064427	0.596517842	0.170615084	0.626453018
0.874222602	0.050074381	0.872340022	0.168276799	0.658823532	0.164979762
0.102916337	0.099089711	0.841516714	0.627680743	0.602514972	0.135021237
0.855902833	0.068700711	0.071907659	0.149480695	0.649861337	0.629942107
0.06620748	0.080180377	0.853976511	0.652659924	0.632998161	0.14875901
0.878279308	0.481244585	0.402086165	0.170847409	0.589908514	0.547829878
0.040857728	0.876913997	0.883593417	0.693095587	0.170552868	0.175681305
0.062497549	0.062481109	0.062479489	0.638262049	0.638419828	0.63852243
0.058885121	0.038378833	0.077341631	0.679833146	0.679059139	0.680198759
0.841388173	0.083371016	0.102176825	0.134847096	0.631351346	0.606250688
0.111384906	0.865350457	0.855941015	0.592259615	0.156329926	0.155578638
0.458728822	0.42165337	0.876816467	0.59070076	0.554994392	0.170315664
0.864109896	0.85608982	0.116633206	0.155647205	0.155650649	0.590347854
0.401236105	0.877047666	0.480541612	0.548573265	0.169914413	0.590399766
0.298340346	0.826000999	0.296515187	0.59162176	0.118841268	0.617611481
0.410298005	0.877833535	0.481054231	0.517511001	0.170892786	0.559493404
0.877589969	0.438784425	0.438779688	0.170868771	0.626591969	0.596432328
0.079683136	0.082774995	0.868909349	0.679310663	0.666313808	0.162499971
0.057366167	0.045118618	0.076485298	0.67548665	0.674644257	0.676415618
0.876395433	0.884274252	0.054274499	0.170941917	0.175621661	0.690517255
0.103008534	0.078837325	0.85517004	0.643510372	0.623666372	0.149278599
0.866261557	0.081509829	0.867022008	0.16164615	0.621405196	0.159652358
0.448829175	0.439547967	0.877457428	0.559694944	0.527881901	0.170389173
0.070076955	0.071551614	0.073634792	0.649691965	0.650166086	0.650158806
0.825866778	0.148267875	0.13109874	0.119194654	0.604981186	0.575550385
0.446125053	0.877311827	0.445474469	0.576954012	0.170555165	0.607254944
0.480865596	0.410179305	0.877520528	0.559261912	0.517667544	0.170470711
0.877285141	0.448132847	0.435760905	0.170604333	0.575691415	0.542816074
0.054297126	0.881262812	0.054617014	0.69106652	0.175440879	0.690039285
0.864295757	0.85372698	0.107681164	0.156455363	0.154061439	0.593753109
0.877362017	0.473586401	0.410176144	0.170543137	0.609097035	0.569259556
0.43710621	0.446367542	0.877405748	0.57577566	0.546050609	0.170610888
0.415635996	0.877412158	0.469942507	0.536202634	0.170574077	0.575466447
0.8719524	0.874613288	0.075954305	0.164386614	0.16809368	0.650415088
0.079447379	0.869056924	0.093379547	0.658333268	0.162576127	0.67022266
0.866306625	0.087739832	0.867581175	0.162139099	0.619314664	0.159691376
0.841325296	0.102857	0.099039774	0.134987449	0.627722709	0.602776571
0.577545273	0.877293578	0.522805621	0.529511672	0.170591119	0.558483612
0.856099469	0.091284394	0.074246995	0.149297283	0.646094145	0.625523325
0.846812032	0.15397696	0.858662323	0.150918262	0.560869206	0.151588948
0.841665141	0.124800495	0.103583236	0.135271216	0.623451549	0.598008848
0.876757921	0.884244407	5.49906E-06	0.171063586	0.176472085	0.699618195
0.414802302	0.877346481	0.474581968	0.569629395	0.170536971	0.608786582
0.439707757	0.877609047	0.448818213	0.527674334	0.170572184	0.559763908
0.130480906	0.863595751	0.857042575	0.586562889	0.155255318	0.15736944
0.845198891	0.137214388	0.861620744	0.148749278	0.566209103	0.15412534
0.877499168	0.462043509	0.415482977	0.170501951	0.626088002	0.58981788
0.877687145	0.480929385	0.401814102	0.170804528	0.590286742	0.547959623
0.877317453	0.46381383	0.493692664	0.170664524	0.56179084	0.532701465
0.876633416	0.438305975	0.438301314	0.170331318	0.626502322	0.596487335
0.087065461	0.868898397	0.08432668	0.665015386	0.16245983	0.67705759
0.075971722	0.872046824	0.874549173	0.650558923	0.164616111	0.168602582
0.862656522	0.856125205	0.130387461	0.154976813	0.156914567	0.586442123
0.882695196	0.027324649	0.876573557	0.175739796	0.695179326	0.171418822
0.881993576	0.027629022	0.027197305	0.175423578	0.694408704	0.694723491
0.439870012	0.877971807	0.449012014	0.527501009	0.170703861	0.559899282
0.825596622	0.137240099	0.128548296	0.118693557	0.606571899	0.577712776
0.874096449	0.055383875	0.871803162	0.168575086	0.654729043	0.164342476
0.867391423	0.866500853	0.095401459	0.159493821	0.162619905	0.617422769
0.147424513	0.860063558	0.845524344	0.562715379	0.152696049	0.150475975
0.877401446	0.462997465	0.420521489	0.170607118	0.609505656	0.572873629
0.424483716	0.877438928	0.465289165	0.573177057	0.170544953	0.609871501
0.459701659	0.42973012	0.877793235	0.559835203	0.524433112	0.170821057
0.045581688	0.04871243	0.051400499	0.657497353	0.658217173	0.659070496
0.841355699	0.102907396	0.098998185	0.134986271	0.62775175	0.602779006
0.070473482	0.051687114	0.08324785	0.67348482	0.672547932	0.674855895
4.77651E-06	0.881338402	4.9385E-06	0.699112296	0.175398587	0.698991797
0.046230518	0.048404269	0.053577575	0.658066669	0.658895549	0.659786187
0.826297012	0.201273506	0.211888744	0.11905216	0.609011234	0.577724661
0.757903794	0.760227272	0.759386181	0.384027062	0.384092981	0.384533467
0.877186568	0.48046454	0.401705651	0.170673596	0.589989435	0.548185712
0.877303321	0.45916807	0.422076678	0.170432661	0.590589429	0.554756715
0.445270619	0.87736482	0.43802374	0.562841996	0.170468638	0.59256884
0.863193954	0.856779975	0.130354103	0.15461621	0.156796186	0.586425581
0.480505414	0.409881356	0.876839497	0.559313376	0.517533848	0.170684473
0.137217018	0.859974253	0.844441149	0.56635272	0.154185641	0.148994106
0.877591083	0.877748243	0.877710458	0.170723899	0.171017064	0.170964118
0.459065075	0.425715719	0.877362815	0.575490387	0.539369085	0.170572347
0.866714106	0.095263704	0.867283115	0.162307628	0.6175794	0.159468739
0.427287585	0.87801318	0.450710999	0.59310822	0.170824528	0.62647405
0.01370578	0.876162899	0.881523948	0.697297902	0.170832994	0.175203372
0.438587821	0.44410555	0.877188489	0.592015623	0.562656414	0.170408443
0.855580983	0.123111414	0.862323485	0.155928601	0.588452062	0.155014568
0.073052398	0.855347643	0.082016212	0.627677314	0.149311158	0.6475654
0.878227538	0.481263831	0.410477919	0.170500781	0.559374622	0.517473425
0.133732212	0.862166626	0.843563196	0.567772616	0.155271765	0.148258921
0.000005493	0.876048023	0.883058644	0.699244605	0.170345382	0.174927047
0.826231311	0.221722907	0.227231916	0.11861528	0.609989891	0.580397937
0.870933184	0.873775751	0.055338551	0.164531748	0.167729575	0.654841073
0.864656014	0.854927245	0.111420363	0.155964933	0.154922321	0.591914804
0.113963671	0.100098423	0.842183427	0.625871171	0.600654888	0.135060876
0.141788968	0.861538257	0.846095989	0.564485579	0.154225333	0.150493329
0.469858844	0.415688156	0.877385467	0.57541786	0.536262374	0.170596784
0.855394253	0.111440316	0.864126707	0.154933744	0.592042718	0.155745116
4.9219E-06	4.82939E-06	0.882144302	0.699213048	0.699397221	0.175112164
0.045574692	0.048222568	0.054171392	0.655583733	0.656389011	0.655276197
0.065221511	0.871614067	0.87498116	0.652683487	0.164373836	0.168659267
0.147453203	0.859985793	0.845155563	0.562769367	0.152687081	0.150584526
0.864457738	0.85622465	0.116640843	0.155790397	0.155693898	0.590383136
0.405803618	0.877306163	0.480612696	0.532743515	0.170544834	0.575077843
0.091111449	0.074308814	0.854529684	0.645570446	0.625695842	0.149214225
0.111412406	0.864105608	0.855797334	0.592067627	0.156320707	0.155234283
0.014327395	0.881087074	0.014153786	0.697480782	0.175520821	0.696673666
0.09557124	0.866524855	0.866037263	0.617521067	0.158882202	0.161985812
0.84173379	0.102976983	0.099153222	0.135053027	0.62773908	0.60252437
0.233851803	0.221243175	0.825668816	0.607245577	0.581391316	0.119077802
0.137214889	0.861001338	0.842824012	0.566271837	0.154131062	0.148762609
0.041052782	0.882102201	0.041646164	0.692760637	0.175718015	0.692059308
0.410138953	0.877462998	0.480844545	0.517504439	0.170387118	0.559510648
0.082038838	0.85604655	0.067280524	0.631569862	0.149026688	0.652498006
0.05427475	0.875192369	0.883538335	0.690516094	0.170854473	0.175299952
0.877707284	0.877543459	0.878295958	0.170680154	0.170957742	0.171214798
0.884282433	0.027326995	0.875788728	0.176215144	0.695260501	0.170642382
0.877643018	0.448808053	0.439734974	0.170793217	0.559869632	0.527613377
0.855746806	0.116693142	0.864642211	0.155498907	0.59022773	0.155774426
0.87762244	0.484865039	0.393008603	0.170695337	0.625211888	0.582614253
0.878197677	0.439087863	0.439083232	0.17082635	0.626718023	0.596360053
0.872464963	0.875451944	0.055328526	0.165274527	0.169066441	0.654996813
0.040855302	0.87594902	0.883143813	0.693052386	0.170551687	0.175637602
0.092747897	0.099591309	0.841238964	0.629491629	0.604408114	0.134873862
0.424246244	0.877350375	0.465060076	0.573149089	0.170550832	0.609833925
0.156027273	0.14615415	0.094229703	0.616802284	0.616286156	0.61529901
0.841810297	0.113822378	0.100395822	0.135169044	0.626205019	0.60084221
0.877557005	0.473529344	0.404137831	0.170587884	0.625807561	0.58607859
0.081768697	0.855942477	0.068828075	0.633563839	0.148944559	0.654163227
0.844681515	0.137189634	0.861727195	0.149154555	0.566333952	0.154607215
0.438766659	0.877564295	0.438771368	0.596445206	0.170714092	0.626554868
0.855726825	0.107570527	0.865130573	0.15530318	0.593755502	0.1570951
0.099727149	0.081150997	0.869143688	0.668805668	0.656768885	0.162627855
0.877302045	0.462451499	0.421023717	0.170578418	0.608613018	0.57216236
0.450475858	0.427052221	0.87754255	0.626495664	0.593057794	0.170664588
0.877431334	0.469943882	0.415435809	0.170593623	0.5756155	0.536335765
0.060031598	0.060031676	0.059922814	0.639909769	0.640157407	0.64023408
0.844693433	0.84627644	0.846590643	0.257526554	0.256734734	0.257793213
0.869098693	0.090140661	0.076153884	0.162674445	0.671738462	0.659735144
0.437105091	0.446366955	0.877404482	0.57579775	0.546043786	0.170574099
0.877329782	0.451009784	0.432012794	0.170487179	0.608747288	0.575260537
0.865263173	0.081489413	0.86693679	0.161476728	0.621393362	0.159307376
0.877528877	0.470296092	0.419740291	0.170842416	0.559682569	0.521019605
0.443835173	0.446281072	0.87733591	0.608930288	0.578353822	0.170569369
0.057844019	0.045115502	0.076602576	0.67541543	0.674608899	0.676367556
0.410173213	0.877448907	0.480810068	0.517397925	0.17080265	0.559447304
0.43467759	0.877461521	0.455311659	0.575592499	0.170568555	0.608925743
0.864035087	0.854604506	0.107661292	0.156321811	0.154175258	0.593926473
0.438761793	0.877554504	0.438766494	0.596391693	0.170875553	0.626487576
0.876147045	0.881849813	0.040849414	0.170882812	0.175342696	0.692914055
0.881823869	0.054691886	0.054302504	0.175680792	0.689967979	0.690480629
0.429629894	0.877646943	0.459654416	0.524479239	0.170857187	0.559779448
0.079231968	0.869043472	0.092633547	0.658425777	0.162589086	0.669996964
0.102328731	0.13430989	0.180331463	0.618210442	0.619587338	0.621349002
0.826067058	0.14842254	0.131958483	0.119073742	0.605047099	0.575552511
0.14743977	0.859988494	0.845205867	0.562793453	0.152706474	0.150593045
0.01445225	0.014354381	0.882307691	0.696831816	0.697406908	0.175403325
0.102841273	0.078806317	0.855383668	0.643726242	0.623672126	0.149263374
0.437101351	0.446353374	0.877388847	0.575769494	0.546040671	0.170622337
0.419768407	0.877552862	0.470294222	0.520891191	0.170656787	0.55968755
0.056533539	0.044800268	0.075298653	0.674675089	0.674762036	0.675523095
0.868706488	0.077035963	0.079645842	0.162582864	0.676130225	0.664315251
0.868825464	0.090445921	0.076832296	0.162681577	0.671376418	0.65929456
0.419776181	0.877544061	0.470278883	0.520889686	0.170653669	0.559684285
0.074750842	0.0749577	0.075104696	0.634140404	0.634349678	0.63470851
0.459883734	0.429983797	0.878238825	0.559907899	0.524400393	0.170627701
0.07040454	0.072029148	0.074988198	0.650099541	0.649612891	0.649624846
0.013752736	0.014159455	0.014019326	0.696985451	0.697592043	0.697450995
0.278525157	0.282356563	0.826112959	0.610898675	0.582996893	0.119092528
0.147405707	0.860094704	0.846104267	0.562786041	0.152486586	0.15035303
0.877391315	0.469844512	0.415541049	0.170592283	0.575599872	0.536335498
0.825343581	0.137846203	0.12848271	0.118673577	0.605848902	0.576526774
5.49174E-06	0.876225626	0.884092718	0.699349052	0.17057702	0.176042744
0.88395811	0.013705185	0.876608804	0.17557159	0.697272308	0.171265286
0.866782248	0.866114679	0.081668403	0.159196694	0.161796992	0.621205695
0.873788319	0.048438924	0.872313254	0.168328617	0.65892724	0.165468595
0.073144912	0.855380107	0.071657432	0.629327855	0.148822285	0.649723478
0.865010375	0.854630453	0.111474676	0.155823342	0.154749993	0.591893052
0.08227478	0.869005417	0.099488332	0.656172142	0.162650953	0.668783938
0.480747265	0.405865009	0.877436135	0.574743958	0.53232483	0.170574655
0.446244469	0.877346963	0.444389977	0.576456565	0.170558771	0.606937095
0.480701845	0.401380606	0.877408431	0.59011318	0.548016026	0.170392764
0.448683211	0.439563686	0.877314676	0.559911738	0.52758005	0.170475161
0.092781802	0.099658798	0.841436407	0.629568205	0.604431694	0.134897793
0.013808958	0.014118116	0.013914627	0.697263193	0.696798016	0.696286386
0.419659444	0.877449503	0.470293697	0.521039081	0.17062412	0.559660159
0.875087777	0.055407655	0.87181707	0.168510663	0.654986658	0.164530672
0.861343473	0.84289285	0.133720051	0.154790456	0.147533021	0.567725785
0.864537455	0.854889847	0.111456305	0.155789844	0.154684895	0.59190233
0.415419415	0.877386437	0.461993657	0.589849544	0.170440393	0.626080073
0.866517194	0.865452531	0.087952992	0.159181411	0.161916285	0.619551209
0.877467699	0.480550773	0.405733634	0.170522512	0.57499243	0.53261935
0.12428679	0.110275505	0.149774361	0.616443318	0.614137412	0.614587538
0.44870027	0.439604531	0.87737789	0.559866715	0.52757292	0.170664842
0.475818419	0.413092698	0.877253435	0.609620324	0.570283153	0.170600023
0.855203148	0.102760035	0.078715255	0.149067859	0.643235829	0.623810487
0.070375299	0.071536599	0.074192554	0.649853734	0.650215928	0.650647509
0.089962081	0.075816344	0.868951266	0.668515511	0.659005014	0.162572647
0.480619526	0.405692387	0.877281576	0.575152444	0.532666895	0.170520912
0.877323768	0.459016965	0.425539908	0.170579189	0.575618187	0.539609234
0.393124525	0.877843397	0.484970368	0.582400975	0.170667783	0.625393265
0.475734693	0.413165546	0.877269728	0.609715917	0.570366012	0.17058851
0.070210079	0.051253486	0.08218984	0.673447579	0.672522721	0.674935443
0.149614206	0.13501632	0.825561839	0.603907778	0.574806619	0.119364299
0.846043967	0.147463035	0.859276178	0.150061527	0.562631099	0.152402085
0.877297427	0.448093202	0.435810424	0.170583478	0.575628957	0.542739553
0.841779207	0.124905905	0.103143708	0.135261062	0.623545802	0.597964043
0.405890423	0.877389484	0.480628129	0.532772707	0.170539099	0.575083265
0.437617203	0.445141872	0.877372087	0.59276079	0.563202231	0.170451221
0.392817159	0.877215088	0.48465115	0.582423627	0.170592942	0.625332709
0.443005983	0.448140109	0.87734969	0.606595561	0.576589944	0.17060583
0.099714529	0.841614411	0.092675647	0.604572924	0.134808896	0.629791215
0.07599012	0.871132839	0.874266882	0.650542625	0.164598742	0.168655624
0.499374809	0.517963611	0.877583474	0.559552005	0.530452016	0.170682167
0.856435084	0.11669311	0.864271157	0.155893103	0.590401711	0.155943404
0.858838113	0.84583297	0.153954774	0.151546451	0.150920798	0.560874177
0.860968795	0.845473335	0.141720632	0.153875466	0.150053265	0.56460083
0.868973401	0.083290438	0.075663615	0.162674351	0.674367696	0.661274815
0.462010605	0.415444522	0.877428127	0.626341946	0.589650724	0.170592282
0.867168087	0.86597433	0.081927104	0.159857529	0.161615238	0.621174098
0.874034365	0.047333918	0.871054435	0.168120619	0.657122794	0.164514944
0.08199125	0.869270685	0.099457523	0.65659097	0.162647017	0.669300734
0.883246803	0.013708724	0.875474719	0.175048127	0.697438793	0.170421635
0.099674625	0.841769279	0.092661	0.604308343	0.134887688	0.629755117
0.883741257	0.013702839	0.876406293	0.175586099	0.697149244	0.171211359
0.439666308	0.877571666	0.448822065	0.527486266	0.170756386	0.559986774
0.448675259	0.439617227	0.877358979	0.559921184	0.527580929	0.170502905
0.104205251	0.866870559	0.867433635	0.615336613	0.159313012	0.162914886
0.1417835	0.86162968	0.845788707	0.564578436	0.154320957	0.150165546
0.874453798	0.047216955	0.872223093	0.168567484	0.656876237	0.164906117
0.876722558	0.884031084	0.054283355	0.171374007	0.175844963	0.690639734
0.041030903	0.881774358	0.041261567	0.693068354	0.175623108	0.692538853
0.841721465	0.092669099	0.099672751	0.13479555	0.629596141	0.604276426
0.332232077	0.826020904	0.329745363	0.584976717	0.118940331	0.611397518
0.883073366	5.49704E-06	0.875004945	0.175087296	0.699336994	0.169773899
0.882132372	4.8549E-06	4.87173E-06	0.175440607	0.699327857	0.699246531
0.855714988	0.066458588	0.079348462	0.148567895	0.652500749	0.631778496
0.141845486	0.86012939	0.843996513	0.564532233	0.153800234	0.149839859
0.876607344	0.884373462	0.054273726	0.171001349	0.175602965	0.690506871
0.439086428	0.878203826	0.439091142	0.596287598	0.171068038	0.626669522
0.877357976	0.459130935	0.422140522	0.170397607	0.590590366	0.554770653
0.862720658	0.857238112	0.130386261	0.154631809	0.156737696	0.586471607
0.877302472	0.462452802	0.421023107	0.170578502	0.608612993	0.57216262
0.855778515	0.116693251	0.863292448	0.155811822	0.590375871	0.155915425
0.825404787	0.137042361	0.130621488	0.11865916	0.605673627	0.576318823
0.051881511	0.053578518	0.05841739	0.653767184	0.654096413	0.653523466
0.074724983	0.074933679	0.074986055	0.63410348	0.634385062	0.634444357
0.869068154	0.098864273	0.081814316	0.162767853	0.668385929	0.654695591
0.874932165	0.047226461	0.87135517	0.168380122	0.656942689	0.164827438
0.882613355	0.054273331	0.875560237	0.174930703	0.69051231	0.17062949
0.04200801	0.040961283	0.041924709	0.692943077	0.69304707	0.693722692
0.8444467	0.137230346	0.861769727	0.148938383	0.566165996	0.154440032
0.459012872	0.425757505	0.877348242	0.575453151	0.539343818	0.170581695
0.877275334	0.44056759	0.443456666	0.170505344	0.608070064	0.57779245
0.881719139	4.81759E-06	4.83657E-06	0.175406328	0.69917612	0.699297918
0.107701934	0.864706122	0.855303792	0.593739063	0.156711677	0.154425381
0.87773522	0.473618125	0.404227554	0.170542338	0.625820937	0.58609085
0.861570055	0.84370497	0.137207088	0.15450381	0.148851467	0.566215457
0.877264595	0.437030638	0.446302988	0.170597023	0.575699295	0.546043036
0.106393161	0.125999179	0.176779757	0.616266089	0.619170432	0.616779768
0.054614285	0.054252212	0.881781626	0.68993769	0.690250575	0.175681582
0.402799551	0.877365536	0.48578998	0.564888588	0.170493953	0.607599344
0.462055623	0.415491474	0.877519936	0.626358668	0.589666799	0.170486065
0.111374097	0.864922905	0.855157691	0.592039539	0.156218176	0.155185795
0.864767559	0.855836624	0.116597126	0.155833571	0.155785461	0.590437626
0.86451317	0.854891391	0.107729907	0.156257576	0.154259694	0.593756151
0.060028079	0.060027691	0.059878678	0.639776647	0.640291935	0.639940501
0.069532618	0.065442535	0.084915479	0.67050087	0.670478572	0.672709392
0.437102715	0.446360366	0.877395743	0.575773901	0.546045629	0.170616341
0.877451513	0.469914918	0.415504197	0.170590739	0.575610708	0.536295589
0.883860571	0.013707293	0.876100946	0.1751098	0.6973573	0.170729297
0.276834669	0.299141291	0.825924018	0.613394751	0.584470215	0.118603969
0.041251401	0.882481665	0.041261077	0.69271509	0.175882043	0.692288127
0.855464226	0.102837547	0.07901869	0.149283272	0.643599516	0.623398974
0.565126061	0.877010337	0.554808596	0.53941574	0.170412506	0.567243367
5.49123E-06	0.875592668	0.884696076	0.699297367	0.170066741	0.175671068
0.877295362	0.448042814	0.435860102	0.170597285	0.575685772	0.542806278
0.864145666	0.856166889	0.116639211	0.15543753	0.155461674	0.590384107
0.877289638	0.461944511	0.415371844	0.170476937	0.626093884	0.589854984
0.867419806	0.866737219	0.095423512	0.159246655	0.162566569	0.617825387
0.404220695	0.877702631	0.4735935	0.586191872	0.170705415	0.625717079
0.077069615	0.867833254	0.86528504	0.623141108	0.160404943	0.161216698
0.05959038	0.064236482	0.062664428	0.652160777	0.651800353	0.651973942
0.865058434	0.077109007	0.866947777	0.161079505	0.622904323	0.159951071
0.877338794	0.473616803	0.410065291	0.170510912	0.608993564	0.56923808
0.580860897	0.877419473	0.520739652	0.53266485	0.170586604	0.561651898
0.065209366	0.871451476	0.87392283	0.652836148	0.164649528	0.1682507
0.876893554	0.438435956	0.438431287	0.170254948	0.626587954	0.596392947
0.045175705	0.872072465	0.874106956	0.65903875	0.165242388	0.168168945
0.877428128	0.877714522	0.877403749	0.17069206	0.170520041	0.170271046
0.882338189	0.027606411	0.027376671	0.175396185	0.695079612	0.694945784
0.868942961	0.089854813	0.075406197	0.162676041	0.671455608	0.659261418
0.877436887	0.4504235	0.426998947	0.1704908	0.62636727	0.593212711
0.877909268	0.437590064	0.444425674	0.170666497	0.5909791	0.56153248
0.047134301	0.871205925	0.873799743	0.656820531	0.164537581	0.167746799
0.027524296	0.027623717	0.028081458	0.694981598	0.69502985	0.695712505
0.427338009	0.878113165	0.450760621	0.593106038	0.170790776	0.6264861
0.42229875	0.877871083	0.459186352	0.555046291	0.170552332	0.591098013
0.877365151	0.484044383	0.399752456	0.170491735	0.608205087	0.565485061
0.027402194	0.88211699	0.027428035	0.695259741	0.175364389	0.694927718
0.040856447	0.875997956	0.883176879	0.693061822	0.170456982	0.175426921
0.153923775	0.860573844	0.847137272	0.560901465	0.152816744	0.151981621
0.074902893	0.074971969	0.075448852	0.634396331	0.63433364	0.634431985
0.446320421	0.877292654	0.437041033	0.546044459	0.170610632	0.575725474
0.044560973	0.872583836	0.874580089	0.659195869	0.165667474	0.16841169
0.045092881	0.872071826	0.874818443	0.659066406	0.165548866	0.168783691
0.129264822	0.306111968	0.20841612	0.621132651	0.624446395	0.624431053
0.877352553	0.483941685	0.399895917	0.170490533	0.60821155	0.56546558
0.410292582	0.877802816	0.481029832	0.517505776	0.170836688	0.559493368
0.068791827	0.071245031	0.855197236	0.649441518	0.629556693	0.149013833
0.82647039	0.227800466	0.221692969	0.118746488	0.611105868	0.583314511
0.062502946	0.062484516	0.062449203	0.638340553	0.638374675	0.638512397
0.081826177	0.30143209	0.286659488	0.619725008	0.61906027	0.618444323
0.099746558	0.841566456	0.092745869	0.604352146	0.134843279	0.629670309
0.881980208	0.027629004	0.027200952	0.175423975	0.694405306	0.694717148
0.854500146	0.116685093	0.86259747	0.155392698	0.590428129	0.1553647
0.145181968	0.136983871	0.09604829	0.618548409	0.616175743	0.615394702
0.047155028	0.872102236	0.873457079	0.656878663	0.165215266	0.168267383
0.8777046	0.470346077	0.419872372	0.170756476	0.55963985	0.520952871
0.877970926	0.884761119	5.49831E-06	0.171081466	0.175935152	0.69953204
0.473502967	0.404113641	0.877505179	0.625955889	0.586160138	0.170579398
0.881182531	4.85976E-06	4.8686E-06	0.175385031	0.69908984	0.699410872
0.88429504	0.027326515	0.875765361	0.17617672	0.695251398	0.170630201
0.415489427	0.877355364	0.469998433	0.536016028	0.170533909	0.575267536
0.863495761	0.844012212	0.133701761	0.155210112	0.148071171	0.567868712
0.859109706	0.84624153	0.15398149	0.152243817	0.151299023	0.560827391
0.845435571	0.147472602	0.859056856	0.150272302	0.562781666	0.152391112
0.083837497	0.868784897	0.085559359	0.660857299	0.162615309	0.675610062
0.872900403	0.875546425	0.04742808	0.165557207	0.168740417	0.657005013
0.060000482	0.060017628	0.059956109	0.639558257	0.640203034	0.639808175
0.469988923	0.415513225	0.877252832	0.575199903	0.535987738	0.170534301
0.868534537	0.865857367	0.077436724	0.160133587	0.161519948	0.623140103
0.877376612	0.4480913	0.43585834	0.170624917	0.575749242	0.542887094
0.876043154	0.88222439	0.040846826	0.171052247	0.175371269	0.692907468
0.079046396	0.082021465	0.868976143	0.678810715	0.666003579	0.162482681
0.86053146	0.845308972	0.141736008	0.153809441	0.149961353	0.564590341
0.113763405	0.100310158	0.841616694	0.626042674	0.600627879	0.135021989
0.075958964	0.871373137	0.874605673	0.650520313	0.16446334	0.168489263
0.415519794	0.877367839	0.470016995	0.536123376	0.170522111	0.575442312
0.08301232	0.080327898	0.868837309	0.675963893	0.663679853	0.162607235
0.125211916	0.299715138	0.207481908	0.621912068	0.621881439	0.620933327
0.872713315	0.874344776	0.075945821	0.16448797	0.168335621	0.650436841
0.826365344	0.218397259	0.227873804	0.118744539	0.612212713	0.583867329
0.103472669	0.841779399	0.125332847	0.598422803	0.135275658	0.623516254
0.876253446	0.883762519	0.05427215	0.170849134	0.175639104	0.690451879
0.857372693	0.130482468	0.862662092	0.156736156	0.586552917	0.154585493
0.877879237	0.448917283	0.439873586	0.170717853	0.559980252	0.527658274
0.299966033	0.825837722	0.291527787	0.588080871	0.118812009	0.61801537
0.100057847	0.08138991	0.868880557	0.667601645	0.657196214	0.162581857
0.844682633	0.147440437	0.859335678	0.150067558	0.56264397	0.152358973
0.75851978	0.758401447	0.761404398	0.384168959	0.383484218	0.383507763
0.877595241	0.438786571	0.438781952	0.170819469	0.626732239	0.596330185
0.82602578	0.147896196	0.131581011	0.119184874	0.605046966	0.575565225
0.392823366	0.877263083	0.48468965	0.582488455	0.170516993	0.625292008
0.866592251	0.095484152	0.867248167	0.162299327	0.61716625	0.159384814
0.081674712	0.867451836	0.866247745	0.621301865	0.159703161	0.161721807
0.881811583	0.041364723	0.041007997	0.17548305	0.692594912	0.692973819
0.415561272	0.877659262	0.462125021	0.589695095	0.170692387	0.626230892
0.107695203	0.865034988	0.854741318	0.593897116	0.156888186	0.15442674
0.8760402	0.88377761	0.054272305	0.170849866	0.175645793	0.690453326
0.439000674	0.878031745	0.43900543	0.596409055	0.170685132	0.626477974
0.43864877	0.444504513	0.87763335	0.593132897	0.563441423	0.170620532
0.103891723	0.866548672	0.866536872	0.615417395	0.15901185	0.162811149
0.846133684	0.147499417	0.860390882	0.150751971	0.56285646	0.153029716
0.869102007	0.098068725	0.08144457	0.162758443	0.667789907	0.654277158
0.884014882	0.027329446	0.876679617	0.175302307	0.695297155	0.170920166
0.113829562	0.100122892	0.842053202	0.625836219	0.600655127	0.135048476
0.877064953	0.447809038	0.43279873	0.170259638	0.590822927	0.55849007
0.881769192	0.054690643	0.054319858	0.175175223	0.689904569	0.690226206
0.067561045	0.067727576	0.067841036	0.636297777	0.636575136	0.636771406
0.877386819	0.43940295	0.444973122	0.170622893	0.608942106	0.578335632
0.856334174	0.107533414	0.866471967	0.15511197	0.593825789	0.157047427
0.425668188	0.87743603	0.459168184	0.539397959	0.17056353	0.575458772
0.439125396	0.878281612	0.439130119	0.596324144	0.171211348	0.626734616
0.459501329	0.429494021	0.877354763	0.559888659	0.524404951	0.170741232
0.446328997	0.877334575	0.437071474	0.546066302	0.170568751	0.57572769
0.877409836	0.469814707	0.415577741	0.170550893	0.575409971	0.536141403
0.448925313	0.439600772	0.87761142	0.559739738	0.527868828	0.170495792
0.05449493	0.055122077	0.054741018	0.690235162	0.690158651	0.690238472
0.877504945	0.473495253	0.404121208	0.170605232	0.625762371	0.586066347
0.076002136	0.871482887	0.875071772	0.650539714	0.164294952	0.16869861
0.863370967	0.856646279	0.123162916	0.155694345	0.15646157	0.588425814
0.867236029	0.865691538	0.081839916	0.159794863	0.161534422	0.620942187
0.074952455	0.855950717	0.091388896	0.625931904	0.149355217	0.645644579
0.877353964	0.437189368	0.444244346	0.170342097	0.591470586	0.561971331
0.0411682	0.040880717	0.881235204	0.692368991	0.69311369	0.175183311
0.859177309	0.846256416	0.153943548	0.152326702	0.151451146	0.560903424
0.443127996	0.447336623	0.877386663	0.608208473	0.577625506	0.170579872
0.844440998	0.141831919	0.859969609	0.14964611	0.564520141	0.153489522
0.841354628	0.102910737	0.099023925	0.134981021	0.627646725	0.602667963
0.000004943	4.86831E-06	0.881274539	0.699379248	0.699155838	0.17506647
0.041251469	0.041105161	0.041788037	0.692976887	0.691878724	0.69220149
0.23369066	0.246095954	0.826141531	0.606655236	0.580698294	0.119068419
0.881619936	0.041101712	0.040903312	0.175507169	0.692755782	0.692933775
0.871729398	0.875619927	0.065170033	0.164879063	0.169144755	0.652723143
0.405782406	0.877348917	0.480695154	0.532734761	0.17063056	0.575050665
0.251266027	0.243409965	0.825908961	0.608838865	0.583540418	0.119063555
0.881532666	0.04116014	0.040914784	0.175362687	0.692891541	0.692848034
0.868138836	0.86599912	0.077223446	0.160202904	0.16166047	0.623141319
0.866929527	0.095527395	0.866922582	0.162284172	0.617581904	0.159330517
0.401220374	0.876971334	0.480505252	0.548588487	0.170030965	0.590487645
0.87386456	0.055342373	0.872342637	0.168026488	0.654888375	0.164502277
0.868721914	0.076839691	0.07949198	0.16258114	0.676056943	0.664298571
0.841088326	0.083340101	0.10221917	0.134841751	0.63122523	0.605942779
0.415957068	0.878455898	0.462525875	0.589848362	0.170678718	0.626094043
5.49326E-06	0.876498381	0.884569521	0.699078048	0.170973904	0.175536268
0.14254827	0.129932295	0.09835477	0.619189374	0.616975487	0.615339127
0.87757268	0.884917578	0.013707591	0.170922339	0.175870438	0.697398076
0.013981348	0.881341749	0.014112333	0.697094673	0.175339348	0.696881162
0.410211629	0.877684991	0.480987578	0.517525093	0.170655027	0.559411125
0.868774555	0.084568766	0.076493185	0.162673027	0.672630935	0.661504155
0.067651939	0.067634476	0.067915135	0.636333877	0.63630134	0.636673043
0.861409759	0.844943326	0.137234863	0.154427123	0.149243354	0.566292955
0.432739879	0.877742355	0.448213743	0.558251777	0.170815043	0.591294588
0.877367204	0.44809147	0.435847992	0.170627848	0.575771105	0.542883692
0.02801956	0.02758294	0.028291929	0.695444198	0.694633548	0.695246041
0.027547482	0.027596208	0.027813568	0.695209908	0.695585609	0.695410117
0.439081564	0.439076791	0.878184604	0.626626288	0.59642814	0.170677969
0.872543806	0.875055126	0.047156077	0.165251652	0.168326486	0.658518172
0.045138486	0.872440113	0.874437227	0.65903847	0.165277179	0.168173752
0.867700333	0.86576531	0.082018073	0.159846977	0.161532846	0.621002076
0.065217688	0.870545219	0.873296957	0.652826874	0.164645104	0.168464168
0.856434516	0.116701759	0.864445191	0.155906582	0.59023592	0.156219957
0.871105328	0.874540603	0.07595744	0.164401716	0.168136341	0.650375083
0.862924299	0.856372887	0.130379865	0.154854538	0.156896883	0.586374712
0.877652529	0.438815676	0.438810933	0.170678103	0.62652936	0.596423522
0.111400942	0.865230445	0.856067545	0.592098196	0.156361198	0.155313593
0.87752309	0.462057216	0.415492838	0.170714805	0.626247772	0.589613409
0.84466016	0.147472046	0.857971866	0.150029093	0.562794165	0.152464185
0.861136786	0.846576439	0.147408767	0.153297603	0.150844123	0.562786777
0.877436405	0.484222968	0.39976489	0.170573831	0.608709844	0.56607393
0.877299056	0.884542172	0.01370832	0.170879694	0.17596992	0.697415106
0.459827157	0.429846104	0.878040746	0.559816446	0.524321165	0.170776582
0.077017356	0.867495377	0.865732764	0.623096224	0.160223777	0.161702817
5.49174E-06	0.874302335	0.88232446	0.699392802	0.169914754	0.175449651
0.073137668	0.855326329	0.082113283	0.627644531	0.14924829	0.647561167
0.454566564	0.436085027	0.877357294	0.609349958	0.576080349	0.170583095
0.844348344	0.133771064	0.862536913	0.147730099	0.567741786	0.15484815
0.11139127	0.864929069	0.855822665	0.592267843	0.156289547	0.155504248
0.04085344	0.875928513	0.883277087	0.693003588	0.170406377	0.175416732
0.825814848	0.193100933	0.189953515	0.118847028	0.609689628	0.579565319
0.404018679	0.877316994	0.473409751	0.586251262	0.170741001	0.625793931
0.47038399	0.419826234	0.877701242	0.559700179	0.521034747	0.170801584
0.402519772	0.877403439	0.485726144	0.564837322	0.170548629	0.607549664
0.413554559	0.877234452	0.475447094	0.56809899	0.170621436	0.607107337
0.147398321	0.859743425	0.845355505	0.562843851	0.152452872	0.150322331
0.42720384	0.877849496	0.450630815	0.593073363	0.170847796	0.626520503
0.099228989	0.841957543	0.102999852	0.602419276	0.134868359	0.627738767
0.48057844	0.401238604	0.877132742	0.590079874	0.548141683	0.170151235
0.129290845	0.108491707	0.151200054	0.615451871	0.613165967	0.614656751
0.1404917	0.131106574	0.824722317	0.605510659	0.577753287	0.118743793
0.09968635	0.081134446	0.868911633	0.667576672	0.657154454	0.162574362
0.877920334	0.48501862	0.393153951	0.170726808	0.625346565	0.582662496
0.8747928	0.051266515	0.872269146	0.168337447	0.659042816	0.165054896
0.868843534	0.097144366	0.081193005	0.162776641	0.666089844	0.654082264
0.876866347	0.459195422	0.42932097	0.170429416	0.559777475	0.52437918
0.877291276	0.459152129	0.422016011	0.170351421	0.590751029	0.55497667
0.054312016	0.881797253	0.054614943	0.690981788	0.175528928	0.690431825
0.866433521	0.866818804	0.104348924	0.159191233	0.163006369	0.615613158
0.027600594	0.027535634	0.027945534	0.695063324	0.695628068	0.695355304
0.864563687	0.854876055	0.111458302	0.155792302	0.154687327	0.59190121
0.881788432	4.87116E-06	4.84488E-06	0.175529177	0.699215152	0.699128908
0.415437375	0.877422968	0.462012376	0.589898688	0.1706128	0.626066996
0.876275168	0.883906127	0.027326353	0.170591824	0.175763883	0.695201477
0.44812517	0.435900343	0.877386804	0.575783284	0.542852402	0.170564525
2.77878E-06	2.98442E-06	2.8952E-06	0.699184886	0.698979356	0.699253539
0.027706809	0.027391581	0.027619473	0.694871181	0.69448183	0.695179258
0.864544018	0.85488634	0.111458307	0.155792063	0.154685704	0.591901614
0.884477602	5.49704E-06	0.875385661	0.175160034	0.699411834	0.170044173
0.278369056	0.292810761	0.825816716	0.61585651	0.584633476	0.118734978
0.414474624	0.877198593	0.474939481	0.569058415	0.170593149	0.608062745
0.410301508	0.87783764	0.481054904	0.517511297	0.170892987	0.559493177
0.884299399	0.040850549	0.876878782	0.175068713	0.692889225	0.170814625
0.08340921	0.102157264	0.841441195	0.630746212	0.605838555	0.134752012
0.05461027	0.054173054	0.88200209	0.689957692	0.690609711	0.175672684
0.46976913	0.411469667	0.877164743	0.590483963	0.552148917	0.170015868
0.07976298	0.071456742	0.855947555	0.647875229	0.627412921	0.149354694
0.877284015	0.462458417	0.420966243	0.170544423	0.608593115	0.572144087
0.072949592	0.85544277	0.081964656	0.627727047	0.149394859	0.647574639
0.111440071	0.864165366	0.855657797	0.592115166	0.155840709	0.155072624
0.877954853	0.481110168	0.41036295	0.170711894	0.559485411	0.517357266
0.429880581	0.878082608	0.459841181	0.524321028	0.170869581	0.559889848
0.459939191	0.429980632	0.878290045	0.559887941	0.524423527	0.170747583
0.111396225	0.86504095	0.855619568	0.592076589	0.156401355	0.155322454
0.877710565	0.459664076	0.42967819	0.170544454	0.559631513	0.524580597
0.091741278	0.074263585	0.856434595	0.645330208	0.625910149	0.149691799
0.884069328	0.013710161	0.876182067	0.175993519	0.697593258	0.170842419
0.111393928	0.864740084	0.855014456	0.592065006	0.156394961	0.155321082
0.059475178	0.063922727	0.062845515	0.652075698	0.652756035	0.652147737
0.876136866	0.883444432	0.013706763	0.170442745	0.17535987	0.697318679
0.877319403	0.44809634	0.435839993	0.170582032	0.575621189	0.542741595
0.111450223	0.864186505	0.856106099	0.592135925	0.156279534	0.155440002
0.877444958	0.450734944	0.432331684	0.170566654	0.60968042	0.576291622
0.081630243	0.07868313	0.868861829	0.675844	0.663951336	0.162585418
0.877461454	0.480559368	0.405668499	0.170523657	0.575007883	0.532623444
0.825214625	0.148160877	0.131052214	0.119003342	0.604176157	0.576019479
0.069895519	0.065324458	0.084806521	0.670319199	0.671101834	0.672809281
0.413552356	0.877410619	0.47571822	0.566211735	0.170624384	0.606087646
0.141475643	0.825490307	0.149073719	0.573900935	0.118508204	0.601603316
0.874494696	0.055399258	0.871948667	0.16874729	0.655093473	0.164830575
0.148098375	0.132162954	0.82530258	0.602393429	0.571953837	0.119110527
0.054534877	0.054830296	0.055041269	0.690165852	0.690303892	0.690234089
0.0652204	0.871347041	0.874083516	0.652805705	0.164578185	0.168581051
0.091207235	0.078363431	0.869189722	0.668429829	0.657118563	0.162653034
0.877275963	0.437030393	0.446314184	0.170592594	0.575679045	0.546043494
0.877332396	0.470055125	0.412117868	0.170265386	0.591537451	0.552775566
0.841909919	0.092712204	0.099656408	0.134789436	0.629627463	0.604393692
0.438526736	0.444762744	0.877754148	0.593221963	0.563417224	0.170558492
0.067627496	0.067604601	0.067829359	0.636587245	0.636387958	0.636745528
0.87760777	0.43879333	0.438788593	0.170857981	0.626589391	0.596438717
0.439050601	0.43904595	0.878122921	0.626638762	0.596330415	0.170708174
0.095380062	0.867022317	0.866316156	0.617399821	0.159238339	0.162376473
0.484927337	0.393063736	0.877740213	0.62522395	0.582593748	0.170633027
0.041256642	0.040992114	0.881341323	0.692503146	0.692907507	0.17526013
0.4461434	0.877376686	0.444791339	0.576546646	0.170546582	0.60696127
0.073062706	0.855761736	0.081961453	0.627789589	0.149480996	0.647588817
0.081824075	0.079199942	0.868874183	0.675680221	0.663936803	0.162576411
0.415645491	0.877404216	0.46987226	0.536206657	0.170566137	0.575481123
0.843404739	0.13376501	0.862214611	0.147766604	0.567796129	0.154921608
0.43770015	0.444911428	0.877160829	0.5918399	0.562483167	0.170426095
0.866764244	0.866013599	0.088408905	0.159441469	0.162016787	0.61914138
0.414007071	0.877224745	0.474927542	0.568200453	0.170621776	0.607205377
0.401223006	0.876977034	0.480507414	0.548588766	0.170022717	0.590485918
0.855716256	0.116691864	0.864637017	0.155312015	0.590264221	0.155643887
0.074748332	0.856181824	0.091413163	0.625980682	0.149463559	0.645689582
0.881380902	0.054581446	0.054417712	0.175068591	0.690170916	0.690575523
0.856384116	0.116758414	0.863373474	0.155414996	0.590303182	0.155288812
0.847039782	0.153962474	0.858875838	0.151419279	0.560875455	0.152060354
0.014189958	0.014201339	0.881644953	0.696993928	0.697408786	0.175310432
0.874363255	0.076027273	0.871370207	0.168506167	0.650480162	0.164556014
0.855720415	0.123094303	0.863226554	0.155638954	0.588382609	0.154910252
0.411465997	0.87731143	0.469937133	0.551480579	0.170490284	0.590637307
0.125103284	0.110058379	0.145571063	0.615583747	0.614481252	0.614626916
0.45955879	0.429653236	0.877572891	0.559817587	0.524391046	0.170626974
0.487050072	0.4014031	0.877438454	0.607419182	0.56431529	0.170529302
0.841707743	0.113801964	0.100383594	0.135065113	0.626128539	0.600666612
0.054625837	0.054282354	0.881280764	0.689912781	0.690577552	0.175098042
0.847161783	0.153978348	0.858597489	0.151257393	0.560858571	0.151909603
0.843005575	0.133834482	0.861241962	0.147388817	0.567704225	0.154406167
0.876115423	0.883568279	0.027332816	0.170639312	0.175820892	0.695422803
0.095545424	0.866633899	0.866837803	0.61752057	0.159102623	0.162472456
0.410245391	0.877658578	0.480938297	0.517432674	0.170785853	0.559478374
0.825638812	0.278599022	0.288521652	0.118303079	0.61067843	0.58341626
0.083405277	0.102214466	0.84173146	0.631126032	0.605744325	0.134717599
0.844864945	0.141726784	0.860856761	0.149594462	0.564622489	0.153592951
0.2105364	0.826058502	0.207455325	0.581006906	0.118921699	0.609747414
0.131211348	0.82582954	0.149097691	0.575290833	0.118965243	0.603716124
0.09278699	0.099670701	0.841483091	0.629577918	0.604440652	0.134905955
0.058115783	0.037994463	0.076167437	0.679655333	0.679049341	0.680251506
0.877442583	0.462849724	0.420682815	0.170635185	0.609521439	0.572967644
0.866670555	0.866924835	0.104272954	0.159214687	0.162659294	0.615601525
0.075982473	0.871579884	0.874622559	0.650510822	0.164618792	0.168518269
0.882147815	0.040850446	0.874393749	0.174585077	0.692896808	0.170565968
0.07599933	0.871552699	0.875233034	0.650534905	0.16454264	0.169019755
0.05868168	0.038306578	0.076983879	0.679500064	0.678888127	0.68016863
0.123083358	0.863438815	0.856705137	0.58848785	0.155088224	0.156281992
0.826253368	0.148834717	0.131716532	0.119604991	0.601664494	0.573550414
0.856826914	0.068761816	0.072116764	0.149582992	0.650196993	0.62884529
0.459898206	0.429916651	0.878184603	0.559856752	0.524405737	0.170754394
0.087756822	0.078894832	0.868759636	0.672793446	0.661303302	0.162698665
0.111386061	0.864937343	0.855605221	0.592042994	0.156327247	0.155295038
0.013708073	0.876714049	0.883820956	0.697354802	0.170940413	0.175525244
0.099889537	0.081372813	0.86923778	0.669208302	0.657360376	0.162725346
0.43888072	0.438876001	0.877782943	0.626685962	0.59633294	0.170647965
0.877393603	0.469793178	0.415606485	0.170559536	0.575384121	0.536116496
0.87729656	0.448089251	0.435825227	0.170587357	0.575628163	0.542729367
0.099235677	0.841730937	0.103107505	0.602414876	0.134906913	0.627648468
0.855332586	0.102830412	0.079011178	0.149307129	0.643420909	0.623571963
0.860233398	0.843704954	0.137162666	0.153810342	0.148183358	0.566287671
0.124697846	0.103158525	0.841985908	0.623738411	0.598627404	0.135234093
0.871790138	0.873931904	0.055335125	0.164508775	0.167559148	0.654756737
0.877366071	0.448089412	0.435854081	0.170628137	0.575771891	0.542883054
0.099421291	0.841925487	0.10324495	0.602321817	0.134908308	0.627729956
0.439979301	0.878124388	0.449056549	0.527531664	0.17085349	0.560004121
0.881958536	4.85433E-06	4.8446E-06	0.17539797	0.699200842	0.699347278
0.877508725	0.48481637	0.392944084	0.170726928	0.625345421	0.582656907
0.861207193	0.842803663	0.13370473	0.15470651	0.147417424	0.567729633
0.068895417	0.071258027	0.855540173	0.650036757	0.629472765	0.148935687
0.758316955	0.757600233	0.757218771	0.383881597	0.383405067	0.382497891
0.111371276	0.864970171	0.85511771	0.592034044	0.156236932	0.155206875
0.486884998	0.401208504	0.877366584	0.607627656	0.564661481	0.170501367
0.059995916	0.060045039	0.059910555	0.639811011	0.640175911	0.640099234
0.883115534	0.040854916	0.875598751	0.174942132	0.692982928	0.170637086
0.480738896	0.405616299	0.877308355	0.575098148	0.53260648	0.170521518
0.875025442	0.88356805	5.49679E-06	0.170799465	0.175673463	0.699394036
0.279709322	0.300208928	0.825889515	0.613030264	0.583828342	0.118714416
4.88652E-06	4.81212E-06	0.88166857	0.699328618	0.699090273	0.175313305
0.480773016	0.401402669	0.877495515	0.59032618	0.548023452	0.170438474
0.861244831	0.846651773	0.147405426	0.153284952	0.150926204	0.562726652
0.866597056	0.095534477	0.86700703	0.162339259	0.617210867	0.159349152
0.402556393	0.877370169	0.485911404	0.564892723	0.170493528	0.607588628
0.867144148	0.865799338	0.07747805	0.159736467	0.161341873	0.622654991
0.871137138	0.874540057	0.075957249	0.16439527	0.168132417	0.650383845
0.070269046	0.071573239	0.073900804	0.649890723	0.650235758	0.650673009
0.01370573	0.875990819	0.883884773	0.69721966	0.17081954	0.175566845
0.087986597	0.867260158	0.866203958	0.619467098	0.159694138	0.162002055
0.841345416	0.083371771	0.102218819	0.134793533	0.631361158	0.606218225
0.070738066	0.051792781	0.083309736	0.673489976	0.672520529	0.674671679
0.869028495	0.080197958	0.077230098	0.162568202	0.674743104	0.663098754
0.866445749	0.104044971	0.866683637	0.162592417	0.615316131	0.159065646
0.404224663	0.877709915	0.473596868	0.586191779	0.170703439	0.625716888
0.438828471	0.438823775	0.877678489	0.626648777	0.596303836	0.170770936
0.470205012	0.4196169	0.877311389	0.55965212	0.520991287	0.170600702
0.074193461	0.855550889	0.082288907	0.628091363	0.149421736	0.648170502
0.060049324	0.060026812	0.059914196	0.639886399	0.64016367	0.640220606
0.083385823	0.102206888	0.841805996	0.631221566	0.605878545	0.134726442
0.866486736	0.095495732	0.86741545	0.16232968	0.617196201	0.159433218
0.874922904	0.047226281	0.871365229	0.168379807	0.656941078	0.164826041
0.865052507	0.855534477	0.111403066	0.156195204	0.155379047	0.592263874
0.013934914	0.014367524	0.013856205	0.696978139	0.696876075	0.69615529
0.124713571	0.11291733	0.150171235	0.616428285	0.61507816	0.615798658
0.103518899	0.841852641	0.125180535	0.598637152	0.13529026	0.623516852
0.841586751	0.124697573	0.103678232	0.135323698	0.622941876	0.597985152
0.469724952	0.4114329	0.877074264	0.590508874	0.552093434	0.170021686
0.758390812	0.757706883	0.756538308	0.383909599	0.383349049	0.382386297
0.082635279	0.079811881	0.868869249	0.675941568	0.663856603	0.162599783
0.10213927	0.134483979	0.179888898	0.618202803	0.619859556	0.621510332
0.855228776	0.079627836	0.071949278	0.148850583	0.647904255	0.628053879
0.869051595	0.083104736	0.074817456	0.162579	0.673380899	0.659718552
0.081617576	0.078986563	0.868901308	0.675186365	0.663236553	0.16254887
0.103209119	0.078919816	0.856369268	0.643756033	0.62342531	0.149650478
0.104142143	0.866758702	0.867014055	0.615375629	0.159277249	0.162912989
0.877448129	0.473493681	0.410115201	0.170616833	0.609296041	0.569487663
0.059364839	0.063792224	0.063039695	0.652101257	0.652488262	0.652294653
0.102907443	0.133325206	0.180187623	0.617712309	0.620959305	0.621595037
0.069444604	0.051632294	0.081967738	0.673197199	0.672574388	0.674018218
0.0996748	0.841849141	0.092656612	0.604440569	0.134887537	0.629757234
0.877552056	0.48481847	0.392985921	0.17072081	0.625068726	0.582564585
0.843094328	0.845949279	0.846281664	0.257256904	0.256745944	0.257552321
0.137183545	0.861866207	0.843458386	0.566124705	0.154153162	0.148637466
0.43847803	0.876987099	0.438482702	0.596468081	0.17049888	0.626627742
0.079486944	0.082698568	0.868920011	0.679185265	0.666235493	0.162497611
0.438216572	0.444535719	0.877451417	0.592822703	0.563254813	0.170424139
0.877233055	0.47032873	0.411766692	0.170387991	0.590660305	0.551626473
0.443534755	0.446677393	0.877312061	0.6086567	0.578059359	0.170576266
0.275120281	0.287223592	0.825658663	0.613757417	0.582699165	0.118681497
0.137204226	0.860281488	0.844643509	0.56643746	0.153891867	0.148670804
0.86457958	0.854694814	0.107698974	0.156214202	0.15427422	0.593731816
0.06006181	0.060037418	0.059935025	0.639803849	0.640153726	0.640053243
0.000005493	0.876951202	0.882970415	0.699113045	0.170483614	0.175077955
0.045212609	0.871909616	0.875003924	0.659055189	0.165412588	0.168476325
0.446357486	0.877381006	0.437090534	0.546049051	0.170614576	0.575751459
0.825975345	0.188359049	0.192859447	0.118517328	0.613071145	0.580509773
0.88136138	0.04127904	0.041060695	0.175477938	0.692479042	0.693033458
0.040861436	0.876136286	0.883307692	0.693137633	0.170605635	0.175529089
0.862246405	0.843255904	0.133710455	0.155023068	0.147745337	0.567697873
4.81356E-06	0.882273822	4.81183E-06	0.699267323	0.175324053	0.699250969
0.868879866	0.075624176	0.078616409	0.162527751	0.676625698	0.664509055
0.844332846	0.137200814	0.862238966	0.14907381	0.566356392	0.154521045
0.878281667	0.459976214	0.429934371	0.170422243	0.559749648	0.524519482
0.84846762	0.846681572	0.847382094	0.25710463	0.257131257	0.256510953
0.073296221	0.855935221	0.081888003	0.627804396	0.149380836	0.647582467
0.067711741	0.067601531	0.067840264	0.636419145	0.636587234	0.636765812
0.825576332	0.136753689	0.127243213	0.118904135	0.603596738	0.576072376
0.051822307	0.053161255	0.057434761	0.653975975	0.654045659	0.653660534
0.091645437	0.074311835	0.854937852	0.645366689	0.625634846	0.148836416
0.480788453	0.405835115	0.87745728	0.574761295	0.532335812	0.170575306
0.146926965	0.132542979	0.825821362	0.601321964	0.571987987	0.119857627
0.027323052	0.875801361	0.883530301	0.695149891	0.170808856	0.175505698
0.470394959	0.419780495	0.877654317	0.559585217	0.521012499	0.170484935
0.874664147	0.076024414	0.870648305	0.168759524	0.650561223	0.164580767
