Va	Vb	Vc	Ia	Ib	Ic
0.083354337	0.102189285	0.841314833	0.630819453	0.606013651	0.134853728
0.875274873	0.065245864	0.87130596	0.168513222	0.65265099	0.164694654
0.169153592	0.157685231	0.095026933	0.617434084	0.616192136	0.615925384
0.113750973	0.100162947	0.84206202	0.625849225	0.60064985	0.135044759
0.841688455	0.124854947	0.103572274	0.135291326	0.623270752	0.598076601
0.062518443	0.062477436	0.062436875	0.638292541	0.638243173	0.638548695
0.469888357	0.415702491	0.877410162	0.575443404	0.536291531	0.170553779
0.469959046	0.415685962	0.877380885	0.575481507	0.536260622	0.170571035
0.099623434	0.841790341	0.092671476	0.60430732	0.134901175	0.629745068
0.131400177	0.826133379	0.149903201	0.576271032	0.118922008	0.604163989
0.855474263	0.123105422	0.862330705	0.155745639	0.588440409	0.154983737
0.331149578	0.826181136	0.330301667	0.584359627	0.118892768	0.613012015
0.856039383	0.068680862	0.072063148	0.149271472	0.64990309	0.628821971
0.124567956	0.103192538	0.841835411	0.623537132	0.598509934	0.135245666
0.014611848	0.014638623	0.882135559	0.696864779	0.697403043	0.175349173
0.881561549	0.028079256	0.027602009	0.175350176	0.694963648	0.695398021
0.869017029	0.082999573	0.07502124	0.162640015	0.67398932	0.661634888
0.878005693	0.485060566	0.393196722	0.170783746	0.625275018	0.582668815
0.866901648	0.095552636	0.866717502	0.16228751	0.617477229	0.159353323
0.876572847	0.883581911	0.027332661	0.170644499	0.175829991	0.695421219
0.147406748	0.860215748	0.845558805	0.56278517	0.153013178	0.15074493
0.484982916	0.393139478	0.877870098	0.625171099	0.582583194	0.170787418
0.141854249	0.861095023	0.844445865	0.564537162	0.154162512	0.150051707
0.865131396	0.076980621	0.867131209	0.160911609	0.622690858	0.159934573
0.446327468	0.877310178	0.43705023	0.546030206	0.170623369	0.575732879
0.027572607	0.0276874	0.028097661	0.694979202	0.695079223	0.695721566
0.8820158	0.027535521	0.027521574	0.175496021	0.694324879	0.694873412
0.45891797	0.425701491	0.877288276	0.575600927	0.539440058	0.170589601
0.10766719	0.864882249	0.854665441	0.593923144	0.156874102	0.154405532
0.068772312	0.071384155	0.854688093	0.649579847	0.629484181	0.149213529
0.865084884	0.08155783	0.867538729	0.161631224	0.62102508	0.159937927
0.841545798	0.125044855	0.103921049	0.135311277	0.623046831	0.59774024
0.883176017	0.054272424	0.875904648	0.174935269	0.690505879	0.170618524
0.113765527	0.100334493	0.841754276	0.626232935	0.600739639	0.134961332
0.865004347	0.854844753	0.107679259	0.156378834	0.154029626	0.593875433
0.841697729	0.113745253	0.100458583	0.135065967	0.625693118	0.60044677
0.401252717	0.876875736	0.480362931	0.548261388	0.170160615	0.590295704
0.85487455	0.11142615	0.864681304	0.155041369	0.59197476	0.15603294
0.855276324	0.064281128	0.077953473	0.148867964	0.653415207	0.632410774
0.86646388	0.087754481	0.867181814	0.162302906	0.619959511	0.159429108
0.421644214	0.876558367	0.458539702	0.554767322	0.170234941	0.590248916
0.172162318	0.156518693	0.096686145	0.617861364	0.617417063	0.615863443
0.864586955	0.854464648	0.107676195	0.156462378	0.154098603	0.593651759
0.411660784	0.877582829	0.470004415	0.551388547	0.170698626	0.590595093
0.137155106	0.861246903	0.843229686	0.566354342	0.153780519	0.148545568
0.068840296	0.071295526	0.855524587	0.650095618	0.629348518	0.149058413
0.856703883	0.130443186	0.863311006	0.1567726	0.586483745	0.154593984
0.476080715	0.413019737	0.877301535	0.610317501	0.570776979	0.170536826
0.09278465	0.099662957	0.841443878	0.629569312	0.604432458	0.134901524
0.445625193	0.87765636	0.438091324	0.562608739	0.170735013	0.592327799
0.845429067	0.133717021	0.864493341	0.148508428	0.567802067	0.15563396
0.877409444	0.473427243	0.41049962	0.170544868	0.609303614	0.569440236
0.841816664	0.102965164	0.099178364	0.135041254	0.627730643	0.602569314
0.856905119	0.068744516	0.072114541	0.149485439	0.650176578	0.628936936
0.881591971	0.041170826	0.040813218	0.175379534	0.692840985	0.692900881
0.113834485	0.100127732	0.841762316	0.625860532	0.600530362	0.13502854
0.414596278	0.877150726	0.474885377	0.569383848	0.170576574	0.60843412
0.41148714	0.877227393	0.469823008	0.551640781	0.170216613	0.590534356
0.882132372	4.8549E-06	4.87173E-06	0.175440607	0.699327857	0.699246531
0.413979301	0.877313143	0.475059818	0.56778112	0.170619891	0.606806093
0.872923176	0.876212871	0.075956715	0.164932378	0.169024225	0.65050722
0.86273407	0.857232129	0.130385382	0.154630853	0.156737888	0.586471228
0.04527095	0.872323636	0.874849956	0.659159608	0.165534209	0.16876234
0.414580608	0.877256988	0.474925149	0.569499314	0.170555267	0.60857945
0.041205297	0.88314119	0.041756923	0.692842269	0.175649968	0.692616675
0.45879977	0.421743036	0.876982531	0.590927345	0.554991292	0.170300584
0.448142228	0.435912049	0.877412771	0.57582632	0.54288397	0.170552131
0.095463994	0.866925158	0.866512431	0.617413308	0.159301756	0.162477366
0.877524898	0.438751928	0.438747219	0.170501725	0.626501283	0.596457615
0.882408387	0.054270919	0.875628773	0.174939384	0.690468804	0.170598894
0.402446392	0.877406059	0.486030693	0.565009944	0.170500482	0.607632961
0.013787607	0.014290462	0.014053922	0.697288298	0.696918978	0.696806607
0.874250478	0.050018398	0.872327961	0.168278279	0.658820216	0.164986706
0.84113927	0.083325869	0.102219935	0.134843527	0.631205886	0.605943119
4.84144E-06	0.882348516	4.91936E-06	0.699256078	0.175370379	0.699330855
0.882294298	0.054375488	0.054273403	0.17535601	0.689881961	0.690260104
0.882018508	0.027558775	0.027540049	0.175572961	0.69437039	0.694854989
0.103481417	0.841848037	0.125157821	0.598682181	0.135352908	0.623542589
0.130533097	0.320007215	0.220425234	0.622589388	0.623277996	0.621296314
0.855295838	0.111431053	0.86440975	0.154806714	0.592251801	0.155728603
0.045209099	0.872048462	0.874283979	0.659008222	0.165301669	0.168179896
0.099209772	0.84176914	0.103076998	0.602465795	0.134906126	0.627652349
0.873982995	0.076030302	0.87080301	0.168492764	0.650497563	0.164653895
0.027817683	0.027699584	0.02828525	0.695258068	0.694857398	0.695305996
0.111450223	0.864186505	0.856106099	0.592135925	0.156279534	0.155440002
0.014448009	0.014490997	0.88233463	0.697630981	0.697288307	0.17544939
0.825600234	0.137233068	0.128510057	0.118714008	0.606581579	0.577695708
0.086558629	0.869317387	0.083281453	0.665436335	0.162461042	0.677481997
0.85572453	0.066463905	0.079136047	0.148621334	0.652382511	0.631752836
0.47650162	0.412686604	0.877201008	0.609843087	0.570469765	0.170585739
0.881573177	0.027617331	0.0277381	0.175353161	0.694987181	0.695183979
0.473524546	0.404148509	0.877562067	0.625696903	0.585996687	0.170421679
0.081625565	0.266647335	0.252624156	0.620156393	0.62071073	0.622849703
0.41558061	0.87734994	0.470048558	0.536011026	0.170508097	0.575258632
0.877173457	0.462261836	0.420936122	0.170574197	0.608770532	0.572253583
0.877486075	0.480531963	0.405742858	0.170597624	0.575401941	0.532972933
0.875779665	0.882692509	0.040862139	0.170358127	0.174882167	0.693168754
0.486494064	0.401704984	0.877412984	0.607565739	0.564575318	0.170496215
0.448125322	0.435903609	0.877390779	0.575779979	0.542848154	0.170565747
0.470099675	0.41956177	0.877144481	0.559660605	0.521080331	0.170781484
0.875549873	0.883945667	0.054270971	0.170680267	0.175405318	0.69043473
0.060062377	0.060024736	0.059909603	0.639850699	0.640183631	0.640208529
0.877422626	0.448764542	0.439558773	0.170653889	0.560006675	0.527649448
0.877928833	0.450668401	0.427245897	0.170735785	0.626510968	0.593075316
0.083957027	0.868641842	0.085348928	0.661526824	0.162614497	0.676314794
0.413718411	0.877384339	0.475666577	0.566007657	0.170680917	0.605603264
0.340693149	0.825835935	0.331003358	0.582614813	0.118918688	0.612235559
0.447783525	0.432542207	0.877187647	0.590876913	0.558252433	0.170251104
0.877159434	0.484644012	0.392765925	0.170695467	0.625341832	0.58265712
0.124634464	0.103181198	0.841855596	0.623563236	0.598538676	0.135243471
0.863969355	0.855884166	0.116634492	0.155678539	0.15568295	0.590339666
0.11137999	0.864827373	0.854816557	0.592038534	0.15632067	0.155285837
0.405993791	0.877298556	0.480429076	0.532772522	0.170551252	0.575097642
0.855116821	0.111411448	0.864865726	0.15499283	0.591974582	0.156040508
0.873491463	0.876248634	0.047444401	0.165370157	0.168981155	0.657056788
0.864973453	0.855570495	0.111384181	0.156169028	0.155362935	0.592320792
0.100004629	0.081479944	0.869209128	0.669242952	0.657557308	0.162749202
0.402707065	0.877396049	0.485552641	0.564834865	0.170557491	0.607544687
0.075970161	0.871503605	0.874654075	0.650539245	0.164511909	0.168460747
0.04593053	0.04857977	0.051687132	0.657646507	0.658159243	0.65938151
0.44528122	0.877500626	0.438158692	0.5625252	0.170814776	0.592222818
0.846414328	0.846955803	0.844998388	0.256412393	0.256993557	0.256749956
0.439666313	0.877564202	0.448818849	0.527660031	0.170607985	0.559777649
0.104242492	0.867020929	0.867083965	0.615441936	0.159261161	0.162974089
0.876705825	0.884557673	0.054273853	0.170965633	0.17561476	0.690508536
0.099305895	0.841723499	0.10318919	0.602402221	0.13492219	0.627656638
0.881558541	0.041186582	0.040924777	0.175402828	0.692783401	0.692844227
0.866501382	0.865692666	0.104043461	0.159281801	0.162485405	0.615209429
0.123106044	0.864099599	0.856341754	0.588530688	0.155899669	0.1568077
0.065240917	0.872005303	0.873930704	0.652768678	0.165001311	0.168556131
0.054272375	0.877241274	0.882531071	0.690457827	0.171388323	0.1754091
0.124673609	0.103210675	0.841788881	0.624150075	0.598627708	0.135223723
0.10014489	0.081482685	0.868864326	0.667624447	0.657229368	0.162588378
0.826190452	0.201299786	0.204337337	0.11910769	0.609759394	0.577467078
0.095497018	0.866313776	0.866504747	0.617608454	0.159085568	0.162437194
0.867007188	0.104050493	0.866729717	0.162687366	0.615471043	0.159138609
0.045321024	0.048518227	0.054098323	0.655597469	0.656526327	0.655347937
0.877376453	0.448090689	0.435860269	0.17062485	0.575747364	0.54288683
0.083469326	0.276208854	0.253709667	0.620171312	0.622466572	0.624163455
0.081381209	0.869287996	0.09922165	0.656496777	0.162641764	0.669259447
0.040463481	0.046174454	0.073988559	0.677022452	0.678606769	0.680547653
0.877783128	0.462188797	0.415621539	0.170528018	0.626125747	0.589884118
0.847322671	0.14749348	0.859893789	0.150600268	0.562761477	0.152894667
0.078950716	0.868999474	0.089057154	0.664171157	0.162638066	0.673472226
0.013705155	0.875715772	0.882315304	0.697267242	0.170228024	0.174652406
0.113748701	0.100218216	0.841983149	0.625958998	0.600568692	0.135078597
4.92387E-06	4.94693E-06	0.881907639	0.699278247	0.699311407	0.175061405
0.099686285	0.841610324	0.092671025	0.604571796	0.13484977	0.629778652
0.87730487	0.484692206	0.392865108	0.17078623	0.625093087	0.582535811
0.059462581	0.064811116	0.06339875	0.652153524	0.651576131	0.651956111
0.826240783	0.219981046	0.223040811	0.118613184	0.609972431	0.58312019
0.844524598	0.137195157	0.862059708	0.148923122	0.566343563	0.154447447
0.123087415	0.863907648	0.856964832	0.588464405	0.155742598	0.156967393
0.419900442	0.877650188	0.470266533	0.520887243	0.170582345	0.559677379
0.410301508	0.87783764	0.481054904	0.517511297	0.170892987	0.559493177
0.462005735	0.415439021	0.877417791	0.62634128	0.589650765	0.170588604
0.863984836	0.85663027	0.123104456	0.155688419	0.15652054	0.588579792
5.49326E-06	0.876428286	0.883259288	0.699124048	0.171147744	0.175583124
0.041845074	0.041070752	0.042229318	0.693088063	0.692354077	0.692270394
0.432597387	0.877505563	0.448107482	0.558409478	0.170370192	0.591050138
0.092071834	0.078968191	0.869337287	0.668217109	0.657086828	0.162652873
0.041239383	0.88247278	0.041331097	0.692732609	0.175886811	0.692231248
0.429581051	0.877508543	0.45956905	0.524392486	0.17065443	0.559895154
0.0817006	0.855709448	0.068442925	0.632969883	0.14899769	0.653197649
0.027497924	0.881083453	0.02770309	0.695156104	0.175034114	0.694518293
0.402916904	0.877380703	0.485831904	0.56489394	0.170488497	0.60759033
0.411610593	0.877529393	0.469990386	0.551576459	0.170522831	0.59051835
0.843530337	0.133773277	0.861864923	0.147645738	0.567829972	0.15459748
0.877485163	0.440314482	0.444389557	0.170626473	0.609753498	0.579314557
0.073277915	0.854734376	0.071565422	0.629452101	0.148702351	0.649603747
0.086162923	0.869312711	0.082912514	0.66543417	0.162487941	0.677551349
0.062546273	0.06248496	0.06247096	0.638405331	0.63847313	0.638548063
0.086386273	0.869201104	0.083356277	0.665316818	0.162462665	0.677319798
0.877670541	0.877801712	0.879015897	0.170743103	0.170532694	0.170935484
0.080017782	0.868964033	0.094166668	0.659299914	0.162663669	0.670414456
0.124289796	0.295376948	0.203778384	0.623081726	0.628362082	0.623339884
0.076000418	0.871279505	0.874158417	0.650503422	0.164352039	0.168719033
0.856047902	0.068847341	0.071710282	0.148954579	0.649633549	0.629107587
0.450582134	0.427152149	0.87774901	0.626499492	0.593085457	0.170461171
0.045329161	0.048698864	0.05403753	0.656022765	0.65592092	0.656149146
0.860153842	0.845507501	0.14175494	0.153695321	0.149781934	0.564525952
0.855888016	0.107568703	0.865978874	0.154927937	0.593864425	0.157112726
0.014151338	0.014297307	0.881229558	0.697312763	0.697525041	0.175209608
0.487034999	0.401431555	0.877438895	0.607419109	0.5643153	0.170529405
0.872123984	0.874907978	0.046239906	0.165118021	0.168600316	0.658068978
0.10218265	0.841507255	0.083427558	0.605719239	0.134753636	0.63065108
0.573067176	0.877176864	0.543877181	0.537945877	0.17040177	0.564759625
0.401146549	0.87702171	0.480579028	0.548627028	0.17024491	0.590502075
0.881581673	4.87601E-06	4.89985E-06	0.175398874	0.699162223	0.699306534
0.871359941	0.875735468	0.065170349	0.164642552	0.168953639	0.652686295
0.091153586	0.079228209	0.869309344	0.668276525	0.657110055	0.162653367
0.062499118	0.062486308	0.062439387	0.638299972	0.638315359	0.638480345
0.859502669	0.846468386	0.153998559	0.152204293	0.151370093	0.560958197
0.844792254	0.147477019	0.858161513	0.150147806	0.562772659	0.152500303
0.864432888	0.856799851	0.130294401	0.155251537	0.157169722	0.586563114
0.877491412	0.480693345	0.405578302	0.170573816	0.575382194	0.532893241
0.013706146	0.875955129	0.882738665	0.697279871	0.170903196	0.175609754
0.074896679	0.074918713	0.075176413	0.634062805	0.634515156	0.634424378
0.877417694	0.483559302	0.400300154	0.17054932	0.608628843	0.566025302
0.438813749	0.877657889	0.438818445	0.596539623	0.170609991	0.626466162
0.055356209	0.8721702	0.874369158	0.654908193	0.165010501	0.168551998
0.877426374	0.47346142	0.404075862	0.170626293	0.625922875	0.586025765
0.445515267	0.877360871	0.444720383	0.576621324	0.170571962	0.607400809
0.014253721	0.014225504	0.881385774	0.697091232	0.697565927	0.175311241
0.087396732	0.079839996	0.868779395	0.672447998	0.660161906	0.162664644
0.054278124	0.8767408	0.884457401	0.690566682	0.170965747	0.175657747
0.107843742	0.864569366	0.854685715	0.593737203	0.156617687	0.154512654
0.866895053	0.095272101	0.867286818	0.162458229	0.617731491	0.159404028
0.450353869	0.426925329	0.877293709	0.626406537	0.593236988	0.170398369
0.469737593	0.411397935	0.877081306	0.590503988	0.552109974	0.169977684
0.078785123	0.86885122	0.088512828	0.664280384	0.162671089	0.674275072
0.880406737	0.054687226	0.054422752	0.175051502	0.690078214	0.690355688
0.44459193	0.877365852	0.438547735	0.561810927	0.170410011	0.591289669
0.856786395	0.123135153	0.86392708	0.156661745	0.588611063	0.155664538
0.075988163	0.870963181	0.873863608	0.650511627	0.164505505	0.168720545
0.438434538	0.43842981	0.876890457	0.626525649	0.596319854	0.170405787
0.825419044	0.148265946	0.131038261	0.118968666	0.604322792	0.576013974
0.875766594	0.883738365	0.027332481	0.170624873	0.175821747	0.695420307
0.055358035	0.873101116	0.875387823	0.654700252	0.165425231	0.168873578
0.080849728	0.855938379	0.103928625	0.623568476	0.149507767	0.643643947
0.85655184	0.130499601	0.862134365	0.156594046	0.586481722	0.154376162
0.877717402	0.462154501	0.415589905	0.170780828	0.62625042	0.58965564
0.06000917	0.060018497	0.059967849	0.639630822	0.64024796	0.639790576
0.124913132	0.10348102	0.84167444	0.623404616	0.598272056	0.13513021
0.875009948	0.076025468	0.872604831	0.168528499	0.650530778	0.164857329
0.877501407	0.876784622	0.877210361	0.170667984	0.170527538	0.170352764
0.860442058	0.844871782	0.147458164	0.153293741	0.150801161	0.562965887
0.448149574	0.435888562	0.877399661	0.575751983	0.542800736	0.170566632
0.099479909	0.134917122	0.177436654	0.618233783	0.618618792	0.619693567
0.422374021	0.877979588	0.459243286	0.554799294	0.170537528	0.590721886
0.881405176	4.81327E-06	4.93035E-06	0.175426431	0.698948125	0.699106219
0.027320759	0.876370121	0.883028786	0.695089633	0.170996373	0.175599158
0.465790169	0.424529327	0.877381596	0.608844983	0.572194685	0.170604627
0.087235148	0.078845139	0.86874618	0.672754887	0.661132587	0.162686684
0.040620074	0.046474672	0.074509232	0.677035447	0.67859233	0.68056317
0.470001886	0.411613526	0.877552085	0.590540108	0.552092966	0.170200063
0.87665007	0.883345703	0.040860509	0.17078972	0.175885596	0.693142455
0.470261007	0.419766989	0.877515857	0.559648978	0.521029553	0.170653785
0.419841351	0.877642369	0.470309657	0.520887712	0.170834993	0.559777711
0.462010321	0.415444207	0.87742753	0.626341955	0.589650702	0.170592167
0.059593524	0.064366737	0.062842368	0.651899945	0.65188552	0.652252317
0.548564245	0.877473943	0.55827379	0.532383195	0.170577049	0.561749798
0.069891947	0.065119329	0.084922491	0.670333743	0.671052667	0.672870937
0.446294069	0.877276146	0.437048118	0.546057718	0.170536745	0.575732469
0.87735933	0.473649692	0.410105925	0.170517973	0.609058607	0.569268519
0.422107534	0.877454473	0.458969821	0.5553108	0.170429376	0.591147488
0.419634822	0.877421869	0.47029053	0.521039407	0.170631932	0.559661149
0.414418319	0.877233471	0.475111181	0.569221205	0.170579588	0.608243576
0.054518077	0.055270247	0.054918997	0.690208253	0.690154026	0.690328157
0.871723372	0.875208322	0.047489064	0.165007561	0.168858163	0.657126024
0.877427091	0.473461736	0.404076271	0.170625315	0.625922793	0.586025578
0.447763202	0.4324351	0.877054755	0.590833056	0.558349379	0.170149637
0.113848474	0.100115866	0.84213675	0.625866966	0.6006429	0.135054924
0.099330154	0.841856081	0.103071923	0.602324665	0.134897842	0.627673764
0.027545283	0.88128935	0.027731459	0.69511252	0.175034528	0.69465825
0.473792736	0.404404338	0.878086221	0.625791321	0.586149875	0.170654931
0.872986237	0.875984412	0.055317191	0.16549464	0.168742608	0.654826729
0.874660079	0.065226089	0.871323138	0.168725671	0.652753504	0.164397362
0.881401026	0.041158262	0.041024618	0.175308456	0.692547384	0.693033014
0.841583372	0.083391895	0.102213655	0.134861634	0.631156662	0.606263901
0.054605406	0.054185815	0.88200695	0.689972789	0.6905921	0.175722025
0.088206618	0.078861112	0.868905121	0.672559557	0.661530139	0.162602373
0.044666498	0.871646709	0.874120762	0.659356697	0.164845666	0.168004859
0.882002126	4.88823E-06	4.85118E-06	0.175391913	0.699230607	0.699359517
0.087984966	0.867647308	0.865913799	0.619259229	0.159717966	0.161946458
0.88241442	0.054496067	0.054133581	0.175674546	0.690080199	0.690383853
0.426654572	0.876752594	0.450083584	0.593149481	0.170508961	0.626483865
0.065238552	0.872067357	0.87370752	0.652772129	0.164883799	0.16845356
0.877455621	0.440907154	0.443703002	0.170632748	0.609756276	0.579328738
0.055314898	0.872862013	0.874111576	0.654758221	0.164851971	0.168449728
0.051720613	0.053840849	0.058145566	0.65407395	0.654462276	0.653698464
0.303888404	0.825984487	0.30125809	0.590464583	0.118817994	0.617847269
0.883063582	0.013706685	0.876227307	0.175119323	0.697336524	0.170503309
0.413289522	0.877236466	0.475689609	0.568426857	0.170617767	0.607420175
0.058430396	0.045282273	0.077701303	0.675445023	0.674641232	0.676349694
0.884088879	5.50058E-06	0.876113435	0.175607142	0.699409624	0.170747106
0.422096414	0.877757169	0.459336667	0.55484201	0.170812191	0.591107331
4.9171E-06	4.74883E-06	0.881721388	0.699342002	0.699109168	0.175352778
0.045268222	0.87223212	0.874721698	0.659057616	0.165444659	0.168560656
0.842551101	0.133762614	0.862336078	0.147777618	0.567667491	0.154765395
0.875519013	0.04728987	0.871982918	0.168493362	0.656787313	0.164785112
0.877578471	0.480932231	0.410171602	0.170901786	0.559588549	0.517361997
0.054654671	0.054261871	0.881364934	0.690110242	0.690287083	0.175088428
0.877609376	0.438794134	0.438789397	0.170856741	0.62658831	0.596438966
0.107778292	0.865629966	0.85488957	0.593979468	0.157114069	0.154935132
0.074132129	0.855400491	0.082579591	0.628013027	0.149412783	0.648237242
0.868829111	0.076016565	0.079072746	0.162524191	0.676440751	0.664396212
0.086685808	0.86862036	0.08364389	0.664652402	0.162558211	0.677337003
0.877750323	0.459710295	0.429681977	0.170435677	0.559790446	0.524386109
0.88347139	0.013707726	0.876092038	0.175029764	0.697418712	0.170430971
0.438647448	0.44416205	0.877296214	0.591678783	0.562315833	0.170410294
0.860702898	0.84436377	0.137257174	0.153821863	0.148600906	0.56614949
0.054252893	0.881595801	0.054652224	0.690467713	0.1753413	0.689989724
0.876270154	0.883909001	0.027326359	0.170592144	0.175763416	0.695201665
5.49199E-06	0.874764217	0.882838195	0.69932689	0.170315894	0.17499788
0.039825095	0.046462726	0.073560441	0.677557965	0.676642537	0.678080565
0.881473508	4.94805E-06	4.79073E-06	0.175333541	0.699521462	0.699677488
0.081925651	0.07913266	0.868878134	0.675788056	0.663965767	0.162576503
0.875459306	0.883749146	0.054271037	0.170723317	0.175467682	0.690436621
0.442321937	0.448299073	0.877347325	0.607490711	0.577023728	0.170600399
0.124452679	0.103246204	0.841713699	0.623895869	0.598152566	0.13514146
0.866684245	0.866596246	0.095435154	0.159391806	0.162517588	0.617081667
0.123108737	0.863382555	0.856332945	0.588405177	0.155086592	0.156297675
0.448158658	0.435902347	0.877418934	0.575826085	0.542874421	0.170554045
0.826239036	0.222127347	0.225899983	0.118618111	0.610007278	0.582998673
0.874863613	0.06524939	0.871300367	0.168657938	0.65269266	0.164851784
0.825484368	0.147970421	0.131434963	0.119128853	0.604672087	0.575275926
0.140466206	0.13104957	0.826464813	0.60581086	0.577333164	0.119266054
0.068844366	0.071291892	0.855558237	0.650101767	0.629385752	0.149047876
0.435959453	0.877434751	0.448148901	0.542696971	0.170633069	0.575585635
5.49326E-06	0.876391585	0.883039064	0.699203917	0.17037492	0.174955687
0.062509234	0.062480994	0.062409186	0.638245339	0.638262582	0.638517923
0.881642468	4.93879E-06	4.79681E-06	0.175535036	0.699130387	0.699164053
0.473159915	0.403798144	0.876845649	0.625760236	0.586006557	0.170438566
0.877392386	0.469819479	0.415586435	0.170595746	0.575599595	0.536324506
0.170937926	0.161347309	0.093935358	0.617054636	0.615948127	0.615896905
0.877763349	0.459732308	0.42966456	0.170804199	0.559768172	0.524500139
0.473623383	0.404241927	0.877753392	0.625927626	0.586156263	0.170719075
0.208639996	0.825981045	0.208376642	0.578079937	0.118905945	0.608131176
0.470181082	0.411853273	0.877974981	0.590592996	0.551574476	0.170434394
0.877409286	0.469903306	0.415464941	0.170590771	0.575606608	0.536336111
0.027555565	0.02763401	0.028016751	0.695283148	0.695120173	0.69510599
0.070415355	0.071518027	0.074052231	0.649918341	0.650235615	0.650684157
0.866164796	0.104069033	0.866680291	0.162763381	0.615363934	0.159260627
0.079222822	0.869115788	0.093212746	0.659306306	0.162645699	0.670424999
0.068870654	0.071240954	0.855338563	0.649567388	0.629589007	0.148983561
0.103219533	0.125068529	0.170750457	0.617115109	0.618890424	0.617524034
0.877296772	0.473148215	0.410427419	0.17050641	0.60903101	0.569256568
0.454906702	0.435887447	0.877398792	0.609792775	0.576558302	0.170590383
0.055738657	0.0450191	0.074988503	0.674465299	0.674666093	0.675591878
2.78227E-06	2.96389E-06	2.87548E-06	0.699218638	0.698922434	0.699218254
0.469921494	0.411680724	0.877528646	0.590555959	0.552159476	0.170196394
0.410487071	0.878074698	0.48110801	0.517536403	0.170869206	0.559485784
0.211868177	0.826056867	0.209044138	0.578846839	0.119075694	0.608928989
0.844863643	0.133718234	0.863978147	0.148483361	0.567798352	0.155703725
0.281197699	0.295764472	0.825808823	0.616776014	0.586864701	0.118708054
0.060001465	0.060017807	0.059963728	0.639534828	0.64018992	0.639817621
0.877275242	0.459108819	0.422089774	0.170353124	0.59076724	0.554955753
0.877431946	0.878090472	0.877259419	0.170721988	0.170575364	0.170461131
0.027822961	0.027597741	0.028100882	0.695246824	0.695602003	0.695409476
0.877037813	0.470032757	0.419526651	0.17066866	0.559710819	0.520963972
0.07599673	0.871768154	0.874906806	0.650497143	0.164419226	0.168870876
0.855116547	0.111464275	0.864213775	0.154877943	0.592176295	0.15605055
0.875572957	0.883704957	0.054277839	0.170889625	0.175680323	0.690539176
0.475684979	0.413792981	0.877452332	0.608632789	0.569337978	0.170613376
0.877192049	0.884487822	0.027328096	0.170619258	0.175625021	0.695248912
0.871807483	0.874774689	0.065179702	0.164810923	0.168593283	0.652833641
0.401606496	0.877591916	0.480730171	0.548225778	0.170460211	0.589948718
0.877232511	0.470168715	0.411819187	0.170194727	0.591473756	0.552786773
0.867014859	0.104042987	0.866559453	0.162868597	0.615452777	0.158937569
0.014145574	0.881444169	0.01430489	0.697303298	0.175412119	0.697041099
0.883219241	0.040854121	0.875978647	0.175083237	0.692981345	0.170680345
0.045022952	0.872342227	0.874832451	0.65909409	0.165550617	0.168792873
0.415650866	0.877397221	0.469869017	0.536200541	0.170535714	0.575456414
0.087913216	0.867590981	0.865946007	0.619253726	0.159734767	0.161940924
0.027325897	0.877185065	0.884654978	0.695209272	0.171071133	0.17571289
0.845645862	0.147491749	0.859754298	0.150241373	0.562848697	0.152688517
0.056853281	0.044884228	0.075380479	0.675621908	0.674667613	0.676062674
0.054602907	0.054192068	0.881997348	0.689943418	0.690623711	0.175644935
0.103070545	0.078864068	0.855944298	0.643257449	0.623496547	0.149586115
0.062505275	0.062483636	0.062457178	0.638411028	0.63844272	0.638539375
0.05464715	0.054790952	0.054572765	0.69054826	0.689906901	0.690290625
0.87708341	0.470292493	0.41178191	0.170205214	0.589688783	0.551196911
0.473569294	0.404185455	0.877643416	0.625802248	0.586132818	0.170671452
0.877298904	0.448055512	0.435855995	0.170584134	0.575654371	0.542773002
0.480584923	0.405899912	0.877292802	0.574283634	0.531908239	0.170478175
0.877188527	0.462281737	0.420836269	0.170605468	0.609112066	0.572498418
0.41990233	0.87765213	0.470267169	0.520889241	0.170614471	0.559680263
0.865598057	0.087730558	0.866781925	0.161904584	0.619242036	0.159337281
0.825843495	0.137434151	0.129184049	0.118671495	0.605821303	0.576302162
0.448789571	0.439586793	0.87745317	0.559755923	0.527858679	0.170576249
0.422107758	0.877454332	0.458969658	0.555310793	0.170429692	0.591147544
0.056501026	0.044906755	0.075398716	0.674818775	0.67478142	0.675519907
0.076976865	0.868165782	0.865422812	0.623133727	0.160434833	0.161437662
0.113766363	0.10030508	0.84180306	0.626260851	0.600763589	0.134985958
0.877245047	0.483519001	0.400255018	0.17052165	0.608311138	0.565661708
0.437082686	0.446327053	0.87734252	0.575808746	0.546038625	0.170573176
0.857681779	0.130474935	0.862894225	0.157171127	0.586561082	0.155038187
0.86194773	0.843863443	0.133734505	0.155294273	0.148175345	0.567782644
0.877535946	0.459663366	0.429515255	0.170569266	0.559614871	0.524553021
0.854995416	0.064418289	0.077692216	0.148977917	0.653090629	0.632245922
0.292385728	0.825860399	0.28707956	0.583525151	0.118982684	0.612317185
0.480768913	0.401475251	0.877559043	0.590035094	0.548257683	0.170413063
0.059932265	0.039654637	0.079647003	0.679406788	0.679200335	0.679966576
0.480617081	0.401281366	0.87721469	0.590102453	0.548149216	0.170154007
0.875310755	0.055395892	0.871816503	0.168488373	0.655025987	0.164507447
0.075983669	0.871830875	0.87504536	0.650599157	0.16458804	0.168543173
0.477343758	0.412218386	0.877435052	0.60915247	0.568739708	0.170561907
0.877188807	0.462276164	0.420966894	0.17056354	0.60869826	0.572208177
0.34813339	0.825457365	0.328359182	0.585505522	0.118655935	0.615111964
0.427116793	0.877673729	0.450542176	0.593066455	0.170822791	0.626462742
0.877266386	0.459484845	0.429417287	0.170407978	0.559799579	0.524422159
0.133713829	0.861697246	0.843704649	0.567836989	0.15521622	0.148204329
0.877685557	0.484897798	0.393038217	0.170761012	0.625190593	0.582600909
0.107754463	0.865166798	0.855324989	0.593943002	0.157068472	0.154799055
0.070122768	0.071892681	0.074180594	0.649785546	0.65012602	0.650392036
0.045454289	0.04795882	0.053179763	0.655694434	0.656387157	0.656729228
0.084235444	0.868963953	0.08554938	0.660077198	0.16263198	0.674135846
0.873357406	0.05536793	0.870847857	0.168351499	0.654928561	0.164357523
0.401164061	0.876512721	0.480083759	0.548295848	0.17009985	0.590239565
0.085502287	0.869072459	0.082509498	0.665413295	0.162540773	0.677395241
0.866831495	0.095629161	0.866842175	0.162303566	0.617639577	0.159331287
4.84574E-06	0.881413779	4.89645E-06	0.699345288	0.175039004	0.699134723
0.153939077	0.859713182	0.846431493	0.56080455	0.152335126	0.151468423
0.566730514	0.87726265	0.553541253	0.537125008	0.170485069	0.565715614
0.072882602	0.855941993	0.071341001	0.629689996	0.149613424	0.650177203
0.867000782	0.104033231	0.86666416	0.162827161	0.61547271	0.158922398
0.866494953	0.865666836	0.104012561	0.159292454	0.162504431	0.615207969
0.480697174	0.401364984	0.877380791	0.590158459	0.548028174	0.170455917
0.874338907	0.050104651	0.871629892	0.168253821	0.65882967	0.16497097
0.02732742	0.875870921	0.883509837	0.695250537	0.170934797	0.17580358
0.074867632	0.074903606	0.075235059	0.634313398	0.634315004	0.634570205
0.866559117	0.86561441	0.088249124	0.159204157	0.161867156	0.619518434
0.392925288	0.87745509	0.484780515	0.582448605	0.170516442	0.625309121
0.572979048	0.877188865	0.544070059	0.537889053	0.170400632	0.56464946
0.434798237	0.877324497	0.455322397	0.574104511	0.170542691	0.607853974
0.082823694	0.868885391	0.084079635	0.663200086	0.162488784	0.677222382
0.877317302	0.473402818	0.404025812	0.170515854	0.625775779	0.586070518
0.841701481	0.124715315	0.103660627	0.135290978	0.623311986	0.598039538
0.099806892	0.126700316	0.167955966	0.616970366	0.619271971	0.616387751
0.877678781	0.437402307	0.444303741	0.170496482	0.591815587	0.562664774
0.874862418	0.065249357	0.871303019	0.168658318	0.652692654	0.164852011
0.083904005	0.306004217	0.282515843	0.619703206	0.619610739	0.618982329
0.056168873	0.044694126	0.074589635	0.675443191	0.674689241	0.675917811
0.877398766	0.480828729	0.410096221	0.170443904	0.55932488	0.51758854
0.877412852	0.473531365	0.410423511	0.170547135	0.609310225	0.569453105
0.438844159	0.877718773	0.438848897	0.59640443	0.170712034	0.626509146
0.419628808	0.877414976	0.470289611	0.521039557	0.170634168	0.559661353
0.459040624	0.425667652	0.877349234	0.575786838	0.539579262	0.17059209
0.826685937	0.265880721	0.274290934	0.11868926	0.608982353	0.583092552
0.87681078	0.884253121	0.013707147	0.17086616	0.17614214	0.697382645
0.446318326	0.8772881	0.437038083	0.546043504	0.170615297	0.575732693
0.877300651	0.440450596	0.443861225	0.170520993	0.608051771	0.577718755
0.424395701	0.877403635	0.465115033	0.573180497	0.170546236	0.609861718
0.074778434	0.074991529	0.075118594	0.634162764	0.634367625	0.634537762
0.066887413	0.078622882	0.854960317	0.654008582	0.634122441	0.148674942
0.877405906	0.484029562	0.399902198	0.170586765	0.60873783	0.566088174
0.448135503	0.435969835	0.87745187	0.575820931	0.542856279	0.170553502
0.882700592	0.027829996	0.027528142	0.175398832	0.694919454	0.694842581
0.455048822	0.435898422	0.877388984	0.610970529	0.577443556	0.17059073
0.068834535	0.071222901	0.854946121	0.649866659	0.629588459	0.148890107
0.211057138	0.825458198	0.210946413	0.577778486	0.118793853	0.605636289
0.219510959	0.217923211	0.825295232	0.607150237	0.582108386	0.118847157
0.124604215	0.103104392	0.841488064	0.62330696	0.59833862	0.135255686
0.425676126	0.877330631	0.459085523	0.539466542	0.170507415	0.575589432
0.432987614	0.877989627	0.448211195	0.558420028	0.170689564	0.591530448
0.062491524	0.062476585	0.062466749	0.638305406	0.638494983	0.638494593
4.87629E-06	0.881782118	4.78696E-06	0.699130002	0.175462561	0.699233785
0.459010213	0.421991708	0.8774431	0.590785146	0.555092289	0.170457112
0.068008861	0.079601785	0.854380951	0.652407157	0.632780692	0.148711969
0.074763864	0.856491171	0.091463794	0.625759759	0.149957772	0.645544754
0.877040129	0.473271155	0.403879695	0.17067823	0.62581569	0.586177003
0.102190974	0.841623057	0.08341824	0.606128149	0.134726291	0.631439963
0.841795283	0.124891351	0.103248688	0.13525791	0.623551652	0.597968746
0.877310616	0.462687535	0.420569645	0.170610373	0.609399416	0.572757596
0.473552926	0.404179381	0.877619825	0.625903743	0.58613859	0.170727487
0.077400239	0.868809375	0.087534952	0.664133023	0.162668829	0.67445394
0.855030436	0.111467534	0.86397572	0.154651508	0.592171902	0.1557292
0.877302574	0.462453125	0.421022957	0.170578524	0.60861299	0.572162683
0.069444604	0.051632294	0.081967738	0.673197199	0.672574388	0.674018218
0.059358343	0.063467165	0.063136584	0.652005243	0.652145028	0.652247844
4.83858E-06	0.882370881	4.9281E-06	0.699250162	0.175345631	0.699307122
0.23520971	0.236031002	0.825994857	0.611127886	0.581593459	0.118916973
0.871971301	0.874889326	0.04617275	0.165111258	0.16859396	0.658094202
0.149741554	0.133565091	0.826416685	0.603324232	0.575346272	0.119368559
0.469430512	0.410999738	0.876318629	0.590506027	0.551683784	0.170298644
0.877773239	0.484932949	0.393092972	0.170714231	0.625194982	0.582601198
0.861951622	0.844664081	0.137224219	0.154586356	0.148932629	0.566176149
0.877371798	0.44032322	0.444292977	0.170632244	0.609878321	0.579563765
0.274165098	0.280324718	0.826380821	0.610693141	0.580232516	0.119040252
0.860310631	0.845015769	0.147503198	0.152712487	0.150291744	0.562880522
0.877499749	0.462043785	0.415483286	0.170499693	0.62608784	0.58981773
0.882483865	0.027326533	0.876653158	0.175504208	0.695211618	0.170929172
0.8776693	0.450539641	0.42711464	0.170657362	0.62660961	0.593028561
0.459049867	0.425765531	0.877393556	0.57550017	0.539375598	0.170572323
0.054304464	0.881870734	0.05462715	0.690895968	0.175452491	0.690526608
0.857429504	0.123115616	0.863592338	0.156111608	0.588519184	0.154944544
0.402146739	0.877306146	0.486661319	0.565366266	0.170558515	0.608299081
0.877678054	0.459678241	0.429634795	0.17063045	0.559633154	0.524557818
0.85608368	0.116682847	0.863906761	0.155768844	0.590414758	0.155888655
0.055382985	0.872043426	0.87384374	0.654897294	0.164625176	0.168417626
0.866753774	0.095536017	0.866979141	0.162308432	0.617393254	0.159341012
0.070243456	0.071343876	0.073968914	0.649868548	0.649998336	0.650144714
0.153936314	0.859766699	0.846776125	0.56080594	0.15231599	0.151455929
0.470025456	0.415642692	0.877387813	0.575403833	0.536208898	0.170551353
0.079529823	0.869034007	0.092583148	0.658361402	0.162595929	0.67002394
0.099745001	0.841586911	0.092764777	0.60434523	0.13483664	0.629685056
0.092818604	0.099669837	0.841653051	0.629422267	0.604465498	0.134933225
0.868892362	0.091034214	0.07823446	0.162694739	0.671338267	0.659345522
0.484779629	0.392939296	0.877464966	0.625362256	0.582499398	0.170557155
0.454891366	0.435966124	0.877427656	0.610994211	0.577242479	0.170576341
0.40591739	0.877344248	0.480603289	0.532755249	0.170553992	0.575083579
0.296968929	0.294948843	0.825752467	0.614752899	0.585852402	0.118707059
0.882562459	0.027327687	0.876422399	0.175233149	0.695246556	0.170612237
0.000005493	0.876417264	0.883187608	0.699082272	0.171135451	0.175585535
0.871015697	0.874631236	0.075970181	0.164324483	0.168478076	0.650489302
0.877396956	0.483773023	0.400089482	0.170565185	0.60853981	0.565859094
0.443165192	0.446960671	0.877364004	0.608918274	0.57833279	0.170568589
0.111392154	0.864931985	0.855880514	0.592248198	0.15629679	0.155509156
0.855317243	0.123097132	0.864340141	0.156057835	0.588338341	0.155228336
0.401519623	0.877473312	0.480689962	0.548153577	0.170193519	0.590269359
0.480945156	0.410209675	0.877635169	0.559361631	0.517518966	0.170642963
0.48089684	0.401578411	0.877796422	0.590287941	0.54806158	0.170438502
0.877877369	0.47045641	0.419932897	0.17066868	0.559640839	0.520949193
0.877518154	0.462056059	0.415488901	0.170721939	0.626230005	0.589632
0.871966094	0.875712301	0.075950327	0.164748505	0.169348846	0.650431344
0.843788817	0.137216004	0.861024659	0.148731238	0.566248992	0.154142538
0.153910658	0.859934328	0.846774623	0.560909375	0.152477912	0.151670473
0.22842169	0.214642454	0.825651559	0.607823052	0.582824102	0.119160692
0.845348059	0.133723791	0.86452879	0.148741877	0.567801803	0.155621136
0.040859181	0.87650185	0.883304129	0.693123995	0.1705526	0.175782838
0.877203317	0.459156415	0.42196436	0.170284675	0.590458461	0.554575506
0.041712242	0.041041779	0.041994229	0.692984796	0.69250026	0.692636867
0.459143502	0.42567328	0.877403787	0.575522322	0.539396898	0.170570973
0.855545372	0.10286628	0.078923331	0.149494517	0.643417517	0.623558721
0.04712423	0.870681988	0.873300642	0.656923406	0.164442539	0.168051751
0.877355035	0.459483505	0.429515331	0.170418792	0.559778968	0.524415149
2.79372E-06	2.99834E-06	2.85951E-06	0.699145636	0.699058074	0.698478591
0.079774291	0.071506573	0.855761304	0.647820176	0.627337816	0.149396306
0.8645259	0.85605256	0.116652277	0.155493667	0.155511077	0.590336989
0.140206464	0.134227022	0.825580993	0.605954526	0.577487651	0.118800625
0.877396947	0.459057477	0.42558449	0.170596943	0.575695262	0.539672906
0.459061443	0.422135281	0.87762773	0.59085774	0.555018916	0.170594623
0.868859477	0.075900542	0.078501455	0.162527608	0.676616721	0.664469027
0.841702473	0.124846351	0.103467716	0.135266683	0.62347601	0.598005339
0.040491989	0.046473389	0.074377556	0.677753472	0.677120653	0.679467207
0.475942089	0.413840512	0.87740445	0.610529607	0.570475186	0.170558119
0.248695708	0.238192823	0.826223427	0.60896119	0.582903573	0.118989647
0.877358288	0.473622345	0.410107816	0.170516256	0.609052175	0.569266275
0.868937078	0.080454827	0.077486787	0.162527692	0.674719112	0.66302329
0.06769566	0.067618437	0.067851837	0.636445905	0.636507142	0.636751996
0.877545927	0.484831491	0.392965664	0.170668691	0.62531095	0.582604968
0.487043483	0.40142095	0.877424596	0.60748203	0.564338319	0.170542737
0.079649901	0.071598047	0.855814933	0.647811108	0.627753376	0.149080177
0.405960202	0.87734376	0.480587378	0.532755816	0.170554471	0.575083011
0.856173991	0.091277412	0.074177881	0.149409342	0.645556608	0.625665484
0.881867546	4.82047E-06	0.000004836	0.175405451	0.69917944	0.699313561
0.869009181	0.080059677	0.07707105	0.16256701	0.674728181	0.663107162
0.865933852	0.866875267	0.104407281	0.159036358	0.162759346	0.615293756
0.080144326	0.855750922	0.104238865	0.623512281	0.149425566	0.64373417
0.877403197	0.450681196	0.432530993	0.170559101	0.60976369	0.576354777
0.82620317	0.147040409	0.133086257	0.11917375	0.604834992	0.575487846
0.079108941	0.081834953	0.868750275	0.678022907	0.665770864	0.162591695
0.054329939	0.881865796	0.054619569	0.690952104	0.175505284	0.690425276
0.87823195	0.481216233	0.410538585	0.170942638	0.559618417	0.517403902
0.877530926	0.46206094	0.415496978	0.170713521	0.626247651	0.589613344
0.091664553	0.074320413	0.854876892	0.64535709	0.625618681	0.148878586
0.415526087	0.877578199	0.462079525	0.589646874	0.170807674	0.62617246
0.866880234	0.866658774	0.104156004	0.159253056	0.162616928	0.615537678
0.100022492	0.082201315	0.868947986	0.667172969	0.656442017	0.162691869
0.088020302	0.078571635	0.868911018	0.672541829	0.661505105	0.162601862
0.825215598	0.136844492	0.128870221	0.118680339	0.605916681	0.576638752
0.877629646	0.87775519	0.878064291	0.170674168	0.170946632	0.171163638
0.075999117	0.871517831	0.874806619	0.650454951	0.164321444	0.168752563
0.866654431	0.866527399	0.095408486	0.159219729	0.16264974	0.617801346
0.882678559	0.054271616	0.876641557	0.175049847	0.690463746	0.17092979
0.87757725	0.472034279	0.479055418	0.170692943	0.561264701	0.532266315
0.87521679	0.075967632	0.871381726	0.168910353	0.650387888	0.164513325
0.877437214	0.450423659	0.426999116	0.170490459	0.626367255	0.593212679
0.054696829	0.054326316	0.881928809	0.690015935	0.690521428	0.175330535
0.444591594	0.877365753	0.438547847	0.56181088	0.170410068	0.591289806
0.841721805	0.092624562	0.099657038	0.134790624	0.629596383	0.604257588
0.881960276	4.78754E-06	4.89702E-06	0.17548454	0.699319929	0.699140195
0.11139731	0.865830778	0.856349118	0.592229819	0.156288904	0.155459738
0.422103535	0.877841211	0.459380934	0.555189857	0.1703451	0.590420385
0.045697829	0.04808026	0.053993399	0.655665587	0.656999981	0.656707088
0.040827216	0.046615292	0.074923244	0.677161211	0.678323131	0.680673473
0.027928523	0.027632485	0.028138179	0.695046107	0.695111948	0.695674687
0.877636	0.480942444	0.410222572	0.170586244	0.559412782	0.517397259
0.877545098	0.473120681	0.480708266	0.170673728	0.561212312	0.532241438
0.083416945	0.102155097	0.841518178	0.630757069	0.605901983	0.134737184
0.149535467	0.134893898	0.825529527	0.60395417	0.574548038	0.119321353
0.487125079	0.401352015	0.877452932	0.609032992	0.565659669	0.17050485
0.10213755	0.841529528	0.083410878	0.605494457	0.134669716	0.630723258
0.865730476	0.087709145	0.866803151	0.161862276	0.61934193	0.159304004
0.445760605	0.877457136	0.437781129	0.56294198	0.170637419	0.592616516
0.87499556	0.883643136	5.49578E-06	0.170632042	0.175291457	0.699302711
0.866570956	0.095614566	0.867224918	0.162533214	0.617265699	0.159522748
0.013705155	0.875736931	0.882305479	0.697267241	0.170226901	0.174649918
0.863219725	0.857304823	0.130368646	0.154664771	0.156779361	0.586503053
0.470331344	0.41990398	0.87771378	0.559725851	0.52103721	0.170776915
0.051882725	0.053729166	0.058420145	0.654086296	0.653968553	0.653831744
0.85955148	0.845826839	0.153959297	0.151787698	0.150957829	0.560997106
0.476500715	0.41263738	0.877255165	0.60936325	0.57005236	0.170615021
0.877354935	0.473422484	0.40404432	0.170564941	0.625941516	0.586024638
0.083398035	0.102224939	0.841782403	0.631234248	0.605972806	0.134737063
0.872158779	0.874954379	0.065183642	0.164812644	0.168535088	0.652856019
0.855581802	0.107518458	0.865637471	0.154877448	0.593983858	0.15700254
0.845768376	0.153990273	0.858193891	0.150870856	0.560848688	0.151530651
0.404223689	0.877708126	0.473596041	0.586191806	0.170703946	0.625716933
0.14184323	0.860914145	0.844906819	0.564573638	0.153820105	0.149829267
0.426990266	0.877421523	0.450416708	0.593127712	0.170557569	0.626398905
0.42217408	0.877569095	0.45902363	0.555355251	0.1704815	0.591136712
0.130404151	0.863699317	0.857740377	0.586431615	0.155147412	0.157452545
0.068814436	0.071259415	0.855289904	0.649483057	0.629439215	0.149017079
0.404415792	0.878115997	0.473810508	0.586177107	0.170862795	0.625870676
0.068856688	0.071277136	0.855582437	0.650124008	0.629369675	0.14885936
0.436227966	0.877369702	0.45431617	0.576406874	0.17052352	0.609813343
0.860729754	0.844807786	0.13720217	0.154423029	0.14924258	0.566293607
0.863958397	0.857128336	0.130311053	0.155222943	0.15710483	0.586592783
0.455541102	0.4352275	0.877333401	0.609957205	0.576696448	0.170596436
0.841727834	0.10295507	0.0990831	0.135012371	0.628110943	0.602714687
0.875779665	0.882692509	0.040862139	0.170358127	0.174882167	0.693168754
0.868171654	0.865957692	0.077167931	0.160201357	0.161662505	0.623141706
0.067660972	0.067575188	0.067847011	0.636303703	0.636292743	0.636636363
0.040853959	0.87537094	0.883597318	0.693044479	0.16999385	0.175275247
0.055363762	0.872552281	0.87487546	0.654957627	0.16492371	0.169005885
0.470040873	0.411742992	0.877692382	0.590649711	0.55144631	0.170614477
0.079644265	0.868980036	0.093638164	0.659078484	0.162687847	0.670408021
0.083711356	0.868630523	0.08510621	0.662577662	0.162556106	0.677056556
0.147438464	0.860747627	0.845760874	0.562692936	0.153129627	0.150838459
0.060093035	0.059978602	0.059927767	0.639881978	0.640606886	0.639892369
0.429720242	0.877786051	0.459712141	0.524447327	0.170872916	0.55974509
0.099933928	0.08140555	0.868851986	0.667718326	0.657335982	0.162600846
0.415478542	0.877491987	0.462040791	0.589833124	0.170517367	0.626053281
0.420001088	0.878016548	0.470521079	0.520819734	0.170886333	0.559770225
0.013705863	0.876330857	0.883666803	0.697226308	0.170861617	0.175601748
0.87672095	0.883905889	0.054277929	0.171365001	0.175418752	0.690578472
0.87744874	0.473491758	0.410125428	0.170616322	0.609295883	0.56948771
0.846874537	0.153959616	0.859224066	0.151446239	0.560878131	0.152081397
0.133733619	0.861894896	0.843475358	0.567744185	0.155230956	0.148236387
0.073110384	0.855182863	0.070997037	0.629584225	0.148975315	0.649866923
0.882872811	0.040853131	0.875482444	0.17510086	0.692971126	0.170673669
0.87756836	0.473527609	0.404151787	0.170654556	0.625718766	0.586056343
0.066268698	0.078524925	0.855783718	0.653527237	0.633151266	0.149617467
0.070107515	0.071789146	0.074144717	0.649802833	0.650139811	0.650310527
0.877316559	0.448094803	0.435839537	0.170582812	0.575621209	0.542739921
0.065230831	0.871951286	0.874778513	0.652840135	0.165194457	0.168613796
0.877087364	0.48088463	0.401216672	0.170534414	0.589652715	0.547765573
0.868794748	0.08299922	0.075159769	0.162665485	0.673388447	0.66169545
0.44810981	0.43895537	0.876124772	0.559768174	0.527695757	0.170474077
0.421964352	0.87712613	0.458777314	0.55524955	0.170048607	0.590889741
0.855650955	0.107562711	0.865402412	0.154960485	0.593724296	0.156984015
0.826245722	0.22436316	0.228769291	0.118611625	0.610041787	0.580826483
0.078671716	0.868960771	0.088307654	0.663057005	0.162640555	0.671979948
0.84688194	0.153946325	0.858968963	0.15145142	0.560895592	0.152069323
0.825136732	0.147015625	0.132769692	0.119050762	0.604016417	0.576011572
0.123096972	0.863780359	0.856840676	0.588358374	0.155631493	0.156808838
0.455044237	0.435878366	0.877394136	0.611013819	0.577443124	0.17059114
0.856634485	0.130405422	0.862086591	0.156541081	0.586496639	0.154338202
0.866308075	0.865606967	0.088233612	0.159421373	0.162016866	0.619492683
0.877342875	0.437071394	0.446338435	0.170588277	0.575737176	0.5460835
0.013708979	0.876281912	0.883154315	0.697452731	0.171035857	0.175241004
2.78676E-06	2.94322E-06	2.83122E-06	0.699155325	0.69900343	0.698336131
0.867515768	0.866784697	0.095434558	0.159250423	0.1625608	0.617924181
0.470234066	0.419748767	0.877470156	0.559628779	0.521018489	0.170503221
0.027515038	0.881686274	0.027575791	0.695154004	0.175191649	0.694573733
0.437107044	0.446371986	0.877411096	0.575772639	0.546053481	0.170609371
0.425644612	0.877426657	0.459187072	0.539404163	0.170557097	0.57545929
0.066439128	0.078230017	0.854670901	0.653929965	0.634153826	0.148732569
0.473570096	0.404189999	0.877648939	0.625833881	0.5860859	0.170770128
0.415526352	0.877253289	0.469902684	0.536049727	0.170522422	0.575345462
0.882126926	0.027327178	0.876759696	0.175420994	0.695228797	0.170824183
0.073212875	0.85543045	0.071802137	0.629290065	0.149647458	0.649514016
0.87500604	0.065240406	0.871404022	0.168260239	0.652778009	0.164306245
0.436023808	0.877445448	0.448134911	0.542691247	0.170599958	0.57549356
0.877491541	0.480589392	0.405735632	0.17056145	0.575170552	0.532821131
0.172210966	0.158607326	0.094038398	0.616046264	0.615443954	0.615893214
0.040861658	0.875536985	0.883585837	0.693141125	0.170621856	0.175562675
0.107849624	0.865080664	0.855539777	0.593703434	0.15674317	0.154569114
0.130406776	0.863953064	0.857931602	0.586575831	0.155223311	0.157329856
0.082053788	0.856076031	0.068781263	0.631776579	0.149045894	0.652779971
0.877461784	0.480559338	0.405669231	0.170523587	0.575007637	0.532623477
0.05426029	0.881605147	0.054649363	0.69050269	0.175342822	0.68997963
0.864087194	0.856418399	0.116638302	0.155711361	0.155703616	0.590326469
0.877337367	0.437072162	0.446332103	0.170593115	0.575746136	0.546080553
0.442773654	0.44787179	0.877346237	0.607371061	0.576936993	0.170602838
0.068714348	0.071344271	0.855601506	0.649902788	0.629379418	0.149211471
0.08335172	0.868876566	0.084702756	0.660415392	0.162665683	0.672946946
0.045024482	0.048898619	0.051367555	0.65763428	0.658144338	0.658427899
2.77928E-06	2.87307E-06	2.81697E-06	0.699177123	0.698923862	0.699528966
0.058921141	0.038801208	0.077867297	0.679348471	0.679141524	0.679901779
