Vam	Vbm	Vcm	Iam	Ibm	Icm
0.874364697	0.874262353	0.873976067	0.188981993	0.189355502	0.188903115
0.054226602	0.881746028	0.054605543	0.690303552	0.175372772	0.690449381
0.43852873	0.438523961	0.87707849	0.626593431	0.596423718	0.170508854
0.844989484	0.14738447	0.860989117	0.15022852	0.562737022	0.152637551
0.877727649	0.470397877	0.419832725	0.170881207	0.559700357	0.521068066
0.108089846	0.864796875	0.8547468	0.593677656	0.156637797	0.154520031
0.877419802	0.48057529	0.405671706	0.17058064	0.575352874	0.532954911
0.876647326	0.496635753	0.48392293	0.169867172	0.561279821	0.532867435
0.825683992	0.13695202	0.127292985	0.119055603	0.605796622	0.577314418
0.324976932	0.826023102	0.304941127	0.582888273	0.118604112	0.61263163
0.141737275	0.861145675	0.845916278	0.564572284	0.154056589	0.150307481
0.867206699	0.866019739	0.0815451	0.15953947	0.161939367	0.621355572
0.881737761	0.041100493	0.040866485	0.175131501	0.691903053	0.692845745
0.079044186	0.855918059	0.102939153	0.623525136	0.149704903	0.64348959
0.856810659	0.123053961	0.863553087	0.156777074	0.588467381	0.155860628
0.875670831	0.884520913	0.054274308	0.170693217	0.175877083	0.690506405
0.866405008	0.856068106	0.107726418	0.157139793	0.155006366	0.593795392
0.464798185	0.425108743	0.877259004	0.60891145	0.572101218	0.170531786
0.113333941	0.112049293	0.1713442	0.618460791	0.61814732	0.619011782
0.401652231	0.877730453	0.481110577	0.548321378	0.17061559	0.590297519
0.097339921	0.337066361	0.282478795	0.622202698	0.623663213	0.621596595
0.427244409	0.877924446	0.450665179	0.592912885	0.170388905	0.62661336
0.877272347	0.473054933	0.410267966	0.17058757	0.608845692	0.569253982
0.841544185	0.092755075	0.099880325	0.134874762	0.629481462	0.604505578
0.863091742	0.864083694	0.862991898	0.219075806	0.219087006	0.219259581
0.102243747	0.841564826	0.083363077	0.606010631	0.134841722	0.631185388
0.088031622	0.867405655	0.865738736	0.619197905	0.159402803	0.162095803
0.877399258	0.461992757	0.421693245	0.170584959	0.60814971	0.571664449
0.130246422	0.82762837	0.14130692	0.577405225	0.119838471	0.605910999
0.857263804	0.123055398	0.865159797	0.156699995	0.588515876	0.155853592
0.081684108	0.86750439	0.866253291	0.621341494	0.159394027	0.161825369
0.410275723	0.877685046	0.480932094	0.517727547	0.170698352	0.559340186
0.071755894	0.85573316	0.079676382	0.627535591	0.149306357	0.647813224
0.06524374	0.871209068	0.875454035	0.652748548	0.164830761	0.16913744
0.091328201	0.074519402	0.855508579	0.645554717	0.625607719	0.149305834
0.882485672	0.054277991	0.875190643	0.175516436	0.690618555	0.170337243
0.126045501	0.825874742	0.144073185	0.575112895	0.119227866	0.603575784
0.8727995	0.874432123	0.047229613	0.165132437	0.168302862	0.657030235
0.04621637	0.047696139	0.051844491	0.656957886	0.65836333	0.658401895
0.480684586	0.405952141	0.877446064	0.575168414	0.532702879	0.170587914
0.846712653	0.846540874	0.846435373	0.256885478	0.256552755	0.256524819
0.878297992	0.877660362	0.877422595	0.171132547	0.170647641	0.170662764
0.855501841	0.091286084	0.074317775	0.149300508	0.64576935	0.625868449
0.448111368	0.435981064	0.877391754	0.57555832	0.542805324	0.170578245
0.867693338	0.104209155	0.866963632	0.162951313	0.615452176	0.159094253
0.863440284	0.85688347	0.130378052	0.155473454	0.157350011	0.586489433
0.866916397	0.867230014	0.104003975	0.159329407	0.163070504	0.615312603
0.4733827	0.404008445	0.877279221	0.625663804	0.586170852	0.170453146
0.211593265	0.207329969	0.826756627	0.606861116	0.579752914	0.119337303
0.481031401	0.401681655	0.878046233	0.590178227	0.548311541	0.170642183
0.8691702	0.091797433	0.078684339	0.162632185	0.672971125	0.659580286
0.875807304	0.055365858	0.87122193	0.168648809	0.654760328	0.164200734
0.884115734	5.49477E-06	0.875262071	0.175675277	0.699259595	0.170472487
0.877382879	0.46991348	0.41539915	0.170539498	0.575554626	0.536233534
0.014301337	0.881579488	0.014547763	0.697064647	0.175058053	0.697646082
0.121010508	0.121279097	0.192784617	0.618135798	0.618807111	0.618843717
0.873944724	0.050328298	0.871018946	0.168339101	0.65859009	0.165073936
0.103829689	0.866380539	0.86727597	0.615247551	0.159000764	0.162828391
0.099307013	0.840892556	0.103024647	0.602505367	0.135060424	0.627580418
0.102245731	0.841559734	0.083365422	0.606015134	0.134841742	0.631193045
0.446222647	0.877191872	0.437200858	0.562721487	0.170064711	0.592069428
0.08035153	0.207376535	0.209457156	0.619874366	0.620287228	0.621967183
0.864218842	0.864843042	0.862984212	0.219076306	0.219056129	0.219046331
0.866405014	0.865995993	0.095423603	0.159201848	0.162244884	0.617458744
0.013780728	0.014334568	0.01415065	0.697148072	0.69751316	0.697236735
0.44506341	0.877500974	0.438515519	0.562721173	0.170060125	0.592024423
0.881909471	0.054546567	0.054149102	0.175524909	0.689557891	0.690322853
0.415547003	0.877320921	0.470010587	0.535919507	0.170589497	0.575274096
0.846137785	0.153959345	0.859488011	0.151347115	0.560898736	0.152319806
0.083463707	0.083648058	0.08396496	0.632196247	0.632184477	0.63241913
0.083395443	0.102218694	0.841700475	0.631323552	0.606052624	0.134678972
0.841936161	0.103040412	0.099239906	0.134873018	0.627872734	0.602524522
0.875008232	0.883939547	0.013707268	0.170455611	0.175678795	0.697361195
0.88364306	5.4973E-06	0.87551888	0.17547769	0.69958905	0.170154201
0.055339498	0.871451711	0.874028381	0.654943223	0.164731281	0.168555628
0.862854153	0.862420966	0.863596939	0.219663669	0.219145525	0.219306828
0.867023277	0.866221717	0.095409173	0.15942176	0.162494367	0.617343925
0.054765254	0.054456885	0.054815215	0.690312466	0.690173214	0.690631705
0.877353938	0.480764517	0.410119215	0.170888657	0.559461795	0.517546935
0.885223122	0.013707267	0.877595424	0.175730378	0.697381245	0.171214797
0.877371663	0.43944461	0.443767186	0.170572578	0.608409088	0.578255079
0.028378378	0.881266096	0.028244539	0.695480835	0.175254897	0.695485741
0.87722433	0.437004707	0.446287356	0.170579966	0.575738203	0.546059554
0.063816258	0.060015505	0.065763124	0.651989044	0.652002971	0.651941622
0.862299328	0.862725398	0.863390407	0.219135207	0.21868887	0.219309921
0.111445547	0.864387599	0.855876004	0.591924853	0.155661748	0.155163472
0.413314233	0.877462345	0.475567784	0.568466354	0.170573729	0.608323195
0.086527537	0.077733343	0.86886884	0.673068719	0.661030857	0.162480757
0.42543323	0.877308868	0.45919727	0.53968152	0.17057804	0.575691369
0.047453741	0.041819908	0.072829453	0.677834433	0.67773049	0.680482836
0.09193814	0.309789022	0.264505698	0.622509119	0.623350392	0.61920359
0.859358208	0.846542726	0.154008025	0.152576344	0.151759389	0.561064459
0.027468199	0.027741545	0.027724717	0.694835158	0.694848047	0.695523694
0.071153598	0.065628368	0.084741068	0.669603069	0.670144174	0.67072097
0.438631874	0.877294894	0.438636629	0.59629372	0.170534566	0.626581976
0.865185476	0.863521043	0.862997903	0.219679955	0.219716376	0.219213023
0.855696344	0.107953799	0.865013762	0.154991951	0.593911981	0.156549801
0.14180878	0.858942714	0.843369854	0.564629106	0.153008572	0.149118179
0.877750932	0.448034889	0.432902776	0.170734297	0.591254743	0.558625928
0.8417962	0.103109839	0.099185294	0.134875164	0.627844866	0.602574565
0.44862363	0.43958349	0.877273365	0.559743088	0.527731107	0.170332874
0.047170737	0.871847216	0.874290509	0.65703365	0.165116232	0.168641315
0.401948338	0.877353646	0.48707899	0.564029469	0.170553135	0.606912903
0.415722743	0.877417903	0.469965484	0.536135659	0.170585747	0.575463358
0.470327749	0.419755185	0.877573442	0.559617588	0.521042066	0.17054503
0.876038432	0.882961501	5.49578E-06	0.170501278	0.175090861	0.699173678
0.87707998	0.458808621	0.421908716	0.17072666	0.590579991	0.554991921
0.861507886	0.845543724	0.141693776	0.153939258	0.150047738	0.564534446
0.876791344	0.484452187	0.392590333	0.170479937	0.625251216	0.582612559
0.87777739	0.459114548	0.422295104	0.170440231	0.590874513	0.555385961
0.873057369	0.873879098	0.047181226	0.165335687	0.168570791	0.656994995
0.87739097	0.469981574	0.415407871	0.170549462	0.575392798	0.536127576
0.154018707	0.85929357	0.846305637	0.56089097	0.151947736	0.151076995
0.865586184	0.856734304	0.111436859	0.15621068	0.154997417	0.592100366
0.877328076	0.448714731	0.43953667	0.170793815	0.559755775	0.527763009
0.877350663	0.451362024	0.431750339	0.17055992	0.610113411	0.576610946
0.063266127	0.059991383	0.065372723	0.651992719	0.65197628	0.651437807
0.072304418	0.065820331	0.086470492	0.67042883	0.67002058	0.670716176
0.865288495	0.077125725	0.867927236	0.161342688	0.623066343	0.15999752
0.876265849	0.076048003	0.872817222	0.169123663	0.650484427	0.16528909
0.872143551	0.875340406	0.055289432	0.164922407	0.168991327	0.654913277
0.106350882	0.082918266	0.85509108	0.643354207	0.623377708	0.149590503
0.107983468	0.864645958	0.854645675	0.593641613	0.15654077	0.154653259
0.864379361	0.857511717	0.123109591	0.155351983	0.156363501	0.588420142
0.883153592	0.054276124	0.875474326	0.175479243	0.690568025	0.170436489
0.863490325	0.85536864	0.111428848	0.156024254	0.155004075	0.592201873
0.877253964	0.448649477	0.439535101	0.170431182	0.55986386	0.527619395
0.867529271	0.866107829	0.077114518	0.159848881	0.161372473	0.623142485
0.071662859	0.855082259	0.07962486	0.627648977	0.148799407	0.647737313
0.877379909	0.459014055	0.425627135	0.170572722	0.575618949	0.53957111
0.415559818	0.877386906	0.470073526	0.535931822	0.170572367	0.575265176
0.473628543	0.404235883	0.877753246	0.62576104	0.586268113	0.170655451
0.083137564	0.080585508	0.868885688	0.674402286	0.662692355	0.16257379
0.048186537	0.04186887	0.073667108	0.677484146	0.677988176	0.680160291
0.113768726	0.100018316	0.841791685	0.626125266	0.600886542	0.135077232
0.410252995	0.877595389	0.480871301	0.517696667	0.170664572	0.559327091
0.127319804	0.826686525	0.145907571	0.574510074	0.119486191	0.603429734
0.473589898	0.404199781	0.877678298	0.625996468	0.586131236	0.170663864
0.846765405	0.846602054	0.847006858	0.256868048	0.256596193	0.256470122
0.081621071	0.855986072	0.066225392	0.631210275	0.149197041	0.653003895
0.883605821	0.027327537	0.876658184	0.17548977	0.695203416	0.171289044
0.072655049	0.070027574	0.074796396	0.648995476	0.649888544	0.649255623
0.877345308	0.484032716	0.399532853	0.170572416	0.608735937	0.566072249
0.867950013	0.104438236	0.867015399	0.162925725	0.615245839	0.159174225
0.128332692	0.125193408	0.098592354	0.612090294	0.610601018	0.615222626
0.866033707	0.081562795	0.867142451	0.16141947	0.621475853	0.159374454
0.081343311	0.868989707	0.092669804	0.657112786	0.162636437	0.670566969
0.877268054	0.447857259	0.432642201	0.170410071	0.59088374	0.558315042
0.078485875	0.08144174	0.86890435	0.675106198	0.664052739	0.162575692
0.881405184	4.85947E-06	4.89419E-06	0.175301215	0.698995289	0.699386122
0.065234183	0.871127544	0.874811595	0.652853989	0.164384783	0.168742316
0.099295435	0.840926671	0.103049886	0.602498046	0.135081018	0.627560182
0.87730479	0.437056682	0.446315813	0.170599115	0.575730798	0.546089118
0.841683497	0.083334628	0.102260875	0.13475229	0.631293179	0.605850235
0.84169313	0.092736017	0.099873075	0.13487656	0.629408255	0.604390534
0.250451255	0.252430556	0.825857401	0.617570166	0.58764217	0.118726906
0.877385002	0.451124887	0.432448197	0.170522859	0.608695411	0.575377397
0.083380359	0.102240968	0.841827074	0.631049132	0.60593314	0.134727512
0.425552181	0.877411553	0.464219686	0.573551576	0.170587289	0.60989437
0.875059451	0.049663269	0.872390095	0.168386296	0.658482733	0.165117139
0.047931353	0.871883744	0.874517553	0.658361198	0.164812616	0.168481143
0.475649308	0.414115703	0.877445006	0.607907545	0.568343278	0.170585197
0.874723391	0.874235338	0.873349038	0.188838853	0.189238622	0.18875031
0.137140009	0.86270364	0.843834272	0.566163266	0.154302892	0.148871758
0.469673174	0.411473511	0.877077186	0.590702963	0.551463099	0.170242238
0.054549701	0.054250746	0.881672667	0.689669786	0.690666984	0.175478548
0.825962166	0.281288099	0.300001925	0.118695012	0.615667913	0.585506719
0.047430214	0.04741771	0.053244875	0.657611804	0.65822357	0.658452646
0.875267516	0.065209797	0.872660081	0.169116794	0.652609388	0.165230898
0.410084745	0.877303489	0.480749834	0.517659353	0.170589014	0.55940076
0.102262584	0.841802992	0.083369687	0.606037927	0.134708542	0.631485145
0.469849752	0.415739175	0.877370412	0.575362308	0.536096549	0.170516535
0.846335207	0.8459324	0.844922397	0.256775313	0.256828808	0.256692834
0.865879582	0.076983774	0.867334249	0.161297283	0.623230703	0.159931626
0.135207205	0.126753631	0.827324521	0.605425896	0.576624024	0.119352755
0.134483766	0.826676852	0.141174956	0.576601605	0.119353488	0.605267008
0.047199523	0.870962746	0.875807849	0.656724895	0.16435325	0.168596338
0.459129054	0.425674758	0.877422048	0.575432481	0.539298068	0.17063845
0.87767823	0.480935229	0.410267449	0.170803356	0.559484261	0.517374216
0.076020604	0.871157071	0.875673424	0.650376976	0.164464831	0.169233144
0.404081058	0.877432091	0.47346233	0.586030568	0.170567506	0.625892363
0.113780382	0.100008732	0.841805285	0.626107576	0.600899642	0.135083314
0.87739429	0.448690387	0.439626809	0.170520952	0.559836033	0.527612499
0.877353672	0.459039651	0.425582465	0.170619964	0.575683946	0.539603252
0.067768835	0.067652704	0.067976871	0.636325204	0.636509937	0.636731498
0.147439573	0.860751177	0.845780628	0.562708893	0.153183843	0.150759339
0.464265036	0.425578798	0.877279539	0.608830187	0.572037679	0.170526707
0.865349535	0.854157347	0.10777822	0.157037828	0.154912911	0.593959445
0.459040072	0.877807736	0.453498652	0.530868172	0.170992713	0.56016181
0.464852959	0.424365085	0.87739275	0.608083336	0.571489297	0.170513993
0.876045886	0.065210374	0.873147016	0.169260197	0.652830041	0.164846736
0.875629758	0.883983196	0.013708267	0.170582213	0.175917769	0.697409677
0.100197974	0.841862225	0.114039618	0.600376206	0.134949785	0.625703219
4.80115E-06	0.881315855	4.90947E-06	0.699109103	0.175361969	0.699063712
0.822326653	0.82330646	0.822819716	0.298255062	0.29864867	0.298353279
0.028216292	0.881401186	0.028622214	0.69528643	0.17559577	0.695256315
0.877383429	0.469914374	0.415396832	0.170539496	0.575555205	0.536233833
0.875364298	0.882472217	0.013706135	0.170335593	0.174415838	0.697282042
0.464074029	0.877772822	0.44924198	0.530831567	0.171001445	0.55960326
0.401520534	0.877240537	0.480727954	0.547961453	0.170076806	0.589562912
0.873246213	0.875165532	0.046629319	0.165206891	0.168344884	0.658943455
0.014298803	0.881493734	0.014360753	0.697555565	0.175268492	0.696699142
0.867361217	0.865702386	0.077280487	0.159846512	0.16110541	0.622946028
0.874111546	0.047103161	0.871718709	0.167904497	0.657012444	0.164891982
0.507895502	0.526863622	0.877330449	0.562485887	0.53348273	0.170445005
0.425598837	0.87743964	0.459166031	0.539804025	0.170636749	0.575863713
0.868976002	0.080815456	0.078105422	0.162589753	0.67501414	0.662946042
0.876069372	0.076051783	0.872477829	0.169473636	0.650559155	0.164949674
0.026947336	0.075136976	0.075502799	0.679161896	0.680176079	0.679227998
0.855672508	0.068927158	0.071422711	0.14906903	0.649924533	0.629437589
2.7542E-06	2.9988E-06	2.9592E-06	0.69915913	0.699326392	0.699229724
0.873429379	0.876324081	0.075937884	0.165055515	0.168753904	0.650532971
0.083507761	0.083636989	0.083881123	0.632104796	0.632110594	0.63247447
0.877345697	0.480801669	0.410076577	0.170513679	0.559503426	0.517432068
0.092686001	0.099882655	0.841487553	0.629630904	0.604159645	0.134769878
0.083055606	0.868831199	0.093597278	0.655114929	0.162752639	0.668751717
0.013708154	0.876353981	0.884088587	0.697417934	0.170868183	0.176088417
0.462097329	0.415544108	0.877614028	0.626240176	0.589594014	0.170659442
0.866010817	0.095710052	0.866560348	0.162163334	0.617382534	0.159375684
0.469730171	0.411516619	0.877174515	0.590821981	0.551517957	0.170437588
0.877387781	0.436981583	0.444626532	0.17034621	0.591961637	0.562371245
0.06771091	0.067648262	0.067945579	0.636580643	0.636467345	0.636886895
0.874777981	0.065171233	0.872751103	0.169159435	0.652562616	0.165370451
0.880565747	0.0276123	0.027479484	0.175185165	0.69483502	0.695066772
4.86147E-06	0.881369067	4.87344E-06	0.699626096	0.175084344	0.699178842
0.871892789	0.875081701	0.046328154	0.164922822	0.168587555	0.658959952
0.877282478	0.447855298	0.43267014	0.170386825	0.59088174	0.558313532
0.869082494	0.079777194	0.077472585	0.162579149	0.674903772	0.662510602
0.866731819	0.865706869	0.077183562	0.159819847	0.161101922	0.623081642
0.240572446	0.826070578	0.248629253	0.585248215	0.118783597	0.61231674
0.872324312	0.874347671	0.055313123	0.164534024	0.168310789	0.654976654
0.881027262	0.014151519	0.014045607	0.175462955	0.696758384	0.697624952
0.067658132	0.067637523	0.067820842	0.636610986	0.636511746	0.636908581
0.877342296	0.439460472	0.444044467	0.170554382	0.609237841	0.579025392
0.05491602	0.05117065	0.057626983	0.653780766	0.654328836	0.654061796
0.409940238	0.876889254	0.480491513	0.517539221	0.170598461	0.559283447
0.869045523	0.080578718	0.078548595	0.162546419	0.675148065	0.662552215
0.486480474	0.401981702	0.877417432	0.607583903	0.564673357	0.170431228
0.054735106	0.051236199	0.057656279	0.653809836	0.654268877	0.654022016
0.865994284	0.087638466	0.867002336	0.161656448	0.619742235	0.15946654
0.462864923	0.877652616	0.448520753	0.531479364	0.170766417	0.560243521
0.100200727	0.841804392	0.11403765	0.60074894	0.1351127	0.625876027
0.846317313	0.846051227	0.845530417	0.256717538	0.256938109	0.256739298
0.475236651	0.414270629	0.87732926	0.607813004	0.568278923	0.170565224
0.87648559	0.883060336	0.027328316	0.170513136	0.174802695	0.6952042
0.866744049	0.087872158	0.867813648	0.162043609	0.619387122	0.159607578
0.076929902	0.867729338	0.865790108	0.623231991	0.15994809	0.161812408
0.099727146	0.0818817	0.868999037	0.668322568	0.656542136	0.162785878
0.415536589	0.877610428	0.462100863	0.589665417	0.170572627	0.626249014
0.877339359	0.451215645	0.431905536	0.170565154	0.610102594	0.576606298
0.146968915	0.128677807	0.826164143	0.603444707	0.575287725	0.11940342
0.028140954	0.02825833	0.881919311	0.694769785	0.695354156	0.175228703
0.076015446	0.870839871	0.874612026	0.650379859	0.164125712	0.168933302
0.863412533	0.855487671	0.116736159	0.155192525	0.15511312	0.590333359
0.07164066	0.85515844	0.079626735	0.627658597	0.14878664	0.647757616
0.062483664	0.062467294	0.062348644	0.638286513	0.638714605	0.638403938
0.868990943	0.098986057	0.081983916	0.162828244	0.666501941	0.654099134
0.845817197	0.147378237	0.86025164	0.150548165	0.562786716	0.15285731
0.0281237	0.881186178	0.028533526	0.695635465	0.175346732	0.695396162
0.824718006	0.246938799	0.248589397	0.118807601	0.60511756	0.578787252
0.865067893	0.856965289	0.116676724	0.155762709	0.155770346	0.590299828
0.103150597	0.09918428	0.841442832	0.627603993	0.602590997	0.135015126
0.877760527	0.480988867	0.410292514	0.170763012	0.559452597	0.517362268
0.077995275	0.869167529	0.085248947	0.661280775	0.16248479	0.673549207
0.040851593	0.874155623	0.88197445	0.692976432	0.170271941	0.174986937
0.104032542	0.866211039	0.867117212	0.615497876	0.158825899	0.162828458
0.059461602	0.042947913	0.076651274	0.674863651	0.675025852	0.676470082
0.864739952	0.864661237	0.863111637	0.219124745	0.219055162	0.219070566
0.099639242	0.08206581	0.868831765	0.666577344	0.655242394	0.162726071
0.875229239	0.883071781	0.027327461	0.170398586	0.175081366	0.695195577
0.872514877	0.875089957	0.055275456	0.164942697	0.169024785	0.654922736
0.027355362	0.076153912	0.076233951	0.679130882	0.680190779	0.679571668
0.083527909	0.0836631	0.083875099	0.632101405	0.632123033	0.632466611
0.210268795	0.825146247	0.208572947	0.581609646	0.11895092	0.609990031
0.866266601	0.09546767	0.867297882	0.162468921	0.61735316	0.159131051
0.062474003	0.062487729	0.062413273	0.63854199	0.638736462	0.63847193
0.877225061	0.436628233	0.444685161	0.17053755	0.591568045	0.561944173
0.48466526	0.392816978	0.877229595	0.625544916	0.58233495	0.170845771
0.083391033	0.10222903	0.841702108	0.631328592	0.606058082	0.134673104
0.048191236	0.871592606	0.873792462	0.658604322	0.164899575	0.168196958
0.103530359	0.841732828	0.125032556	0.597881769	0.135285448	0.623287535
0.076058891	0.87130338	0.8747538	0.650431822	0.164583618	0.168704455
0.126119883	0.825093316	0.144118601	0.575105579	0.118804279	0.603775951
0.868957444	0.07783393	0.081952792	0.16248833	0.678517031	0.665632399
0.100171894	0.082365192	0.868887993	0.667830209	0.655929812	0.162763205
0.877391659	0.451408904	0.432086072	0.170545637	0.609126131	0.575854135
0.414129785	0.877349588	0.474802574	0.569190141	0.170491584	0.608787361
0.486534066	0.401888806	0.877416903	0.607585372	0.564673255	0.170431839
0.877506939	0.462046303	0.415488164	0.170552789	0.626223154	0.58960965
0.067706451	0.067649103	0.06793082	0.63647005	0.636440297	0.636832211
0.826187582	0.195206387	0.190376648	0.118940111	0.607921113	0.57786572
0.882620518	0.05426922	0.875812785	0.174630163	0.690426076	0.170448476
0.081721915	0.866710669	0.865250949	0.6212113	0.159638414	0.16148671
0.055330978	0.87171671	0.874397019	0.654666421	0.164402341	0.168665421
0.469975	0.415597848	0.877377326	0.575352497	0.536108271	0.170541466
0.856823946	0.123048661	0.863654666	0.156789017	0.588479089	0.155864104
0.877532381	0.462065619	0.415493991	0.170546777	0.626192442	0.589814875
0.054235794	0.881497708	0.054617201	0.691073724	0.175497045	0.690185786
0.092763771	0.099698014	0.841478385	0.629535169	0.60430477	0.134917717
0.077225064	0.867794862	0.865118985	0.62325385	0.1599899	0.16140361
0.48076393	0.405750334	0.877400229	0.57518806	0.532662299	0.17056398
0.04721316	0.871920662	0.87519315	0.657083681	0.165124967	0.168625761
0.081654309	0.866830145	0.865730039	0.621590905	0.159261009	0.161621024
0.014280045	0.014027912	0.881488109	0.697056041	0.697196937	0.175559018
0.083345025	0.083798359	0.083854325	0.632254504	0.632213979	0.632434754
0.871594222	0.875373079	0.047261793	0.165261978	0.169229865	0.656989495
0.099935294	0.081177255	0.868791335	0.665663825	0.655635291	0.16277502
0.866670787	0.866547597	0.103978229	0.15949312	0.162852981	0.615417989
0.880852404	0.027640593	0.027602809	0.174923836	0.694889306	0.695138379
0.883512007	0.054275515	0.876251011	0.175919648	0.690576007	0.170846955
0.877156178	0.485312123	0.501360425	0.170278735	0.559520516	0.531246818
0.458976958	0.425541408	0.87714324	0.575728117	0.539697919	0.170534669
0.846592417	0.847060921	0.846887608	0.257216876	0.257212058	0.25758248
0.130512704	0.862960745	0.857190981	0.586548659	0.154923875	0.157088262
0.824975471	0.242200783	0.247516316	0.118679241	0.606000492	0.581114888
0.45070062	0.427277212	0.877992309	0.626376267	0.593209431	0.17072291
0.435825424	0.877214299	0.448041119	0.542703055	0.170568254	0.575666387
0.469790794	0.411566356	0.877256352	0.590687458	0.551524978	0.17079692
0.134368197	0.125825808	0.826010914	0.606069211	0.577201698	0.118167293
0.884804657	0.013707591	0.877088989	0.176033075	0.697382662	0.171053728
0.470043994	0.419403574	0.876928093	0.5596284	0.521073479	0.170564361
0.877936819	0.462264438	0.415699181	0.170674363	0.626210856	0.589684365
0.080430889	0.868924361	0.08190414	0.662692059	0.162506252	0.675851951
0.07412273	0.855593551	0.09116364	0.625928333	0.149303087	0.645675957
0.028261875	0.027796195	0.881870351	0.694692093	0.695357719	0.175074595
0.485842705	0.403032268	0.877444924	0.608351912	0.565309701	0.170506055
0.415485901	0.877506857	0.462048239	0.589753281	0.170570308	0.6261378
0.867081101	0.864608582	0.077192473	0.159701084	0.161175632	0.623085774
0.088002156	0.866361655	0.865623329	0.619319755	0.159345228	0.161896504
0.054548674	0.054253957	0.881673473	0.689671939	0.690670496	0.175479144
0.480750316	0.410156478	0.87736241	0.559211323	0.517563589	0.17057945
0.883099107	0.040854505	0.876015497	0.17532367	0.692969958	0.17062138
0.072042463	0.070011433	0.074331034	0.649584584	0.649784112	0.649898351
0.469961606	0.415602965	0.877371215	0.575349171	0.536109429	0.170538396
0.882066241	0.054603121	0.05412682	0.175638784	0.690281139	0.690348899
0.861318924	0.845019387	0.137069959	0.15456843	0.149461751	0.566244444
0.079145382	0.855744143	0.102994544	0.623721454	0.149803425	0.643380115
0.013869108	0.013834938	0.881160428	0.696943398	0.697035259	0.175248082
0.867663784	0.86608614	0.081594169	0.159874558	0.161727931	0.621388275
0.855724554	0.066034271	0.07876206	0.149177404	0.652530417	0.632041734
0.040754182	0.881466782	0.041052316	0.692689742	0.17519748	0.692454399
0.874056834	0.872727204	0.872982822	0.188814648	0.188854634	0.18848094
0.87729568	0.43705452	0.446310775	0.170589825	0.575734507	0.546082118
0.027247281	0.075193966	0.075631345	0.679147855	0.680112543	0.67903713
0.870623148	0.874015233	0.075989131	0.164646414	0.168671025	0.650546064
0.855035943	0.116697965	0.864999286	0.156063914	0.590270607	0.156422809
0.027330838	0.875948705	0.8844065	0.695323716	0.170334958	0.175294759
0.420202507	0.878429917	0.470730208	0.520945935	0.17098162	0.559738042
0.864035472	0.862733585	0.863539296	0.219416598	0.218480845	0.219235053
0.11145455	0.863782157	0.854380657	0.592138502	0.155949743	0.155107916
0.246070018	0.825412474	0.239289422	0.58226505	0.118429014	0.612676329
0.876589469	0.882468701	0.013705824	0.170670101	0.174943607	0.697264662
0.103692432	0.841789888	0.125199122	0.598130089	0.135197121	0.623241958
0.125249	0.103152892	0.841564008	0.62366925	0.598500554	0.135338796
0.014301605	0.881525387	0.014658586	0.69705656	0.17507294	0.697655641
0.481062651	0.401743399	0.878135959	0.59020102	0.548330321	0.170603155
0.092611007	0.099628032	0.841575929	0.629583477	0.604329895	0.134852456
0.877375547	0.448089784	0.435863596	0.170573016	0.5757541	0.542808003
0.31938565	0.825763897	0.308809423	0.582803877	0.118737916	0.61207792
0.027492577	0.077543037	0.077347486	0.678730668	0.679517439	0.679558929
0.841483258	0.113756153	0.100280513	0.135073105	0.625707224	0.600555559
0.404108024	0.877483239	0.473486542	0.586075277	0.170655799	0.625844582
0.253974071	0.253248077	0.825867493	0.617291112	0.58689622	0.118700408
0.865139287	0.077062196	0.867677175	0.161143166	0.623367615	0.159914302
0.12753227	0.125319692	0.098739316	0.612035649	0.610578146	0.615103274
0.076116279	0.869304516	0.084148398	0.66130381	0.162501001	0.673534475
0.841728641	0.083392551	0.102240898	0.134783917	0.631241245	0.606040045
0.054276309	0.881755813	0.054588069	0.690517941	0.175263065	0.690364254
0.068759986	0.079480803	0.855090902	0.651928849	0.632302045	0.14882132
0.111443951	0.864332896	0.855672551	0.591920018	0.155680943	0.155172785
0.393191964	0.877996455	0.485056862	0.582595144	0.170794469	0.625475719
0.106478158	0.082830219	0.855069482	0.64342329	0.623429811	0.149027423
0.877953125	0.448970883	0.439900165	0.170743524	0.559913785	0.527519198
0.08367452	0.869160636	0.079975194	0.664670579	0.162690595	0.677575435
0.877535104	0.437051971	0.444550878	0.170508923	0.59099751	0.561510914
0.448323151	0.877369766	0.444978295	0.578713225	0.170589591	0.608865083
0.866957662	0.087858384	0.867160547	0.161824796	0.619447218	0.159544
0.099811637	0.84163604	0.092719774	0.604321796	0.134880861	0.629422868
0.419876381	0.877637094	0.470269743	0.521007895	0.170745786	0.559664953
0.104074081	0.865981043	0.866678065	0.615080187	0.158412337	0.162856261
0.166011104	0.090347977	0.161875757	0.619592644	0.616087372	0.620650931
0.872309859	0.873906331	0.046459686	0.164980658	0.168041431	0.658949801
0.448777043	0.43960245	0.87747594	0.559720666	0.527805392	0.1705482
5.49679E-06	0.877061765	0.88461164	0.699489721	0.17086924	0.17648017
0.484764922	0.392923933	0.877436242	0.625454547	0.582330289	0.170524483
0.083386993	0.102237219	0.84172955	0.63096532	0.605774694	0.134756824
0.877527194	0.448220283	0.435913331	0.170639738	0.575714649	0.542795922
0.473802909	0.404414183	0.878106183	0.625788808	0.586200382	0.170705262
0.846913603	0.846667233	0.84681016	0.256935634	0.256635204	0.256760963
0.873603139	0.050383563	0.872308905	0.167837461	0.658647946	0.165144482
0.013709853	0.876613007	0.882903762	0.697542194	0.170438748	0.175233563
0.14756475	0.131032817	0.825697563	0.603874606	0.57425126	0.119320832
0.863668095	0.856529897	0.116638671	0.155715647	0.155940855	0.590284338
0.074174545	0.855667086	0.091192132	0.625885557	0.149290653	0.645648818
0.464750458	0.425346005	0.877273008	0.609753305	0.572848398	0.17054618
0.071198961	0.854608724	0.068807055	0.629431934	0.148807535	0.649809825
0.872890637	0.875316652	0.047193535	0.165776935	0.168865627	0.656904267
0.877386633	0.480739952	0.401414958	0.170241182	0.590185471	0.548030671
0.427046711	0.877528864	0.45046732	0.592929097	0.170679387	0.626451665
0.054649398	0.054230858	0.882033224	0.69011132	0.689980598	0.175493884
0.87373352	0.047114761	0.87249449	0.168243141	0.656978995	0.165018445
0.855852841	0.079840224	0.071547032	0.149313076	0.647868199	0.627808433
0.841725063	0.08340258	0.10224273	0.134780387	0.631134974	0.606006678
0.87405422	0.055327723	0.871688648	0.167841607	0.654782918	0.164359214
0.876680338	0.047088245	0.873625174	0.168547898	0.656957533	0.165724408
0.047144004	0.871148524	0.875837058	0.656784856	0.164126211	0.168441612
0.014338778	0.881177866	0.014457972	0.697222819	0.175167964	0.696894213
0.078288594	0.86941412	0.080798417	0.662943835	0.162476288	0.674805365
0.444230438	0.449649636	0.877245749	0.608875976	0.578519534	0.170539578
0.854066034	0.108081046	0.864817044	0.154638946	0.593777466	0.156861777
0.062472935	0.062490375	0.062351773	0.638348833	0.638716492	0.638427474
0.506175588	0.533184206	0.877743391	0.557935091	0.529236663	0.170362154
0.090134244	0.303153322	0.259984491	0.622588712	0.626083395	0.621047979
0.275060542	0.279924272	0.825703847	0.613634299	0.585684287	0.11855943
0.102272101	0.84174751	0.083400706	0.605951763	0.134698044	0.631467204
0.87735131	0.473376209	0.410040858	0.170617331	0.608746269	0.569075305
0.322563384	0.347509314	0.824860884	0.61396891	0.586654063	0.118619799
0.077218754	0.867665407	0.865668649	0.623167368	0.160002517	0.161898218
0.865883566	0.855809091	0.107771806	0.157083912	0.155253842	0.593682979
0.877416053	0.459059878	0.425616426	0.170595239	0.575668757	0.539613972
0.87278854	0.874101915	0.047191375	0.165712936	0.168826051	0.656949783
0.027449499	0.028334342	0.028137844	0.694907211	0.694870931	0.695054396
0.846981753	0.846745843	0.846906411	0.257049616	0.256711634	0.257106924
0.080325868	0.211294107	0.216368811	0.620083448	0.619744131	0.621582366
0.406104646	0.877538684	0.480499417	0.533009858	0.170609549	0.575388433
0.099776393	0.841658822	0.09289838	0.604345728	0.134875339	0.629589884
0.425509301	0.877309538	0.459122881	0.539690795	0.170580854	0.575697408
0.874821261	0.882820455	0.054277611	0.170586379	0.174948457	0.690551796
0.07219505	0.06574565	0.086052154	0.670131226	0.670056725	0.670501873
0.470005988	0.411678996	0.877600624	0.590666269	0.551499893	0.170790914
0.067703568	0.067622646	0.067866773	0.636699424	0.636512831	0.636900308
0.877593354	0.470330776	0.419778683	0.170760052	0.55967797	0.520995112
0.427052672	0.877542438	0.45047481	0.592893975	0.170638799	0.626525686
0.437772422	0.445767057	0.877751296	0.593068036	0.563455155	0.17067516
0.123178678	0.863344307	0.85566785	0.588402681	0.155251447	0.156524427
0.529084157	0.514665488	0.877368837	0.561439036	0.532406648	0.170428828
0.475262723	0.414086475	0.877569037	0.608035308	0.568505753	0.170589654
0.333333058	0.825655512	0.326197586	0.58631423	0.118509221	0.615062267
0.127165058	0.82677187	0.144529782	0.574661652	0.119375607	0.603624523
0.877409696	0.484173365	0.399637467	0.17062341	0.607591235	0.564924463
0.054607584	0.054251364	0.881993498	0.690039405	0.690639935	0.175481572
0.866361152	0.087811724	0.866867259	0.16163208	0.619717586	0.159449258
0.306387304	0.82600383	0.30449345	0.584148697	0.118695407	0.612103496
0.403998962	0.877280138	0.473392172	0.586180649	0.170447218	0.625910006
0.464375637	0.42534571	0.877428203	0.607654921	0.570976076	0.17051764
0.843861807	0.133706559	0.862349483	0.148229573	0.567858869	0.155380672
0.876861084	0.8833975	0.040845964	0.170988916	0.17577601	0.692814054
0.841620223	0.083356891	0.102257603	0.134731018	0.631233363	0.605777175
0.415654529	0.877847304	0.462219814	0.589607715	0.170562149	0.626280387
0.446310937	0.87728443	0.437041334	0.546081722	0.170574878	0.575736644
0.861901915	0.864710371	0.863622673	0.219108931	0.219821557	0.219369659
0.06768779	0.067623258	0.067857703	0.63671042	0.636517008	0.636894215
0.133593566	0.124355261	0.826144061	0.606244791	0.576968975	0.118547217
0.877132545	0.458822297	0.421944412	0.170690576	0.590499652	0.555003626
0.877031761	0.438504977	0.438500264	0.170256225	0.626456247	0.59646402
0.415333295	0.87720138	0.461895357	0.589724842	0.170507782	0.626155616
0.047526938	0.046858213	0.053742209	0.657877943	0.658303991	0.657389965
0.84160117	0.092725105	0.09987363	0.134904547	0.629339478	0.604111165
0.074929644	0.077627159	0.856502745	0.649842391	0.629724317	0.149248126
0.145863423	0.129119389	0.826374835	0.603356832	0.574538867	0.119149722
0.075382984	0.07707149	0.854644453	0.649756759	0.629737251	0.148560745
0.082696991	0.869198265	0.098965974	0.654639382	0.162544761	0.667786671
0.877348622	0.458990897	0.425621432	0.170566763	0.575596897	0.539533477
0.867287688	0.865064717	0.077179248	0.159589726	0.161287371	0.623004506
0.095438637	0.332985936	0.280875681	0.622581238	0.62554836	0.621707919
0.027326419	0.875452398	0.883508456	0.695261758	0.169991671	0.175438591
0.014310236	0.01434553	0.881022161	0.696801674	0.69720783	0.175163939
0.877321078	0.439740259	0.443628546	0.170561457	0.609024592	0.578786083
0.325928966	0.825487845	0.311290125	0.585461304	0.118534386	0.615706003
0.450282087	0.426860185	0.877156731	0.626471111	0.593073233	0.170633398
0.077389807	0.868005111	0.865761118	0.623230012	0.160135324	0.16151584
0.866601751	0.104311474	0.866842793	0.162466062	0.615146332	0.159102003
0.480515844	0.401208362	0.877052026	0.589982063	0.548226526	0.170052336
0.841707008	0.113856841	0.100268537	0.135087364	0.625684773	0.600563757
0.872135927	0.875032618	0.046500632	0.165132155	0.168908404	0.659045153
0.081761098	0.868967738	0.09187408	0.656396247	0.162644481	0.669068217
0.046670215	0.047881675	0.051917559	0.656852537	0.658429653	0.658348932
0.861858572	0.845894971	0.141702322	0.153931122	0.149902376	0.564600323
0.425557588	0.877411747	0.464216381	0.573551803	0.170587251	0.609894234
0.846603036	0.847022751	0.846798088	0.256910345	0.256985574	0.257030693
0.074243172	0.85565636	0.091187042	0.625910966	0.149252467	0.645637738
0.05403821	0.051544205	0.057660957	0.654229314	0.65401968	0.65405646
0.425576165	0.877335169	0.464201447	0.572188721	0.170575981	0.608724106
0.062460451	0.062521743	0.062407495	0.638138633	0.638406497	0.63850316
0.862201159	0.843688057	0.137121817	0.154881376	0.149272398	0.566194221
0.048169523	0.871863797	0.874185337	0.658800905	0.164940986	0.168181792
0.481067977	0.401686832	0.878085004	0.590315138	0.548164808	0.170470529
0.435718185	0.877345514	0.454135687	0.576790568	0.170515469	0.610266889
0.040999521	0.041458074	0.041360887	0.692544591	0.692501344	0.692448266
0.877344874	0.480699253	0.401403496	0.170141894	0.590175282	0.548030818
0.403849277	0.876946303	0.47320941	0.585982834	0.17047631	0.62572194
0.847385322	0.153965047	0.860605471	0.151355224	0.560921886	0.15230312
0.873945584	0.047144884	0.872360136	0.167879893	0.656881133	0.164959441
0.048729142	0.045124942	0.052718589	0.655562637	0.65637756	0.655966883
0.434689226	0.877355497	0.455339621	0.576284913	0.170635431	0.610008497
0.419773324	0.877677691	0.470398541	0.521070969	0.170744716	0.559619399
0.071781519	0.85560944	0.079711267	0.627589717	0.149374138	0.64780161
0.855742805	0.069075659	0.071337024	0.149131287	0.649718636	0.629520992
0.164749535	0.091204713	0.169349726	0.618163305	0.616360882	0.621928788
0.822996951	0.823238002	0.825199851	0.298885347	0.298731271	0.298723421
0.882966216	0.02732861	0.874820659	0.174974114	0.695305313	0.170280343
0.855468589	0.103054926	0.078870729	0.149577933	0.643511547	0.623638397
0.865417232	0.855378903	0.107829343	0.156755021	0.154696279	0.593851321
0.13376328	0.862023467	0.842877611	0.567691767	0.154488591	0.147283409
0.87801094	0.459814047	0.429836252	0.170846832	0.559879696	0.524393065
0.059992804	0.060020467	0.059998745	0.640133488	0.640180637	0.639992335
0.872553863	0.874677413	0.055283114	0.165061362	0.168826197	0.654913908
0.4591505	0.425685812	0.877463689	0.575409295	0.539322092	0.170600497
0.465625697	0.877513442	0.449453586	0.531341155	0.170672913	0.560295868
0.054098911	0.050998266	0.056591147	0.654318931	0.653902075	0.654348891
0.134591996	0.124455422	0.825345721	0.605793647	0.57725049	0.118284396
0.027489245	0.028250318	0.027963115	0.695268077	0.694939269	0.695219611
0.868822189	0.078059733	0.080646777	0.162478991	0.677441554	0.665655765
0.072010189	0.065986047	0.086163648	0.670329431	0.670019557	0.671075368
0.065237107	0.871154408	0.874714571	0.652881721	0.164448453	0.168755184
0.462200506	0.415638187	0.877811594	0.626273029	0.589675833	0.170688182
0.079083665	0.856023549	0.102955858	0.623589176	0.149747078	0.643463368
0.855399939	0.107869903	0.865053357	0.154922902	0.593957018	0.15655879
0.846323626	0.846225185	0.845892175	0.256748078	0.257069235	0.256724052
0.410073359	0.877224683	0.48069431	0.517518347	0.170546697	0.559180107
0.080603189	0.207463295	0.204736996	0.620398991	0.622803166	0.626713163
0.484899171	0.393027009	0.877676182	0.625472823	0.582384693	0.170617685
0.85509971	0.066118658	0.078880854	0.148892241	0.652279838	0.63238022
0.475860128	0.413767789	0.877321393	0.608886817	0.569326223	0.170595052
0.393182832	0.877964174	0.48503441	0.582565264	0.170880555	0.625435959
0.083464173	0.083644051	0.083913113	0.632363123	0.632124618	0.632381749
0.074229786	0.856048321	0.091214417	0.625637248	0.149438169	0.645866298
0.47002363	0.411694367	0.877629671	0.590707133	0.551524431	0.170782481
0.028628325	0.881091467	0.028657153	0.695459749	0.175427487	0.69535713
0.090994924	0.078027921	0.869156137	0.672236755	0.657840313	0.162574415
0.041220053	0.040874292	0.881497411	0.692311901	0.692737328	0.17539413
0.410094267	0.877444149	0.480872198	0.517598846	0.170512799	0.559327894
0.866687641	0.095541725	0.866986251	0.162545333	0.617314591	0.159337512
0.10392694	0.866495866	0.866977069	0.615008575	0.159159717	0.162939862
0.062550923	0.0624064	0.062435728	0.638524408	0.638322513	0.638521626
0.824970061	0.241212654	0.247059698	0.118676364	0.605967861	0.580410462
0.245415894	0.825520782	0.24390413	0.584991776	0.118645595	0.613562744
0.087966434	0.867515792	0.865786855	0.619226758	0.159631025	0.162334847
0.083693633	0.869198979	0.099231123	0.654593311	0.162554536	0.667832363
0.868975843	0.099180404	0.082344164	0.162832849	0.666713764	0.654305522
0.878079021	0.470552122	0.420038251	0.170905367	0.559702581	0.521009166
0.860884712	0.843892776	0.141715713	0.153794907	0.149824582	0.564691738
0.874308713	0.076031877	0.87194037	0.168960186	0.650584855	0.165078928
0.873909789	0.047085674	0.870888841	0.168006525	0.657009493	0.164917673
0.863620251	0.855403073	0.116731245	0.155230432	0.155189864	0.590297657
0.099788636	0.841633467	0.092866135	0.604144747	0.134882487	0.629616761
0.476723886	0.413015679	0.877330152	0.608939141	0.569384457	0.170588887
0.865275235	0.855005574	0.107805238	0.156748738	0.154695911	0.593904027
0.877659906	0.436792049	0.444966699	0.170513281	0.591405476	0.561813158
0.877368406	0.473181558	0.41027627	0.170620863	0.608896596	0.569348315
0.873990217	0.874446334	0.87409864	0.188812928	0.189334355	0.188770305
0.422255292	0.877455634	0.459080546	0.554565663	0.170558605	0.590376943
0.872995956	0.875876076	0.075924166	0.165216501	0.16862858	0.650531514
0.326350202	0.825656796	0.303376604	0.584340337	0.11857258	0.614904035
0.882796472	0.041220562	0.040807456	0.175582176	0.69255708	0.692468308
0.484710765	0.392857237	0.87731667	0.625281979	0.582507757	0.170421596
0.855866075	0.111525975	0.865304861	0.155567384	0.592227675	0.156694941
0.866798862	0.104309222	0.866833139	0.16257687	0.615175051	0.159160019
0.854960424	0.107808204	0.864481852	0.15437264	0.5939263	0.156531594
0.047198175	0.872327876	0.874238163	0.657137818	0.164840353	0.168343004
0.154041157	0.858589391	0.847213569	0.56097518	0.152263493	0.151608888
0.113960972	0.099981255	0.841618144	0.626110803	0.600967765	0.135068735
0.434742609	0.877350911	0.455364196	0.576271683	0.170634995	0.609940786
0.877413865	0.473133974	0.41018567	0.170633035	0.608992618	0.569399871
0.027500222	0.028624634	0.028019923	0.694967354	0.694976962	0.695305586
0.856660636	0.123082226	0.863876631	0.156520864	0.588394246	0.15564721
0.438507748	0.445194825	0.877787523	0.591335282	0.561248952	0.170719011
0.866985173	0.86513035	0.081535107	0.159750229	0.161712906	0.621284367
0.146052655	0.128805724	0.826305304	0.603227577	0.574567133	0.119179688
0.4617291	0.415161568	0.876863516	0.626340184	0.589557956	0.170709528
0.881674027	0.014226185	0.014149348	0.175485875	0.697473669	0.697743553
0.863889971	0.864883327	0.863295539	0.219077622	0.219162768	0.219255192
0.862622082	0.84295837	0.133806254	0.155593768	0.148432495	0.567722774
0.168572239	0.091369775	0.17965564	0.613678646	0.6165975	0.616862908
0.877810412	0.484974957	0.393085068	0.170570978	0.62530084	0.58266514
0.096788218	0.321501396	0.267013324	0.621882533	0.625700732	0.623317777
0.133782756	0.861904555	0.843842718	0.567782956	0.154626592	0.147633821
0.133384784	0.12576827	0.826801107	0.604280151	0.576795736	0.1188964
0.079132251	0.855971478	0.102955441	0.623582866	0.149751943	0.643459969
0.061198919	0.042117369	0.077206033	0.675601098	0.675153517	0.677443222
0.875251169	0.07604206	0.871190478	0.16899965	0.65052834	0.164205823
0.877557223	0.480588424	0.405820488	0.170571626	0.575387405	0.532972651
0.854559744	0.107986078	0.864922278	0.154782164	0.593798914	0.157128811
0.877062326	0.469766629	0.41139584	0.170065521	0.590409491	0.551618293
0.054281932	0.876226619	0.883253039	0.69066732	0.170964436	0.175369257
0.884276858	0.013705244	0.875412449	0.175580119	0.697264498	0.1705395
0.865269446	0.077088189	0.867849157	0.161166736	0.623321729	0.160011934
0.877366525	0.87727529	0.877560708	0.170419231	0.170469608	0.170686215
0.40584466	0.877380307	0.48056259	0.532704419	0.170575076	0.575159979
0.877405266	0.437093891	0.446376866	0.170597336	0.575733277	0.546087769
0.877265974	0.447857779	0.432637719	0.170413669	0.590883851	0.558315432
5.49629E-06	0.875539421	0.882438657	0.69927167	0.171009923	0.175324956
0.086426622	0.86834519	0.083354737	0.663810972	0.162506001	0.675242464
0.095454926	0.866723925	0.866976861	0.617371888	0.158941123	0.162532794
0.882054402	0.04116186	0.04084797	0.175232958	0.692536665	0.692608955
0.875261535	0.882853544	0.054277741	0.170559775	0.174803756	0.690542041
0.438582449	0.438577743	0.877186048	0.626505156	0.596352972	0.170230377
0.877413202	0.473136117	0.410173387	0.170633623	0.608993147	0.569399781
0.821859471	0.823280028	0.822343463	0.298429397	0.298689332	0.298878604
0.871862068	0.8746295	0.047130211	0.164991137	0.168149279	0.657041877
0.825757266	0.136752331	0.126331601	0.119043031	0.605954924	0.577180628
0.147437657	0.860503572	0.84591387	0.562778851	0.152766577	0.150380416
0.074933703	0.074953665	0.075171238	0.634172593	0.634314935	0.634791534
0.862718433	0.843285502	0.133781858	0.155494695	0.148358487	0.567724924
0.877394742	0.48059022	0.405685995	0.170587207	0.575063965	0.532684912
0.048453603	0.041318819	0.073399271	0.677417424	0.677712502	0.67964126
0.401945937	0.877353429	0.487079515	0.564029319	0.170553165	0.606913213
0.41423984	0.877315653	0.47468852	0.569036385	0.170520414	0.608763745
0.480802002	0.40566463	0.877401898	0.574996971	0.532581898	0.170532403
0.855189417	0.09138695	0.074212479	0.149007571	0.645640969	0.625643019
0.131325029	0.82765639	0.141309311	0.57740268	0.11979254	0.605939493
4.91004E-06	0.880963975	4.83858E-06	0.699321904	0.175052196	0.699105409
0.863486667	0.856651201	0.123106471	0.155272444	0.156498577	0.588651566
0.877372661	0.458992539	0.425652937	0.170563219	0.575600577	0.539551593
0.081672891	0.867424398	0.865379387	0.621306245	0.159685096	0.161601828
0.876356615	0.047096334	0.872955723	0.169414689	0.656867661	0.165373919
0.877713576	0.48491159	0.393053973	0.170731475	0.625234538	0.58262199
0.847125402	0.147389541	0.862090935	0.150996762	0.562779124	0.153448251
0.470351608	0.419813901	0.877650616	0.559584502	0.520987585	0.170645676
0.872790405	0.874436531	0.047229234	0.165134704	0.168304401	0.657029731
0.47348521	0.404089084	0.877463929	0.625713957	0.586203336	0.170513857
0.067202494	0.052167773	0.080789576	0.672952534	0.672905404	0.674415847
0.083164085	0.869095044	0.098537248	0.654659051	0.162595648	0.667582703
0.059456899	0.042770169	0.076337361	0.675099873	0.674948704	0.67648201
0.040865187	0.875590356	0.882610202	0.693232157	0.170510931	0.174651799
0.842857299	0.133741632	0.860298219	0.147887751	0.567801439	0.154942086
0.863108757	0.863619264	0.863832624	0.219101109	0.21873394	0.219184251
0.876749409	0.876936304	0.877385946	0.170789823	0.170489518	0.170586098
0.166195872	0.091577873	0.170548377	0.614362824	0.61573218	0.620747064
0.866697105	0.865065852	0.077279756	0.159690033	0.16078614	0.623136801
0.857394582	0.116627818	0.866221734	0.156012586	0.590361929	0.156059706
0.411872506	0.877259846	0.470039531	0.551518094	0.170162511	0.590092799
0.322954419	0.333422157	0.825216658	0.611853606	0.585015638	0.118733716
0.868996215	0.07743179	0.080860967	0.16257592	0.677327593	0.665258344
0.419788981	0.877479081	0.470194179	0.521021987	0.170568788	0.559693014
0.459096913	0.422086027	0.87762297	0.590722942	0.555072983	0.170541699
0.470461017	0.419966086	0.877916225	0.55963341	0.521032097	0.170522796
0.867493709	0.86554361	0.08154152	0.159802662	0.161750678	0.621489044
0.082826513	0.868817743	0.093393155	0.655182094	0.162765452	0.668634212
0.880725054	0.0142312	0.014041735	0.175276216	0.696437262	0.697160059
0.866214171	0.081518451	0.866738745	0.161780351	0.621570782	0.159515957
0.867100731	0.866902009	0.087819393	0.159429755	0.162165273	0.61937791
0.100163699	0.842037791	0.114112883	0.600512929	0.135045776	0.62577263
0.866291069	0.095583587	0.866202421	0.162137434	0.617488128	0.159025427
0.866620249	0.866441386	0.095447619	0.15925691	0.162221347	0.617616324
0.084685734	0.07663741	0.854307445	0.646535686	0.627189863	0.148723046
0.866599159	0.087874116	0.867091021	0.162256512	0.619519222	0.159611962
0.825592261	0.145941584	0.129419679	0.119232253	0.603106148	0.574221536
0.884617312	0.040854979	0.875297278	0.17548462	0.692987261	0.170483215
0.123190692	0.863573738	0.856445864	0.5884989	0.155562447	0.15665216
0.857211129	0.130458841	0.862659587	0.156586786	0.586493281	0.154363673
0.332471419	0.825683372	0.325347126	0.587137806	0.11850956	0.614900809
0.877312868	0.448052267	0.435881117	0.170586839	0.575688953	0.542834848
0.147418254	0.860296255	0.845478631	0.562749549	0.152749862	0.15030667
0.869116151	0.078688313	0.081926502	0.162601343	0.677330768	0.664985316
0.43708344	0.446348478	0.877364031	0.575757296	0.546083722	0.170602925
0.845368219	0.133736425	0.862048947	0.149107376	0.567675067	0.156000874
0.104013937	0.866422801	0.866897968	0.615364973	0.158845914	0.162876084
0.425475596	0.877308534	0.459195816	0.539521133	0.170627516	0.575633016
0.877556453	0.450483652	0.427058105	0.170556047	0.626410753	0.593218809
0.060014228	0.060022545	0.060038589	0.640112458	0.640189297	0.640015806
0.855569925	0.068976826	0.071356897	0.149024696	0.649769241	0.629440275
0.054626189	0.054239449	0.881950092	0.690085644	0.69013219	0.175439481
0.422101772	0.877370244	0.45915364	0.555186148	0.170442768	0.590948814
0.821980151	0.823614855	0.823305862	0.298264209	0.298847269	0.29900289
0.082591421	0.868784328	0.093783272	0.655164972	0.162766072	0.668628303
0.884165859	0.013705599	0.875407494	0.175431298	0.69727923	0.170397795
0.054626351	0.054239377	0.88195119	0.690091398	0.690121849	0.175439719
0.085048151	0.868721341	0.08063014	0.664732231	0.162554909	0.676023984
0.100386091	0.841682492	0.114002056	0.600230164	0.134941992	0.62564553
0.419715911	0.877391	0.470182594	0.521060459	0.17064524	0.559484357
0.865239966	0.077032187	0.867420717	0.161163679	0.623370849	0.159921419
