Va	Vb	Vc	Ia	Ib	Ic
0.028159728	0.027615434	0.881437395	0.694921789	0.694986667	0.174968808
0.470059654	0.411726055	0.87771306	0.590650026	0.551418138	0.170709994
0.15394914	0.860094661	0.846669867	0.560850308	0.152731428	0.151910954
0.083804961	0.868626651	0.08540212	0.661723196	0.162609512	0.676487705
0.881473508	4.94805E-06	4.79102E-06	0.175333541	0.699521462	0.699677488
0.099164868	0.842008642	0.103142465	0.602281839	0.134882546	0.627787257
0.051737258	0.0539444	0.058523616	0.653762705	0.654093163	0.653557381
0.446417887	0.877360854	0.444355815	0.576467633	0.170554766	0.606928047
0.877477933	0.470409897	0.411829331	0.170309388	0.5913569	0.552457545
0.826244308	0.201151132	0.208399845	0.1190047	0.608353507	0.577928389
0.087900999	0.868586615	0.084981106	0.664176782	0.162588457	0.677060903
0.422096886	0.877732936	0.459310784	0.554815649	0.170799544	0.591056029
0.869051334	0.097562607	0.080907077	0.162758813	0.666920209	0.653979752
0.465854059	0.424246369	0.877283395	0.608770365	0.572063485	0.170566602
0.028048007	0.027482639	0.02825489	0.694905484	0.695493732	0.695522609
0.066467574	0.078450603	0.856183096	0.653350355	0.633735506	0.14937998
0.100411537	0.842135452	0.113923017	0.600940541	0.135104182	0.625715727
0.859588688	0.84623097	0.154028271	0.152272891	0.151307096	0.560785059
0.08731453	0.077372622	0.868920508	0.672628372	0.661563342	0.162591553
0.130423455	0.863570527	0.857470757	0.586292105	0.155126422	0.157419242
0.864804284	0.077046929	0.867274738	0.161037069	0.622821114	0.159836062
0.847324394	0.15391235	0.860204895	0.151282575	0.560906997	0.152119286
0.111375225	0.864770276	0.855058264	0.592016827	0.156217339	0.155210114
0.102154772	0.841676384	0.083407694	0.606154055	0.134774193	0.631108023
0.872583944	0.875333872	0.075941973	0.165216611	0.168993445	0.650360319
0.877448634	0.480706368	0.401745075	0.170391432	0.590203542	0.548487764
0.014582288	0.014501008	0.882145806	0.696898694	0.697084606	0.175751082
0.867120566	0.095303498	0.866935779	0.162532167	0.617687094	0.159410827
0.855896847	0.116752449	0.863321948	0.155371226	0.590376731	0.155241285
0.107754463	0.865166798	0.855324989	0.593943002	0.157068472	0.154799055
0.133745704	0.86200193	0.844360034	0.567774355	0.154847279	0.147858
0.864066334	0.856482268	0.116632481	0.155679777	0.155680603	0.590344997
0.439890064	0.878057668	0.449075355	0.527549363	0.17085253	0.560024962
0.877376621	0.44809139	0.435858037	0.170624932	0.575749535	0.542887126
0.877773419	0.484933147	0.393092917	0.170739004	0.625195904	0.582602738
0.880801609	0.054544388	0.054172352	0.17493632	0.690144557	0.690427921
0.086832869	0.869345865	0.083208648	0.665446595	0.162470245	0.67755501
4.94103E-06	4.87316E-06	0.881401669	0.699400389	0.699145888	0.175036536
0.06620748	0.080180377	0.853976511	0.652659924	0.632998161	0.14875901
0.877781895	0.877385822	0.879091327	0.170681769	0.170390665	0.170801824
0.867389512	0.865742614	0.081843881	0.159859749	0.161518813	0.62093572
0.876862653	0.884231483	0.027329713	0.170686168	0.175799019	0.695354438
0.882425252	0.013703006	0.876157718	0.175555076	0.697167053	0.171119284
0.124539158	0.103188366	0.841600533	0.624004248	0.598286096	0.135138015
0.062471206	0.062476134	0.062429029	0.638268202	0.638466656	0.638508709
0.436021128	0.877442903	0.448134065	0.542690034	0.170601297	0.575493386
0.040844632	0.875992884	0.883069142	0.692855186	0.170577248	0.175500202
0.107709439	0.865417834	0.85503462	0.593939217	0.156879396	0.154460285
0.876361595	0.88416063	0.054275548	0.171179569	0.175663968	0.690540727
0.877793614	0.462191843	0.415629012	0.170726448	0.626283119	0.589661557
0.877342703	0.483805531	0.400081392	0.170505051	0.608208171	0.565450982
0.87669764	0.884029664	0.054286086	0.171334027	0.175761919	0.690671615
0.421882422	0.877131953	0.458882489	0.555126103	0.170106063	0.590768647
0.864109896	0.85608982	0.116633206	0.155647205	0.155650649	0.590347854
0.123090218	0.863198097	0.856892397	0.58838582	0.155689684	0.156896021
0.103497685	0.841321251	0.125303364	0.598448281	0.135245964	0.623414003
0.46205116	0.415485538	0.877509437	0.626199751	0.589698076	0.170602712
0.877428154	0.473462227	0.404076851	0.170624334	0.625922716	0.586025517
0.045707552	0.047763392	0.053590863	0.655706666	0.656268772	0.65657061
0.099237857	0.841896684	0.103063272	0.602345377	0.134894107	0.627684233
0.855295175	0.079633559	0.072041398	0.14882869	0.647887367	0.627984429
0.062453114	0.062488892	0.062410342	0.638260214	0.638342791	0.638561314
0.141741123	0.860830932	0.845511342	0.564524509	0.153655955	0.149837116
0.877620054	0.448442035	0.432710347	0.170621535	0.590992555	0.55803132
0.882757301	0.040844842	0.876732063	0.175070922	0.692800426	0.17105709
0.40279461	0.877365614	0.485792683	0.564888647	0.170493947	0.607599286
0.877289155	0.461942288	0.415373697	0.170722705	0.626337536	0.589669883
0.868837734	0.076433891	0.080506465	0.162570482	0.676139264	0.664474463
0.153945321	0.859906982	0.846890773	0.560828078	0.15271736	0.151819241
0.152065707	0.139846227	0.096829027	0.618723795	0.617250225	0.615499712
0.027330874	0.88163077	0.027663894	0.695345264	0.175052214	0.694376934
0.0927682	0.099666795	0.841407507	0.629550557	0.604432178	0.134892927
0.469863154	0.415672721	0.877347579	0.575493859	0.536334871	0.170543474
0.45905825	0.422125236	0.877615051	0.590855952	0.555016904	0.170567254
0.44633978	0.877313064	0.437042562	0.546064108	0.170572257	0.575714003
0.045618408	0.047943913	0.053654689	0.655703628	0.656708188	0.656820687
0.14941911	0.133982314	0.825210688	0.603541599	0.573105903	0.11906176
0.067677217	0.067612135	0.067864238	0.636242852	0.636304168	0.636633531
0.825148023	0.147464719	0.1319623	0.119030178	0.604089407	0.576035084
0.44812575	0.435899766	0.877386638	0.575787239	0.542857278	0.170562825
0.103071594	0.099076862	0.841560913	0.627702877	0.602612914	0.134979359
0.475987421	0.413075066	0.877200648	0.609775236	0.570412374	0.170590582
0.419819618	0.877522227	0.470219059	0.520851103	0.170798298	0.559711884
0.82602578	0.147896196	0.131581011	0.119184874	0.605046966	0.575565225
0.860979867	0.844069529	0.141731078	0.153552306	0.149607033	0.564540035
0.847161783	0.153978348	0.858597489	0.151257393	0.560858571	0.151909603
0.099238866	0.841991093	0.10311201	0.602392017	0.134871063	0.627739325
0.844458613	0.137217719	0.86184707	0.149087917	0.566360572	0.1545322
0.083086651	0.868656269	0.084312367	0.662803635	0.162539384	0.677140733
0.158126018	0.15086278	0.095546369	0.618264057	0.615804243	0.615489683
0.075986345	0.871553687	0.874539937	0.650562987	0.164465263	0.168488435
0.080577513	0.856056876	0.104099264	0.623586636	0.149460447	0.643646231
0.855241536	0.064398984	0.077541982	0.148992089	0.652943442	0.631860056
0.42687507	0.877184544	0.450294877	0.592985443	0.170765259	0.62649803
0.27438867	0.825840487	0.268138939	0.585274418	0.118676682	0.613482575
0.087492854	0.078982971	0.868726555	0.672737224	0.66107636	0.162684998
0.473490759	0.40411535	0.877494363	0.625860223	0.586100275	0.170764771
0.854419251	0.065521242	0.079219054	0.148627005	0.652031107	0.631979566
0.448146851	0.435898252	0.877402431	0.575800609	0.542870828	0.170559904
0.44636738	0.877395193	0.437094513	0.546053351	0.170612688	0.575750295
0.855472744	0.07963384	0.072081595	0.148939347	0.648032061	0.627737741
0.046139406	0.048121607	0.052895934	0.657963576	0.6589677	0.659681567
0.877281558	0.437037386	0.446312762	0.170593902	0.575699925	0.546049092
0.841773785	0.113745702	0.100313321	0.135135302	0.626205738	0.600751429
0.080067574	0.869087811	0.093736751	0.659233706	0.162659956	0.670415769
0.844855987	0.141796552	0.860296809	0.149654437	0.564518493	0.153454947
0.42169076	0.876988039	0.458938857	0.55517201	0.170065756	0.590864332
0.0652204	0.871347041	0.874083516	0.652805705	0.164578185	0.168581051
0.065216148	0.870968292	0.873618155	0.652842859	0.164660869	0.16842011
0.080246746	0.855799919	0.104466729	0.623677232	0.149343296	0.643422786
0.867419806	0.866737219	0.095423512	0.159246655	0.162566569	0.617825387
0.054295478	0.881319275	0.054630993	0.691018562	0.175461316	0.690001589
0.446283379	0.877263348	0.437047041	0.546071159	0.170533845	0.575749796
0.877335542	0.458998427	0.425588909	0.170578811	0.57561715	0.53960884
0.085693063	0.869221438	0.082860016	0.665420422	0.162510424	0.677489845
0.01370399	0.876076089	0.883695309	0.69713165	0.170743186	0.175572213
0.57297734	0.877188529	0.544074793	0.537887941	0.170400711	0.564647303
0.091694682	0.074421414	0.855319537	0.64547065	0.625863418	0.149308749
0.045175705	0.872072465	0.874106956	0.65903875	0.165242388	0.168168945
0.041275941	0.041098005	0.04169353	0.69308993	0.692763473	0.693732038
0.123090497	0.864816399	0.857473186	0.588476751	0.155746748	0.156958303
0.47570773	0.41400998	0.877473288	0.609947155	0.569666438	0.170557316
0.459674432	0.429660306	0.87769891	0.559826543	0.524419121	0.170723571
0.459637106	0.429659264	0.877655879	0.559845854	0.524433069	0.170726876
0.03972674	0.046738411	0.073747254	0.676792043	0.676862469	0.677098268
0.87545314	0.076008463	0.871329791	0.168864137	0.650431626	0.164415645
0.87703789	0.469962675	0.411814348	0.170088134	0.591444326	0.552734679
0.147451954	0.859990128	0.846048264	0.562690854	0.153030722	0.150727992
0.069623528	0.065176538	0.08470244	0.67037497	0.670998654	0.672868056
0.469921494	0.411680724	0.877528646	0.590555959	0.552159476	0.170196394
0.147424265	0.860056712	0.84580335	0.562690494	0.15312268	0.150836235
0.099686329	0.841619903	0.092683887	0.604567917	0.134859113	0.629777901
0.055367974	0.872870967	0.875170248	0.654875185	0.16507786	0.168872507
0.877189546	0.462144232	0.421067047	0.170567032	0.608737573	0.572234728
0.242816117	0.242850188	0.825890512	0.608905736	0.583126073	0.119087684
0.059386022	0.064527516	0.06338187	0.652006776	0.651758316	0.652117754
0.877617035	0.448790246	0.43974257	0.170717351	0.559966457	0.527628951
0.8703957	0.87344865	0.055344135	0.16443808	0.168059715	0.654877165
0.884304663	5.49629E-06	0.875258115	0.175429672	0.699320214	0.170457181
0.027293602	0.881639135	0.02766419	0.695300835	0.17509037	0.694412628
0.877327176	0.437170786	0.444245564	0.170349136	0.591474149	0.561954722
0.863768289	0.855979703	0.116642453	0.155437322	0.155457825	0.59038775
0.871771436	0.875776717	0.075942418	0.164737518	0.169365025	0.65043483
0.480692245	0.409845394	0.877016797	0.559266663	0.517702433	0.170477743
0.866959143	0.866119837	0.08177787	0.159238098	0.161880089	0.621199305
0.059591586	0.064454419	0.062879439	0.652154984	0.651962604	0.651830964
0.481066361	0.410302565	0.877854002	0.559278893	0.51772376	0.17049022
5.49275E-06	0.876873757	0.884148281	0.699347588	0.170614727	0.176144514
0.480984872	0.410224696	0.877690947	0.559327215	0.51771632	0.170464921
0.868957918	0.080381926	0.077405935	0.162524955	0.674721347	0.663045046
0.393180187	0.877950476	0.485022903	0.58263906	0.170819428	0.625176074
0.855252094	0.066563051	0.078830496	0.148553783	0.652521787	0.631898702
0.443161384	0.448147988	0.87737182	0.6065464	0.576681989	0.170594974
0.087845335	0.867013888	0.865743803	0.619879895	0.159656312	0.161978845
5.49326E-06	0.876428286	0.883259288	0.699124048	0.171147744	0.175583124
0.439081564	0.439076791	0.878184604	0.626626288	0.59642814	0.170677969
0.880640318	0.054617008	0.054240646	0.175000217	0.689929012	0.690802312
0.42211507	0.877848926	0.459401094	0.554774911	0.17073411	0.590950288
0.874136332	0.065225551	0.871030442	0.168725366	0.652752666	0.164418696
0.146871143	0.131813489	0.826016135	0.601810986	0.572760805	0.119436368
0.05427185	0.877226851	0.884964794	0.690484282	0.171186571	0.175532467
0.284522995	0.288825133	0.82587062	0.611491832	0.583272949	0.118712221
0.4271162	0.877672597	0.450541636	0.59306667	0.170823342	0.626463126
0.402837826	0.877395098	0.485615167	0.564831761	0.170552541	0.607542179
0.877437455	0.450423776	0.426999241	0.170490199	0.626367239	0.593212659
0.877629304	0.462107092	0.4155496	0.170731321	0.626243572	0.589609575
0.09276369	0.099603792	0.841161245	0.629448359	0.604394527	0.134906309
0.877143405	0.48071895	0.401517515	0.170450056	0.589626038	0.547709675
0.448125851	0.43589512	0.877364683	0.575634012	0.542661966	0.170571784
0.487043483	0.40142095	0.877424596	0.60748203	0.564338319	0.170542737
0.841650913	0.083352981	0.102197111	0.134847715	0.631076391	0.606253103
0.868007508	0.865150652	0.077757653	0.160444577	0.161745614	0.623176101
0.070306862	0.065706005	0.086183502	0.670385137	0.670999553	0.67256151
0.883343474	0.054279363	0.876583316	0.175192177	0.690572566	0.170810479
0.393048856	0.877699083	0.484901495	0.582561555	0.17073041	0.625272023
0.213388468	0.826004486	0.212012262	0.578054775	0.119304497	0.606374027
0.232304796	0.224631526	0.825424974	0.605839379	0.581834551	0.11904323
0.876227025	0.047221216	0.871276002	0.168587136	0.656688138	0.164279249
0.877333655	0.440942724	0.443460321	0.170632455	0.608796186	0.578176603
0.427116287	0.877672787	0.450541738	0.593066914	0.170823367	0.626463186
0.877779151	0.484936466	0.393093711	0.170813941	0.625132264	0.582539036
0.486839325	0.401556615	0.877417474	0.607394914	0.564326198	0.170527768
0.059565585	0.064267393	0.062790333	0.652062508	0.651769697	0.652122548
0.278650369	0.282591316	0.826189911	0.610940647	0.582493303	0.119097447
0.450504905	0.427080594	0.877600023	0.626471044	0.593063121	0.170703543
0.860746107	0.844509836	0.141719326	0.153187324	0.149270827	0.564567669
0.87730038	0.438639524	0.43863478	0.170318142	0.62657492	0.596423526
0.866895053	0.095272101	0.867286818	0.162458229	0.617731491	0.159404028
0.448032628	0.432754268	0.87763779	0.590949939	0.558460468	0.170273186
0.099623434	0.841790341	0.092671476	0.60430732	0.134901175	0.629745068
0.861533909	0.84373424	0.137253778	0.154570167	0.148910159	0.566103315
0.855736685	0.091278305	0.074262446	0.149384213	0.645131699	0.625803613
4.9696E-06	4.7858E-06	0.881589004	0.699272874	0.699125257	0.175073676
0.05452027	0.055224892	0.054930816	0.690308737	0.6902969	0.690901702
0.062475816	0.062488281	0.062449559	0.638290389	0.638245991	0.638515374
0.84177047	0.102982288	0.099163742	0.13505591	0.627712494	0.602561339
0.877352864	0.437188641	0.444244323	0.17034238	0.591470764	0.561970653
0.401890882	0.878052427	0.480905285	0.548320896	0.170242636	0.590147226
0.469789201	0.411543675	0.877256031	0.590550096	0.552198616	0.170117849
0.100382963	0.841300714	0.113656055	0.600690609	0.135111391	0.625764303
0.103077429	0.09911094	0.841579156	0.627707774	0.602462617	0.13500693
0.844521675	0.141792136	0.861037622	0.149446213	0.564646024	0.153375521
0.876901699	0.884161801	0.054283457	0.171339075	0.175733521	0.690643475
0.856024517	0.130483786	0.861688846	0.156585004	0.586472325	0.154384473
5.49174E-06	0.875926066	0.88429871	0.699349753	0.170581965	0.176065179
0.877545098	0.473120681	0.480708266	0.170673728	0.561212312	0.532241438
0.172210966	0.158607326	0.094038398	0.616046264	0.615443954	0.615893214
0.1018802	0.13432709	0.181034608	0.618230327	0.618967546	0.620496634
0.877302472	0.462452802	0.421023107	0.170578502	0.608612993	0.57216262
0.864384895	0.855730559	0.111384664	0.156124993	0.155270911	0.592306468
0.080192408	0.85607098	0.10433301	0.62347816	0.149576357	0.643835255
0.099235237	0.841906512	0.103012269	0.602328274	0.134897542	0.627698654
0.067708826	0.067600788	0.067849342	0.636437351	0.63657263	0.636764789
0.841753789	0.113783455	0.100423764	0.135104365	0.62616396	0.600715906
0.866737652	0.866364154	0.095374298	0.15923053	0.162388906	0.617239322
0.8725782	0.873673422	0.047211842	0.165217697	0.168283783	0.656988242
0.473819172	0.404428947	0.878137758	0.625851798	0.586111516	0.170740425
0.090067506	0.076019697	0.86932612	0.670114143	0.660187939	0.162591802
0.000004836	0.882409305	4.90099E-06	0.699298135	0.175330511	0.699283508
0.133745664	0.861999901	0.844342128	0.567773261	0.154845902	0.14785714
0.054304429	0.881571497	0.05462597	0.691051886	0.175405342	0.690169204
0.07692926	0.868134019	0.865115163	0.623129623	0.160424131	0.161429706
0.04197948	0.041051569	0.042523871	0.692793208	0.691726157	0.692372154
0.882793768	0.013705945	0.876033466	0.175125157	0.697290692	0.170714662
0.877392386	0.469819479	0.415586435	0.170595746	0.575599595	0.536324506
0.054304508	0.881554397	0.054623763	0.691053882	0.175408118	0.690155361
0.47013628	0.419604625	0.877220027	0.559560464	0.521100737	0.170459538
0.882895794	0.040857712	0.875120575	0.174984954	0.693018093	0.170657348
0.87741562	0.483567527	0.400429433	0.170588638	0.608638697	0.566075747
0.401709336	0.877668574	0.480699805	0.548174829	0.170187628	0.590234789
0.876857398	0.438417973	0.438413347	0.170333045	0.626497021	0.596502814
0.85608535	0.091302869	0.074137295	0.149216755	0.646009805	0.625726491
0.844797798	0.137190788	0.862488946	0.148945705	0.566353705	0.154453362
0.876808267	0.883259443	0.04086027	0.170778612	0.175912608	0.693136519
0.062480803	0.062474945	0.062442098	0.638285358	0.638472183	0.638511617
0.149840383	0.13522988	0.825477233	0.603937862	0.57424963	0.119280947
2.76024E-06	2.93282E-06	2.89136E-06	0.69945248	0.698800067	0.698733529
0.445270632	0.877364963	0.438023738	0.562842085	0.170468594	0.592568767
0.506643497	0.508110751	0.877237931	0.561169585	0.531855336	0.170657346
0.863522369	0.856915991	0.130368468	0.155112685	0.156863944	0.586509272
0.872124703	0.874916677	0.04621077	0.165128914	0.168606745	0.65804428
0.477268613	0.41221968	0.877498645	0.609434243	0.569048993	0.170558315
0.149296073	0.134393435	0.82556865	0.60389171	0.574883464	0.119381719
0.855481439	0.123097164	0.864048148	0.155904909	0.588341331	0.155089253
0.871389864	0.874234829	0.047124694	0.164829715	0.168219033	0.657082609
0.862710435	0.857242673	0.130386947	0.154632557	0.156737552	0.586471899
0.044584783	0.049673739	0.051475968	0.657827198	0.658639528	0.658496538
0.014050849	0.88143951	0.014347013	0.697285556	0.175419168	0.697058526
0.48072695	0.401441162	0.877483676	0.590001766	0.548167561	0.170749446
0.882222328	0.054358895	0.054274671	0.175355005	0.68982156	0.690265488
0.073641882	0.855197057	0.082301448	0.627495509	0.149312863	0.647584047
0.040721151	0.046768729	0.07496161	0.67741239	0.677963502	0.680634652
0.045454289	0.04795882	0.053179763	0.655694434	0.656387157	0.656729228
0.013704681	0.876190882	0.882623136	0.697207498	0.170826459	0.175608387
0.153926046	0.859344356	0.846828106	0.560859072	0.152743075	0.151871114
0.438844157	0.438839468	0.877709949	0.626589965	0.596281559	0.170741176
0.123083688	0.86450745	0.857144976	0.588448474	0.155739501	0.15697248
0.877823562	0.45061721	0.427191465	0.170645905	0.62659187	0.593061727
0.459049867	0.425765531	0.877393556	0.57550017	0.539375598	0.170572323
0.877281404	0.437042496	0.446307873	0.170597807	0.575716653	0.546049788
0.055380762	0.871919792	0.87466337	0.65504641	0.16482763	0.168776144
0.883277368	0.013708009	0.876216141	0.175030789	0.697407828	0.17043024
0.415513282	0.877552111	0.462066475	0.589678685	0.170744524	0.626202555
0.067701852	0.077989626	0.856187671	0.653270612	0.63288431	0.149366514
0.87512467	0.075985542	0.871435656	0.168907268	0.650418253	0.164516594
0.8458302	0.141776425	0.861681794	0.150019525	0.56459671	0.15395697
0.87731219	0.470441459	0.411806459	0.17040661	0.590697934	0.551655217
0.874715084	0.07602853	0.871541388	0.168362575	0.6505532	0.164808612
0.861442873	0.845460033	0.141751294	0.153922692	0.149852071	0.56453846
0.873517635	0.055399195	0.871421694	0.168569408	0.654938069	0.164708185
0.054498117	0.055171054	0.054923961	0.690262719	0.690087642	0.690327914
0.34184356	0.825835942	0.332050075	0.583284959	0.118934783	0.612004677
0.413694869	0.877403867	0.475643423	0.566156988	0.170640734	0.605999139
0.123088181	0.864055678	0.855954798	0.58867249	0.155187422	0.156326512
0.42565928	0.877450776	0.459132024	0.539354224	0.170650865	0.575359234
0.062503422	0.062489199	0.062467157	0.638294083	0.63829915	0.63848286
0.067123786	0.079877661	0.855193072	0.652527167	0.63186232	0.148707321
0.107623246	0.864987399	0.855271733	0.593877889	0.157063356	0.155029036
0.877328892	0.458996264	0.425577086	0.170578753	0.57562066	0.539613781
0.867075402	0.865851418	0.077278383	0.160099339	0.161782556	0.62271043
4.9696E-06	4.78609E-06	0.881612616	0.699286783	0.699113081	0.175082136
0.877264595	0.437030638	0.446302988	0.170597023	0.575699295	0.546043036
0.439722324	0.877690673	0.448882051	0.527476358	0.170749719	0.559888255
0.041135651	0.041004174	0.881193612	0.69245301	0.693051862	0.175054993
0.866637848	0.866511262	0.09540363	0.159185666	0.162663802	0.617748837
0.480869087	0.410202496	0.877545591	0.559261628	0.517666897	0.170464248
0.877600243	0.473999727	0.482783109	0.170713029	0.561868682	0.5321682
0.856096685	0.091248552	0.074147268	0.149404983	0.645704861	0.625561477
0.434798237	0.877324497	0.455322397	0.574104511	0.170542691	0.607853974
0.081326563	0.855567031	0.066854503	0.631056635	0.148914941	0.652141272
0.099235677	0.841730937	0.103107505	0.602414876	0.134906913	0.627648468
0.104242492	0.867020929	0.867083965	0.615441936	0.159261161	0.162974089
0.148808738	0.134571527	0.825582019	0.603820535	0.573709076	0.119155247
0.866087977	0.081520135	0.867374463	0.161815352	0.621513749	0.15968365
0.465873941	0.424223046	0.877260911	0.608750943	0.572051554	0.170569828
0.459010292	0.42199217	0.877443556	0.590785159	0.55509229	0.1704572
0.877208059	0.480707754	0.410038749	0.17093918	0.559614392	0.517385074
0.08335172	0.868876566	0.084702756	0.660415392	0.162665683	0.672946946
0.881619936	0.041101712	0.040903312	0.175507169	0.692755782	0.692933775
0.405693054	0.877337661	0.480782845	0.532757495	0.170558932	0.575048699
0.872210431	0.875048893	0.065210088	0.165479985	0.16903854	0.652795554
0.459095975	0.425687033	0.877344141	0.575453748	0.539366523	0.170567048
0.11384723	0.100311312	0.841472081	0.626143454	0.60068957	0.134983914
0.881399408	0.041219178	0.040814542	0.175422832	0.692524422	0.693099307
0.855529583	0.116690762	0.864629406	0.155613902	0.590232076	0.155879075
0.08149812	0.86753551	0.865771927	0.621325983	0.159754946	0.161719839
0.081660704	0.867249736	0.866193453	0.62111056	0.159943528	0.161930494
0.103071665	0.078878778	0.855959045	0.643247601	0.62354878	0.149596393
0.066709281	0.078668491	0.855794462	0.653598869	0.633164845	0.149596113
0.051825358	0.053095023	0.057280153	0.653920651	0.654055876	0.653771176
0.860452363	0.845184977	0.147498858	0.15292432	0.150497433	0.562911745
0.877185159	0.461888099	0.415324105	0.170731413	0.626335576	0.589627321
0.857024377	0.123049858	0.864384794	0.156431902	0.588485949	0.155636876
0.871955851	0.874058265	0.055335903	0.164522484	0.167618261	0.654784676
0.844270648	0.133788877	0.86238585	0.147814594	0.567820607	0.15498719
0.87704246	0.469956978	0.411971043	0.170162978	0.591476512	0.552728701
0.041102301	0.040959375	0.881754062	0.692653357	0.692945854	0.175250773
0.877631635	0.484869672	0.393013036	0.170681239	0.625188764	0.58261905
0.402956698	0.87736756	0.48571222	0.564889041	0.170493262	0.607597917
0.856679385	0.068701467	0.071876544	0.149490469	0.649860223	0.62989564
0.758451486	0.758395643	0.760977009	0.384151768	0.383589859	0.383651338
0.855496197	0.116691507	0.864716332	0.155734019	0.590199645	0.155982191
0.865891043	0.866691827	0.104368374	0.159024831	0.162732467	0.61534009
0.06001671	0.060038344	0.059933224	0.639933488	0.640156643	0.640242757
0.47618723	0.413236297	0.877452727	0.609600351	0.569249054	0.170557871
0.419900442	0.877650188	0.470266533	0.520887243	0.170582345	0.559677379
0.877636081	0.448032862	0.433113794	0.170646209	0.591230319	0.558677626
0.078750405	0.869130033	0.093613514	0.659126968	0.16273945	0.670550514
0.137204205	0.860280429	0.84464417	0.566437555	0.15389269	0.14867147
0.079718378	0.07149395	0.855801608	0.647755218	0.627522743	0.149347917
0.091806193	0.074387838	0.854698148	0.645335843	0.625556105	0.149024125
0.465929797	0.424096815	0.877345783	0.6087699	0.572060907	0.170560652
0.854799441	0.111487226	0.864398935	0.154667712	0.592181935	0.155789547
0.062503309	0.0624727	0.062440471	0.638275122	0.638271718	0.638498646
0.439707757	0.877609047	0.448818213	0.527674334	0.170572184	0.559763908
0.415488346	0.877355774	0.469998732	0.536016219	0.170533965	0.575267335
0.856250054	0.130480969	0.861955653	0.156556356	0.58647931	0.154430544
2.76676E-06	2.87548E-06	2.8454E-06	0.699294947	0.699301152	0.69949819
0.437923144	0.444825426	0.87743897	0.592789028	0.563257458	0.170359571
0.041129349	0.040909582	0.88117047	0.69258202	0.692840301	0.175247969
0.841046818	0.08332315	0.10222045	0.134802996	0.631279736	0.60593035
0.204633758	0.826540663	0.20380913	0.580141356	0.119253894	0.607295011
0.131455242	0.320538996	0.220101183	0.622122024	0.621274877	0.620684793
0.845366997	0.147457312	0.859428388	0.150121883	0.562616795	0.152404292
0.841737702	0.102950937	0.099027243	0.134976029	0.628055448	0.602783024
0.841775724	0.092692	0.099703147	0.13476885	0.629627168	0.604229851
0.877455654	0.459139625	0.422287375	0.170349757	0.590580723	0.554804129
0.469790051	0.411439667	0.877170405	0.590543346	0.552197782	0.170080896
0.877185106	0.459486298	0.429336055	0.170466904	0.559805527	0.524425742
0.039697065	0.046649547	0.073610846	0.676502668	0.677247102	0.677215216
0.331000861	0.825952305	0.319469195	0.582538312	0.118800276	0.612444958
0.028048874	0.02761657	0.881658889	0.694798275	0.69476309	0.175350728
0.133725628	0.861856794	0.84399111	0.567841899	0.155202587	0.148178527
0.87755125	0.480880067	0.410199083	0.170408214	0.559312675	0.517582546
0.84154275	0.124838532	0.103889236	0.135332639	0.622922458	0.597929967
0.864132206	0.85565733	0.123148372	0.155880892	0.156669539	0.588420435
0.11141097	0.864118549	0.855789179	0.592066682	0.156312549	0.1552291
0.825837191	0.137464189	0.129909421	0.118760423	0.605796856	0.57624078
0.079474903	0.86894703	0.093274193	0.6592748	0.162667286	0.670389164
0.866631354	0.095535805	0.867310198	0.16227965	0.617279793	0.159334733
0.087251335	0.078562012	0.868664117	0.67243382	0.660229904	0.162657904
0.470327533	0.419858174	0.877665175	0.559730433	0.521033629	0.170749872
0.860575525	0.845105858	0.147523776	0.152705605	0.150282297	0.562840211
0.013705284	0.876226456	0.882081662	0.697272913	0.170156286	0.174543684
0.103480799	0.841290181	0.125123746	0.598450116	0.135248545	0.623364207
0.857038865	0.068782821	0.071827769	0.14944292	0.649876905	0.629886809
0.45900499	0.421990371	0.87743729	0.590913859	0.555021775	0.170307656
0.865731591	0.081476404	0.867214446	0.161513621	0.621427645	0.159349376
0.865406713	0.077000182	0.867742728	0.161053466	0.623352366	0.159615455
0.072783161	0.856207254	0.071204932	0.629719885	0.149491765	0.650164672
0.082332051	0.868943671	0.083637135	0.663665788	0.162511464	0.677121525
0.329991883	0.825965914	0.317611803	0.583878031	0.118756384	0.612580183
0.8774051	0.450741145	0.432456555	0.170559941	0.609764061	0.57635477
0.459084526	0.422122739	0.877645575	0.590876902	0.555027525	0.170726769
0.877475658	0.480838149	0.410168467	0.170443331	0.559328514	0.517587095
0.054552653	0.055183883	0.055084424	0.690357108	0.69005219	0.690321888
0.014263606	0.013976852	0.882102347	0.697710861	0.697587401	0.175432221
0.877421645	0.483529244	0.40038609	0.170578633	0.608644555	0.566047795
0.825678925	0.277613959	0.286767636	0.118387986	0.613689014	0.583562668
0.045024482	0.048898619	0.051367555	0.65763428	0.658144338	0.658427899
0.825549796	0.136664607	0.127138554	0.118878019	0.603593698	0.576067048
0.881664845	0.040851501	0.87376317	0.175061909	0.692951393	0.17040137
0.438940969	0.438936315	0.877903423	0.626742899	0.596294452	0.170465218
0.02743873	0.88174332	0.027635504	0.694997582	0.1750333	0.694991974
0.447763237	0.432435239	0.877054913	0.590833062	0.558349393	0.170149764
0.877117177	0.883565823	0.040855953	0.170869256	0.175898182	0.693064672
0.103148157	0.099175961	0.841597794	0.627693593	0.602524694	0.135012956
0.854598799	0.079442675	0.071907851	0.149041023	0.64784591	0.62733093
0.150900592	0.131764459	0.826274622	0.603133452	0.5753353	0.119279658
0.855124889	0.111452664	0.863842107	0.154683388	0.592176629	0.155735148
0.111374455	0.864808972	0.854693021	0.592064476	0.156297255	0.155262386
0.856530554	0.123156489	0.864251247	0.156649427	0.58862788	0.155671543
0.419618234	0.877406266	0.4702906	0.521050262	0.170648274	0.559652354
0.874563445	0.051483366	0.872376864	0.168327154	0.658992459	0.165054332
0.013864253	0.014481423	0.014063507	0.697248688	0.697044413	0.697434221
0.877358288	0.473622345	0.410107816	0.170516256	0.609052175	0.569266275
0.051827872	0.053919556	0.058637382	0.654039639	0.653927075	0.653781681
0.877335652	0.437071066	0.446331529	0.170592932	0.575744191	0.546079561
0.841663515	0.113759843	0.100363053	0.135104685	0.625613534	0.60048739
0.865389093	0.855883371	0.111466461	0.15626594	0.155502675	0.592219217
0.4593716	0.429509915	0.87723805	0.559806681	0.52432725	0.170769181
0.404290079	0.877866806	0.473687205	0.58621468	0.170884465	0.625915793
0.844772593	0.141802291	0.860188562	0.149662575	0.564638508	0.153649629
0.869124669	0.076600133	0.079877323	0.16255171	0.6767307	0.664445152
0.102207883	0.841494464	0.083382923	0.605639442	0.134737984	0.63064061
0.466030239	0.424420386	0.877306358	0.608365335	0.571783228	0.170557464
0.877636347	0.448032906	0.433114113	0.170646147	0.591230433	0.55867776
0.104043099	0.866840008	0.867108664	0.61556614	0.1592625	0.162834097
0.45976918	0.429669947	0.877809937	0.559832333	0.524455105	0.170625668
0.130409687	0.863783789	0.857386963	0.586295604	0.155104615	0.157405221
0.013941341	0.014307663	0.013830875	0.697045447	0.697380943	0.697408202
0.866844215	0.095219986	0.867341326	0.162504725	0.617734368	0.159387899
0.866268448	0.077164212	0.868583855	0.161504447	0.623242658	0.159873565
0.027817683	0.027699584	0.02828525	0.695258068	0.694857398	0.695305996
0.84688661	0.153895516	0.85911275	0.151317048	0.560820473	0.152227714
0.426991465	0.877425829	0.450419614	0.593099233	0.170418609	0.626539697
0.140086876	0.131699695	0.825859806	0.606072043	0.577431188	0.119367524
0.068844714	0.071291609	0.855560916	0.650102225	0.62938871	0.149047111
0.459701109	0.429725837	0.877788394	0.559835131	0.524433147	0.170820869
0.82611322	0.220419035	0.23215271	0.118853138	0.61194161	0.582576369
0.415441595	0.87741694	0.462002521	0.589668789	0.170762078	0.626166619
0.087630689	0.079065676	0.868709554	0.672370192	0.660113458	0.162646416
0.877398242	0.473594938	0.410169202	0.170546912	0.60910461	0.569258568
0.841257729	0.083336004	0.102217397	0.134842758	0.631164654	0.605916893
0.845254012	0.147479876	0.858831573	0.150202284	0.562776498	0.152501779
0.438630735	0.438625996	0.877282988	0.626602075	0.596347296	0.170432614
0.866797882	0.087808199	0.867308426	0.162076573	0.619505471	0.159551083
0.041537451	0.04112801	0.042156472	0.69299782	0.692527149	0.692514853
0.141849513	0.860047829	0.84390851	0.56451187	0.153771837	0.149844511
0.88136138	0.04127904	0.041060695	0.175477938	0.692479042	0.693033458
0.877357719	0.459021153	0.42557017	0.170577511	0.575609618	0.53961607
0.871831371	0.875927153	0.075946485	0.164819271	0.169503076	0.650481325
0.865285809	0.077127682	0.867187206	0.161087185	0.622793044	0.160192999
0.87735249	0.483941753	0.399895717	0.17049054	0.608211591	0.565465574
0.877853796	0.437421669	0.444469712	0.170783684	0.59216764	0.562714076
0.844444822	0.137214829	0.861480637	0.149068186	0.566366689	0.154516787
0.87486384	0.047189587	0.871949015	0.168508261	0.65690982	0.164873727
0.103186336	0.09921033	0.841634243	0.627691506	0.602572364	0.134987707
0.459010361	0.421992575	0.877443954	0.59078517	0.55509229	0.170457277
0.874632125	0.051563992	0.872555004	0.168330533	0.658989082	0.165043582
0.758682679	0.757842916	0.758753856	0.384221352	0.383139334	0.383131689
0.107732072	0.865381482	0.855085609	0.59397807	0.157134792	0.154948558
0.844555676	0.137202275	0.862540102	0.149019074	0.566381381	0.154483651
0.439681453	0.87758764	0.448823163	0.527486139	0.170755932	0.559986605
0.883186436	0.054270744	0.875915786	0.174981562	0.690455266	0.17061611
0.414577184	0.877194259	0.474776934	0.569001987	0.170594628	0.607999748
0.080707387	0.855344135	0.104528545	0.623562808	0.149191121	0.643340338
0.05997049	0.039614297	0.079794824	0.679419689	0.67916394	0.679915023
0.874286263	0.06523606	0.871360123	0.168014528	0.652701023	0.164496612
0.276834669	0.299141291	0.825924018	0.613394751	0.584470215	0.118603969
0.103016533	0.078884482	0.855951776	0.643235771	0.623615006	0.149657917
0.872336141	0.873630739	0.047262825	0.165624463	0.168563597	0.65697784
0.881182851	4.83255E-06	4.81212E-06	0.175398614	0.69912871	0.699525403
0.469898495	0.415731505	0.877366951	0.575303027	0.536126452	0.170541664
0.470027872	0.411871523	0.877832977	0.590531211	0.552038595	0.170203107
0.075964156	0.871191112	0.874265883	0.650530385	0.164494603	0.168472173
0.845564917	0.141769687	0.860318896	0.149963584	0.564498768	0.153714688
0.219510959	0.217923211	0.825295232	0.607150237	0.582108386	0.118847157
0.401229641	0.876996414	0.480526481	0.54853521	0.169903185	0.590317886
0.871485339	0.874220756	0.047778479	0.165150806	0.168225233	0.658703104
0.04119524	0.881964705	0.041502496	0.692844678	0.17507069	0.692959983
0.872548129	0.87585393	0.065204196	0.165505405	0.169054252	0.652793824
0.393019417	0.877649818	0.484881505	0.582656639	0.170820026	0.625203897
0.082472715	0.868940165	0.083726264	0.663546178	0.162493854	0.677177798
0.458888996	0.425730675	0.877315333	0.57543508	0.539349124	0.170587667
0.877633148	0.448032648	0.433109588	0.170646916	0.591228911	0.558676253
0.877331637	0.459058864	0.425539797	0.1705882	0.575643115	0.539626146
2.78027E-06	2.88464E-06	2.82189E-06	0.699170946	0.699129743	0.699509043
0.877042503	0.469956993	0.411971065	0.17016305	0.591476541	0.552728686
0.123098777	0.862456701	0.855342587	0.588499186	0.155217208	0.156252485
0.455541102	0.4352275	0.877333401	0.609957205	0.576696448	0.170596436
0.877436185	0.450423159	0.426998585	0.170491474	0.626367291	0.593212778
0.866772119	0.087693898	0.867465094	0.162089194	0.619343887	0.15968367
0.081897678	0.869279203	0.099683081	0.65656848	0.162644039	0.66930522
0.877114867	0.47000922	0.411967006	0.170175227	0.591442465	0.5527443
0.141787673	0.861409542	0.845537827	0.56456487	0.154310788	0.150161941
0.877512362	0.876174507	0.876798595	0.170661388	0.17051999	0.170400872
0.866432465	0.865352948	0.088258649	0.159193491	0.161970763	0.61947466
0.877909268	0.437590064	0.444425674	0.170666497	0.5909791	0.56153248
0.865343876	0.081515011	0.866911393	0.161509241	0.621314977	0.159329556
0.027804892	0.027650553	0.028194601	0.694961833	0.694525773	0.695551268
0.437956354	0.444883713	0.877408659	0.592712218	0.56321906	0.170332034
0.865323147	0.081542796	0.867500655	0.161675995	0.621043676	0.160009016
0.855798947	0.09129544	0.07418048	0.149394846	0.64514001	0.625804955
0.866501195	0.865732283	0.088134357	0.159253856	0.161831581	0.619561517
0.862587613	0.845513001	0.137239	0.154385062	0.149038239	0.566254646
0.124915578	0.103458054	0.841665005	0.623397056	0.598260537	0.135139639
0.869038525	0.082768977	0.07535696	0.162583781	0.673431618	0.659741151
0.051921574	0.053663632	0.05844284	0.654353527	0.654171204	0.654382897
0.054304209	0.881585943	0.054632519	0.69104926	0.175403203	0.690186722
0.877403074	0.450677859	0.432475739	0.170575747	0.60977187	0.576349286
0.40583561	0.877358903	0.480691272	0.532733546	0.170611505	0.575036466
0.426784335	0.877011315	0.450212233	0.593137404	0.17047627	0.626522306
0.080058381	0.855815809	0.104245987	0.623386014	0.149617281	0.643792236
0.068848331	0.071298522	0.855714671	0.649781925	0.629559991	0.149197034
0.01438811	0.880735012	0.014325926	0.697289429	0.175281267	0.697120212
0.877714275	0.484901395	0.393063863	0.170800715	0.625052078	0.58251749
0.439683371	0.877462818	0.448694627	0.527471691	0.170756709	0.55989792
0.462141586	0.415575819	0.877690584	0.626198886	0.589610551	0.17073809
0.870305436	0.873317297	0.055344743	0.164319488	0.168177607	0.654889894
0.443141355	0.446895228	0.877338221	0.608989991	0.578418512	0.170561415
0.439602747	0.877353368	0.448670392	0.527509082	0.170703808	0.559908223
0.067654379	0.067625535	0.067920109	0.636361659	0.636308995	0.636696211
0.05425282	0.881511066	0.054624991	0.690597884	0.17537738	0.69001195
0.430033645	0.878309814	0.459914923	0.524465349	0.170883459	0.559783962
0.411618098	0.877629302	0.470087606	0.551689392	0.170340998	0.590525399
0.877598909	0.438788917	0.438784251	0.170436163	0.626423008	0.596436618
0.855306826	0.10751598	0.865082563	0.154882979	0.593973929	0.157001372
0.100165278	0.080876324	0.869050905	0.668544358	0.65660313	0.162620714
0.080698612	0.855980721	0.103854829	0.623688265	0.149354187	0.643538469
0.141782447	0.862647972	0.846861766	0.564525629	0.154168035	0.150313665
0.111503963	0.863947992	0.854947494	0.592074291	0.155942084	0.155124846
0.840998849	0.083312295	0.102218434	0.134813494	0.631248987	0.605927193
0.099137604	0.841804527	0.103108403	0.60252643	0.134920642	0.627694577
0.146547252	0.133509141	0.097280743	0.618886993	0.617905938	0.615311101
0.87734771	0.45037849	0.426954521	0.170607172	0.62644686	0.593098843
0.841627667	0.113891462	0.100279189	0.135060109	0.625983286	0.600544859
0.0834001	0.102211307	0.84181434	0.631196933	0.605782777	0.134714454
0.111400942	0.865230445	0.856067545	0.592098196	0.156361198	0.155313593
0.877339329	0.483819964	0.400045347	0.170489941	0.608199059	0.565469301
0.865250641	0.077108755	0.868038076	0.161599718	0.623140814	0.160177922
0.095385196	0.86634411	0.866045411	0.617519011	0.158874655	0.162002118
0.85569774	0.066541951	0.07879084	0.148700419	0.652232282	0.631709725
0.059639014	0.064908512	0.06305992	0.652031632	0.651722597	0.652064879
0.062445418	0.06248724	0.062416748	0.638262255	0.638321508	0.6385667
0.883171341	0.040857852	0.875595013	0.175087455	0.693025144	0.170675813
0.864833853	0.076980607	0.86728628	0.161025954	0.622806869	0.159829539
0.462207107	0.415640784	0.877820951	0.626203281	0.589683633	0.170612543
0.856007717	0.116695864	0.864161641	0.155843105	0.59032401	0.156033777
0.883129545	0.04084463	0.876537103	0.175089128	0.692793978	0.171086512
0.055381896	0.872084937	0.874652054	0.655014455	0.164849475	0.168800058
0.881363309	4.79652E-06	4.87145E-06	0.17536706	0.699325596	0.699691893
0.088007416	0.867022101	0.86660044	0.619611152	0.159652936	0.161970969
0.825134735	0.13769657	0.128387648	0.118668728	0.606070663	0.576726289
0.133743255	0.861878929	0.844329078	0.567776925	0.155435763	0.148403278
0.87612959	0.883424022	0.027331556	0.170526754	0.17566128	0.695396426
0.054499163	0.055160074	0.054927235	0.690320767	0.690296117	0.690894092
0.867477737	0.864963069	0.077314964	0.16005433	0.161181758	0.623080197
0.862665836	0.856170283	0.130373031	0.155098564	0.156886306	0.586487734
0.079726313	0.082692169	0.868927108	0.679089976	0.666154953	0.162494862
0.858936567	0.846404553	0.154047699	0.152250149	0.151268491	0.560776409
0.447822492	0.432528511	0.877212349	0.590781605	0.558449938	0.170225078
0.49671662	0.512169338	0.87752969	0.560599948	0.531680214	0.170633733
0.844460569	0.141837068	0.859990696	0.14968228	0.564523633	0.153577098
0.875084051	0.047240647	0.871131738	0.168583002	0.65669187	0.164255613
0.480665147	0.405686851	0.877330901	0.575271827	0.532760714	0.170517596
0.095651906	0.866778843	0.865585326	0.617372059	0.159103265	0.162111186
0.111412406	0.864105608	0.855797334	0.592067627	0.156320707	0.155234283
0.085752774	0.86919171	0.082285015	0.664899207	0.16234093	0.677171878
0.860291985	0.845880928	0.153952271	0.151688217	0.150863786	0.560991001
0.08109089	0.266248179	0.254561656	0.620216101	0.621983029	0.62335929
0.866850367	0.865807375	0.08196232	0.159722256	0.161674418	0.62110709
0.480689423	0.401374173	0.8773893	0.590061693	0.547994196	0.170370543
0.455044231	0.43587842	0.877394081	0.611013838	0.577443124	0.170591149
0.856786395	0.123135153	0.86392708	0.156661745	0.588611063	0.155664538
0.438400742	0.438395994	0.876822818	0.626549012	0.596312304	0.170427223
0.841843869	0.102952523	0.09905967	0.13498828	0.627737432	0.602589935
0.877180598	0.437572483	0.443612642	0.170455224	0.591662717	0.562337786
0.438680938	0.438676193	0.87738339	0.626714621	0.596327867	0.170516847
0.882481668	0.02765342	0.027370673	0.175390784	0.695035947	0.69493129
0.825866977	0.13746857	0.129767626	0.118724444	0.605803935	0.576268674
0.131133263	0.826270781	0.149332951	0.575439205	0.118976205	0.60386209
0.447732116	0.432442011	0.877022991	0.590813386	0.558337631	0.17011452
0.130425894	0.863396177	0.857187149	0.586543857	0.155210488	0.157323753
0.014520558	0.881153725	0.014407132	0.697116991	0.175210383	0.697705122
0.045483928	0.048858874	0.051969072	0.657182131	0.658385831	0.659067465
0.857165913	0.130432108	0.862660844	0.156634343	0.586593861	0.154393413
0.877565189	0.484822524	0.392995012	0.170788514	0.62505445	0.582527982
0.869096995	0.076966116	0.080712244	0.16256315	0.676746795	0.664419091
0.877504945	0.473495253	0.404121208	0.170605232	0.625762371	0.586066347
0.074875128	0.074957171	0.075366815	0.634380972	0.634308242	0.634514273
0.405829644	0.877363212	0.480659911	0.532738185	0.170606452	0.575045286
0.825623167	0.276553906	0.27911594	0.118323425	0.610990214	0.58431256
0.104030021	0.866606835	0.866965057	0.615813339	0.159189283	0.162819955
0.866894419	0.095570104	0.866833347	0.162318076	0.61740033	0.159353737
0.873732295	0.055345984	0.871468094	0.168149	0.654912018	0.164509781
0.882119267	4.84058E-06	4.87686E-06	0.175442695	0.6993392	0.699232917
0.866908452	0.866126138	0.081772926	0.159218073	0.161852115	0.621200976
0.04524598	0.872095114	0.874847203	0.659163598	0.165547179	0.168760015
0.088019167	0.079650682	0.868829358	0.6722938	0.660795234	0.162666341
0.459898206	0.429916651	0.878184603	0.559856752	0.524405737	0.170754394
0.123111608	0.863327991	0.85684748	0.588448331	0.155034664	0.156249279
0.877327528	0.459028938	0.425531991	0.1705969	0.575693247	0.53964314
0.103085489	0.078834276	0.856059496	0.643240735	0.623635166	0.149686533
0.864872272	0.855364213	0.111457608	0.15637044	0.155280171	0.591948427
0.872195971	0.875062903	0.065191667	0.164961246	0.168767508	0.652930287
0.091418477	0.079699296	0.869371697	0.668006352	0.657037254	0.162676587
0.055326329	0.873126001	0.873982746	0.65476461	0.164805817	0.168385957
0.139903483	0.131044004	0.825583879	0.606060472	0.577500522	0.119205739
0.133724411	0.862538988	0.84387829	0.567811778	0.155248145	0.148197535
0.055376555	0.871549394	0.874597819	0.654898429	0.164566937	0.16838216
0.872575775	0.873761115	0.055341136	0.165519578	0.168687158	0.654754332
0.04136257	0.041090756	0.041852544	0.692968105	0.691928911	0.692175483
0.103236225	0.078837943	0.856479317	0.64384483	0.623361736	0.149608112
0.410154273	0.877457674	0.480830667	0.517491115	0.170455923	0.55946605
0.415559974	0.877656712	0.462123765	0.589694504	0.170692733	0.626230958
0.288655486	0.825843057	0.286780567	0.585974495	0.119062464	0.61154353
0.027325696	0.876810281	0.884205296	0.695214991	0.171025546	0.175738463
0.87715287	0.459025287	0.422030225	0.170288533	0.590547052	0.554623239
0.473095323	0.403714653	0.876698237	0.625976969	0.586041155	0.170470143
0.405616401	0.877296125	0.480799917	0.532766683	0.170557875	0.575070379
0.877590173	0.876219729	0.876790121	0.170659355	0.170412473	0.170621735
0.825133093	0.148416513	0.130774827	0.11918873	0.603229953	0.575757367
0.882147815	0.040850446	0.874393749	0.174585077	0.692896808	0.170565968
0.401077356	0.876644909	0.480328081	0.548291764	0.17002288	0.590097013
0.877882736	0.448924834	0.439863185	0.17082807	0.559860196	0.527588466
0.861918705	0.844723705	0.137236552	0.154583998	0.148930513	0.566178169
0.435779873	0.877224539	0.448094113	0.542861177	0.170529951	0.575801447
0.462137592	0.415576008	0.877686323	0.626252754	0.589631245	0.170761249
0.866907178	0.866746958	0.095484522	0.159483427	0.162729685	0.617456319
0.877609142	0.877929003	0.877415624	0.170723824	0.170793881	0.170804708
0.480759292	0.401440691	0.877517598	0.590039595	0.548258676	0.170500543
0.103491797	0.841378495	0.125136939	0.598552969	0.135290679	0.623407824
0.111392249	0.8645267	0.855506008	0.59205521	0.156231596	0.15517555
0.846043967	0.147463035	0.859276178	0.150061527	0.562631099	0.152402085
0.866867573	0.865628192	0.081943601	0.1596364	0.161673913	0.621137604
0.87520059	0.065240784	0.871488764	0.168381543	0.652784354	0.1645629
0.497008578	0.512421768	0.877472373	0.559547716	0.53139094	0.170609443
0.867180689	0.104027444	0.866593143	0.162641404	0.61540946	0.158958525
0.88282188	0.013708118	0.875079665	0.175009624	0.697417478	0.170435257
0.405823893	0.877355513	0.480633464	0.53273431	0.170603397	0.57503833
0.855924863	0.091253377	0.074185492	0.149440723	0.645389519	0.625720508
0.864833853	0.076980607	0.86728628	0.161025954	0.622806869	0.159829539
0.348232067	0.825374993	0.34173906	0.583710725	0.11847092	0.613121174
0.758036304	0.760014123	0.758162703	0.383784981	0.385223245	0.384478653
0.151688344	0.141145153	0.097438291	0.619022079	0.616732477	0.615180064
0.343401539	0.825285033	0.332219683	0.582218635	0.118455403	0.613209932
0.081982381	0.856080913	0.068519415	0.631819331	0.149034437	0.652787128
0.865727128	0.087709521	0.866802638	0.161863227	0.619339222	0.159304613
0.027323052	0.875801361	0.883530301	0.695149891	0.170808856	0.175505698
0.432801562	0.877706156	0.448109395	0.558281687	0.170828908	0.591380523
0.446286931	0.877264994	0.437044634	0.546056079	0.170536804	0.575732494
0.054664882	0.054293618	0.881003265	0.690093839	0.690561541	0.175256697
0.877967104	0.438972709	0.438967988	0.170837399	0.626707682	0.596406325
0.075982336	0.871592159	0.874622488	0.650512174	0.164618016	0.168518147
0.113729181	0.100228304	0.841956029	0.625901994	0.600565478	0.13517908
0.825548023	0.147864286	0.131317745	0.119084751	0.604686256	0.575295022
0.047131511	0.871368403	0.874145611	0.656920564	0.164501706	0.16802143
0.877190831	0.447825508	0.432893216	0.170289672	0.590960589	0.558562636
0.864904463	0.855959456	0.116591235	0.156087283	0.156032936	0.590389416
0.42551919	0.877204568	0.4590816	0.539482634	0.170529614	0.575572637
0.432496442	0.877423193	0.448120771	0.558412863	0.170432455	0.591051207
0.054640702	0.054292222	0.881941231	0.689924173	0.690601335	0.175349276
0.131211348	0.82582954	0.149097691	0.575290833	0.118965243	0.603716124
0.445431884	0.877884288	0.438164832	0.562172371	0.170497371	0.591560239
0.103250038	0.841876385	0.124822114	0.598631764	0.135245611	0.623643795
0.883254381	0.013707977	0.876203514	0.174987475	0.697412712	0.17041852
0.415524774	0.877587865	0.462090004	0.58969374	0.170667593	0.62620131
0.070992685	0.051388123	0.083179262	0.673468855	0.672526336	0.674684037
0.404178798	0.877637031	0.473569228	0.586220157	0.170796099	0.625867095
0.445003461	0.877493882	0.438500545	0.562933954	0.170661588	0.592588421
0.121823064	0.297981334	0.209233968	0.622448883	0.62701567	0.623250175
0.073811834	0.855595996	0.08247575	0.628090739	0.149430756	0.648173527
0.877246398	0.440307455	0.443713757	0.170509625	0.608077608	0.577810841
0.083011673	0.080580661	0.868998841	0.67571256	0.663114667	0.162522629
0.092628529	0.08045666	0.869081735	0.667826741	0.656866378	0.162713259
0.878184451	0.470545486	0.420150267	0.170685532	0.559741662	0.52102388
0.111385733	0.865549192	0.855979703	0.592264264	0.156313048	0.155550205
0.864834173	0.077129561	0.867239999	0.161061689	0.622862243	0.159866174
0.860967767	0.845283111	0.14177293	0.15381623	0.149940967	0.564511117
0.039825095	0.046462726	0.073560441	0.677557965	0.676642537	0.678080565
0.876166197	0.884116862	0.013707385	0.17085725	0.176095893	0.697399301
0.062426362	0.062482004	0.06237717	0.63825201	0.638391489	0.638538497
0.080228713	0.869043381	0.093594216	0.658316026	0.162584084	0.670379076
0.027633782	0.881820935	0.027713524	0.695245638	0.175354094	0.695146327
0.865006827	0.854733771	0.107672562	0.156275633	0.154350759	0.593680364
0.104119795	0.866968761	0.867189733	0.615641921	0.159331253	0.162860487
0.233711466	0.245996543	0.826092443	0.607080719	0.580825943	0.119073197
0.877432227	0.462010426	0.415448709	0.170675969	0.62617853	0.589701274
0.841344516	0.083372892	0.102215085	0.134787122	0.631363825	0.606209797
0.825728596	0.149027458	0.13185355	0.11921659	0.604657456	0.575398391
0.882235409	0.027848268	0.027695786	0.175415478	0.695092597	0.69514582
0.864537455	0.854889847	0.111456305	0.155789844	0.154684895	0.59190233
