Va	Vb	Vc	Ia	Ib	Ic
0.877424832	0.469816603	0.415587219	0.170590355	0.575621084	0.536323065
0.869102007	0.098068725	0.08144457	0.162758443	0.667789907	0.654277158
0.844612988	0.141811657	0.861198162	0.149969547	0.564578077	0.154152428
0.066596522	0.078351771	0.854961044	0.654004603	0.634135843	0.148642095
0.877050577	0.470192344	0.411810019	0.170198381	0.589689433	0.551184567
0.877269895	0.43703226	0.446306499	0.170596064	0.575697269	0.546043915
0.103067978	0.078841327	0.856040976	0.643190498	0.623677449	0.149676569
0.462529517	0.415963173	0.878465611	0.626170873	0.589750359	0.170593419
0.877340279	0.47402096	0.409805535	0.170534896	0.609332555	0.569441296
0.079214997	0.868941237	0.088857566	0.664327368	0.162653698	0.674173517
0.014412044	0.881304814	0.01453056	0.69743746	0.175348445	0.697643922
0.877434589	0.450422385	0.426997759	0.170492783	0.626367306	0.593212924
0.153941674	0.859904372	0.847520129	0.560817153	0.152183436	0.151366261
0.410268799	0.877898252	0.481133454	0.517528435	0.170693832	0.559440602
0.060097876	0.05997546	0.059943195	0.639823994	0.640601434	0.639889018
0.575804769	0.877380917	0.537218047	0.533572164	0.170571078	0.562634886
0.343476383	0.825320017	0.330265954	0.583093808	0.118451802	0.613434223
0.415561701	0.877660104	0.462125436	0.589695288	0.170692273	0.626230875
0.437100961	0.446339451	0.877373956	0.575808999	0.546045258	0.170569984
0.047179818	0.872028259	0.874433687	0.656928529	0.164744385	0.168366584
0.860968924	0.844818791	0.141737902	0.153625534	0.149663426	0.56457308
0.041199974	0.040949286	0.881458509	0.692533913	0.692890097	0.175255558
0.825507589	0.135489004	0.126525433	0.118995074	0.603608105	0.576165877
0.059463672	0.064443169	0.063395185	0.65218081	0.651494629	0.651762172
0.856905119	0.068744516	0.072114541	0.149485439	0.650176578	0.628936936
0.841795109	0.092707354	0.099671233	0.134798263	0.629621168	0.604345328
0.856865201	0.111465241	0.865988527	0.155543746	0.592161262	0.156741075
0.065220741	0.871805965	0.874762863	0.652925733	0.164675075	0.168837712
0.864539565	0.854888719	0.11145699	0.155790597	0.154685164	0.591902093
0.869134254	0.076865889	0.080073576	0.162545481	0.676747461	0.664440279
0.877610794	0.438794844	0.438790107	0.170855515	0.626587374	0.596439098
0.422057741	0.877449614	0.458986529	0.555296983	0.170337812	0.591112776
0.069662942	0.064999896	0.084665036	0.670502353	0.670515337	0.672743779
0.100191309	0.841848704	0.114082896	0.600483409	0.134922907	0.625602947
0.859682917	0.84644658	0.15394098	0.152323327	0.151442815	0.560885718
0.877269477	0.45911051	0.422075776	0.170353646	0.590768186	0.554955075
0.041137997	0.040881194	0.881769008	0.692626227	0.693006174	0.175198138
0.419903856	0.877865412	0.470463831	0.52110477	0.170816322	0.559723597
0.874863046	0.065249378	0.871301666	0.168658114	0.65269266	0.164851914
0.469713472	0.411389522	0.877011806	0.59047805	0.552084981	0.169998406
0.876270869	0.883908621	0.027326356	0.170592235	0.175763417	0.695201588
0.865344504	0.077103999	0.868020486	0.161409776	0.623337386	0.159953638
0.486884998	0.401208504	0.877366584	0.607627656	0.564661481	0.170501367
0.014300943	0.881173708	0.014307256	0.697479554	0.175516732	0.696764189
0.871334129	0.874609819	0.07596165	0.164408822	0.16826802	0.650454636
0.04553339	0.048256276	0.053756925	0.656044173	0.656120556	0.656057439
0.028083042	0.027464517	0.028358236	0.695083783	0.695069267	0.695127611
0.867263637	0.866498332	0.095437961	0.159495156	0.162692465	0.61734578
0.085797969	0.869131716	0.082330056	0.664751229	0.16234761	0.677169898
0.877206471	0.440433951	0.443947039	0.170610472	0.608246306	0.577763856
0.856281507	0.111469623	0.865210464	0.155458414	0.592155859	0.156756853
0.403057127	0.877392692	0.485611371	0.56474959	0.170534994	0.607399265
0.874731201	0.076026466	0.871388082	0.168507272	0.650511433	0.164571067
0.43271389	0.877414061	0.447878164	0.558047281	0.170781782	0.590906092
0.848228788	0.846603247	0.847681996	0.258207983	0.257355522	0.25710502
0.486162274	0.40211954	0.877237269	0.607759137	0.564828412	0.170503883
0.41030003	0.877835848	0.48105459	0.517511015	0.17089301	0.559493426
0.859793936	0.846100087	0.147443451	0.1531105	0.150752572	0.562531763
0.04464416	0.872427889	0.874412286	0.659189547	0.165640059	0.168411999
0.231621844	0.22660012	0.825501085	0.6058168	0.58180321	0.119015147
0.476131724	0.413108091	0.877345108	0.610551502	0.570860963	0.170526832
0.027540738	0.881694062	0.027561377	0.695196341	0.175218433	0.694569739
0.882132372	4.8549E-06	4.87173E-06	0.175440607	0.699327857	0.699246531
0.438392983	0.444557217	0.877415245	0.592533529	0.562310327	0.170459813
0.881597082	0.041066935	0.040908714	0.175486874	0.692808902	0.692901277
0.480578285	0.405761171	0.877302309	0.574963923	0.532484283	0.170527051
0.103167401	0.099200939	0.841626634	0.627701631	0.602540433	0.134993487
0.415571804	0.87767962	0.462134895	0.589697807	0.170689819	0.626228517
0.877415764	0.483570113	0.400426748	0.170588449	0.608638979	0.566075796
0.874281019	0.047232174	0.870382315	0.168203753	0.65702928	0.164645804
0.841703849	0.092722751	0.099629414	0.134797981	0.629521768	0.60435764
0.882875855	0.027326966	0.876541571	0.175555492	0.695223793	0.171014063
0.868634959	0.076523039	0.079695125	0.162577321	0.676310438	0.664312506
0.876593275	0.883157952	0.013706834	0.17043368	0.175356983	0.697322708
0.873034841	0.874560758	0.065167898	0.164857692	0.16873256	0.652907097
0.878405283	0.459987714	0.430053042	0.170844201	0.559779572	0.524549926
0.854935679	0.079681869	0.071740151	0.148905963	0.647841903	0.627945548
0.882379801	0.041066991	0.040808585	0.175444047	0.692517621	0.692893927
0.877375543	0.448090016	0.435861851	0.170624916	0.575746045	0.542886215
0.082653765	0.079764408	0.868753576	0.675229092	0.663613611	0.162586488
0.88254469	0.013706346	0.87636212	0.175234739	0.697320947	0.17060906
0.878268668	0.481187475	0.410610186	0.170922667	0.559633922	0.517409372
0.044529363	0.872521265	0.873977038	0.659292141	0.164951729	0.167919005
0.092688085	0.099623085	0.841391361	0.629575877	0.604386031	0.134829258
0.070903066	0.065168445	0.085474002	0.669998912	0.670822792	0.671835294
0.877342053	0.45901241	0.425578552	0.170579181	0.575652323	0.53962917
4.91964E-06	4.86917E-06	0.88209418	0.699244785	0.699370684	0.175084437
0.429629121	0.877426757	0.459448235	0.524348377	0.170817831	0.559857698
0.129394886	0.108471615	0.151214973	0.615450056	0.613187169	0.614665243
0.877430667	0.473463387	0.404078224	0.170622417	0.625922564	0.5860254
0.43889486	0.877820881	0.438899553	0.596391655	0.170924658	0.626521082
0.432803349	0.877820832	0.448203137	0.558310661	0.17056725	0.591153469
0.45484962	0.435949752	0.877380985	0.609739277	0.576494242	0.170594177
0.877498112	0.480866868	0.410159775	0.170927225	0.559609775	0.517410322
0.881581673	4.87601E-06	4.89985E-06	0.175398874	0.699162223	0.699306534
0.054629637	0.054244314	0.881905566	0.690009963	0.690185674	0.175257091
0.447746002	0.4324396	0.877033634	0.590814542	0.558338724	0.170111954
0.841558735	0.083396183	0.102228487	0.134864878	0.631228735	0.6062972
0.102217812	0.841608307	0.083417006	0.606119112	0.134718898	0.631443317
0.875081097	0.076016555	0.87114879	0.168844074	0.65049906	0.164516289
0.421937426	0.877148456	0.458830334	0.555109328	0.170151773	0.590744247
0.438176373	0.444614362	0.877302587	0.592603559	0.563130935	0.17034458
0.863370967	0.856646279	0.123162916	0.155694345	0.15646157	0.588425814
2.77778E-06	2.85271E-06	2.80611E-06	0.699163516	0.699043132	0.699508232
0.841023415	0.083312524	0.102218831	0.134817577	0.63126018	0.605949557
0.855626525	0.065393266	0.07918586	0.148810219	0.652548262	0.631528917
0.473064027	0.403688314	0.876640017	0.625882175	0.586022579	0.170469342
0.083268938	0.299644244	0.27863886	0.620079782	0.620572277	0.617887677
0.825877277	0.18384824	0.187112752	0.118788202	0.610041045	0.580034211
0.841463227	0.102868607	0.099107579	0.13499513	0.62782482	0.602818169
0.856020009	0.07945199	0.071861766	0.149301051	0.647801543	0.627211395
0.873272454	0.876229333	0.055332331	0.165581436	0.168725286	0.654793417
0.443364855	0.447991165	0.877374139	0.606602776	0.576872486	0.170590077
0.86415276	0.855632242	0.123150239	0.155949375	0.156727654	0.588403253
0.877311351	0.450362818	0.42693394	0.170565582	0.626366818	0.593250453
0.080022875	0.869018321	0.092694204	0.658279048	0.162605691	0.670053408
0.848612807	0.846738982	0.847411972	0.257158556	0.257107771	0.256611046
0.424381922	0.877405745	0.465137684	0.573180806	0.170546074	0.609862929
0.29229378	0.825836446	0.287095294	0.584779475	0.119028902	0.612024652
0.841718115	0.103022274	0.099042149	0.134998766	0.627682118	0.602588479
0.058399545	0.037941509	0.076477019	0.679437874	0.678804951	0.680169057
0.062470774	0.062479816	0.06243694	0.638255614	0.638400655	0.638531103
0.864882183	0.85572475	0.111452155	0.156271212	0.155513735	0.592225553
0.878148768	0.485130975	0.39326935	0.170717935	0.625260109	0.582661311
0.445066831	0.877507715	0.438486481	0.562506864	0.170818057	0.592221962
0.877359006	0.465681035	0.490889464	0.170640775	0.56219436	0.533296307
0.272832725	0.267890721	0.826740352	0.610943658	0.582220671	0.118695253
0.881435264	4.88113E-06	4.90665E-06	0.175394115	0.699121844	0.699330907
0.085782679	0.869135328	0.08232619	0.66472716	0.162345147	0.677172054
0.12311564	0.863377129	0.857348843	0.58835442	0.155189781	0.156392086
0.429537204	0.877389634	0.459502211	0.52442374	0.170599639	0.559723954
0.87476241	0.065241712	0.872340891	0.168515774	0.652733239	0.164761654
0.0823199	0.2806127	0.263620605	0.620301654	0.618165289	0.618849332
0.86891905	0.09112548	0.077869305	0.162690731	0.671335808	0.659325036
0.111503059	0.863218901	0.854069397	0.59210703	0.155995862	0.155104959
0.878783296	0.460261132	0.430155267	0.170858191	0.559815982	0.524391127
0.046086195	0.048156016	0.052542587	0.657968137	0.658957661	0.659705619
0.877459487	0.437848635	0.443640884	0.170570283	0.59076181	0.561146293
0.083421026	0.102154789	0.841552203	0.630763281	0.605930258	0.134731282
0.06521653	0.870806392	0.873621827	0.652870041	0.164660537	0.168294871
0.86453799	0.854889557	0.11145657	0.155790125	0.154684983	0.591902255
0.027594595	0.881855883	0.027716824	0.695286144	0.175355451	0.695158181
0.107811663	0.864907006	0.855089971	0.593765347	0.156589175	0.154510685
0.079405091	0.869130299	0.09332725	0.659296435	0.162646506	0.670425137
0.081729293	0.079119147	0.868789829	0.675200655	0.663384238	0.162568928
0.051923825	0.053485703	0.058228187	0.653996855	0.654074232	0.653904782
0.877624814	0.470354988	0.419777391	0.170757183	0.559652369	0.520961373
0.13720708	0.86114648	0.843199954	0.566274215	0.15407125	0.148731843
0.877266562	0.448692479	0.439474891	0.17050779	0.559758885	0.527727836
0.87734524	0.459042242	0.42556321	0.170584399	0.575649202	0.539634048
0.013911291	0.014412349	0.013932393	0.696982959	0.697497511	0.697550728
0.104200019	0.866838488	0.866625698	0.615111489	0.159168584	0.162879756
0.866494953	0.865666836	0.104012561	0.159292454	0.162504431	0.615207969
0.874577709	0.076025322	0.871624455	0.16850436	0.650491668	0.164539064
0.10288706	0.07882688	0.855436249	0.643796584	0.623765894	0.149250875
0.086313109	0.868946525	0.083111761	0.665106024	0.162493592	0.67741825
0.077754769	0.081018581	0.868828385	0.678200597	0.666037648	0.162560684
0.458987376	0.421951713	0.87738257	0.590778228	0.55509388	0.170357746
0.882138269	0.054639121	0.054226273	0.175794867	0.690227627	0.690320213
0.486927047	0.401585161	0.877424552	0.607424184	0.564388808	0.170510892
0.054717355	0.05519726	0.05464939	0.690422582	0.690381947	0.690634236
0.485545656	0.528325523	0.876998561	0.560077671	0.531867238	0.170924712
0.014715985	0.880845888	0.014866985	0.697286533	0.175348566	0.696767835
0.868794748	0.08299922	0.075159769	0.162665485	0.673388447	0.66169545
0.068844931	0.071291398	0.85556286	0.6501026	0.629390873	0.149046454
0.045897732	0.048976895	0.052726268	0.657984938	0.658057673	0.659781594
0.054551965	0.055352796	0.05491944	0.690246827	0.690096272	0.690364848
0.137167549	0.861629764	0.84374901	0.566137296	0.154220527	0.148701696
0.877319403	0.44809634	0.435839993	0.170582032	0.575621189	0.542741595
0.825774268	0.230635484	0.220930593	0.118825465	0.610912377	0.5822923
0.404103474	0.87747947	0.473487368	0.586231277	0.170790999	0.625862726
0.859926003	0.845890978	0.153950454	0.151729787	0.150912223	0.560988419
0.044913963	0.049201687	0.051551946	0.657821124	0.658322095	0.658487601
0.87722792	0.47031232	0.411798043	0.170386566	0.590659596	0.551626827
0.102146896	0.841647443	0.083430874	0.606168432	0.134738474	0.631384279
0.057859541	0.045111111	0.076608239	0.675514522	0.674521827	0.676389871
0.411639985	0.877457902	0.469902967	0.551463367	0.17049562	0.590649291
0.0411682	0.040880717	0.881235204	0.692368991	0.69311369	0.175183311
0.153945827	0.859873488	0.846902658	0.560828023	0.152715533	0.151816878
0.070685746	0.051518596	0.08289079	0.672898428	0.672447215	0.674345146
0.404146389	0.877565319	0.473529723	0.586201323	0.170668106	0.62572057
0.859355896	0.845737944	0.15399543	0.15219888	0.151230241	0.560756019
0.872230434	0.873927723	0.055336378	0.164559804	0.167685113	0.654729572
0.146730529	0.132717946	0.825878881	0.601358427	0.571886683	0.119895736
0.871577693	0.875280727	0.065183861	0.164605532	0.168926365	0.652672286
0.04523502	0.871937524	0.873769627	0.659029249	0.165301684	0.168173625
0.070387601	0.072042836	0.074962305	0.650109889	0.649612778	0.649620435
0.857396657	0.130402937	0.86280643	0.15654794	0.58652064	0.15432513
0.027555847	0.881065269	0.027757947	0.695169779	0.175043843	0.694522741
0.841700313	0.092710117	0.099594717	0.134785185	0.629491815	0.604366278
0.876160506	0.884150515	0.054280699	0.171373359	0.175882956	0.690606028
0.877324785	0.43712667	0.444128379	0.170415922	0.591507401	0.56194756
0.841357535	0.083345761	0.102237791	0.1348493	0.631120319	0.605913409
0.841797752	0.092705238	0.099741881	0.134806613	0.629656781	0.604291801
0.43944925	0.877029295	0.448505691	0.527611748	0.17068807	0.559763577
0.153955062	0.860052488	0.845928551	0.560894849	0.152626065	0.151814673
0.841721465	0.092669099	0.099672751	0.13479555	0.629596141	0.604276426
0.214154362	0.223669233	0.824992767	0.60768307	0.582148451	0.119129532
0.100315311	0.841834972	0.114068416	0.600493625	0.134926161	0.625572735
0.874363255	0.076027273	0.871370207	0.168506167	0.650480162	0.164556014
0.41554508	0.877623394	0.462105402	0.589655297	0.17076685	0.626162765
0.874432856	0.065242093	0.871344829	0.168537273	0.652749461	0.164752233
0.881960276	4.78754E-06	4.89702E-06	0.17548454	0.699319929	0.699140195
0.874448157	0.076028025	0.87135094	0.168488453	0.650479815	0.164525636
0.04450835	0.872522693	0.874000553	0.659195153	0.165731712	0.168388705
0.415647906	0.87741159	0.469938899	0.536202511	0.170574441	0.575466267
0.014123916	0.014124572	0.882393526	0.697216485	0.696781246	0.175377365
0.045627479	0.048286456	0.054332718	0.655382064	0.656490137	0.655476845
0.438761793	0.877554504	0.438766494	0.596391693	0.170875553	0.626487576
0.466032932	0.423919679	0.877373364	0.608773255	0.572065198	0.170556068
0.881564922	0.041098353	0.040894748	0.175452856	0.692795823	0.692916435
0.856114363	0.130400394	0.861619128	0.156523751	0.58648796	0.154359671
0.871532282	0.875365138	0.065180376	0.164613213	0.168925286	0.652696201
0.865829047	0.081512602	0.867500154	0.161404393	0.621175312	0.159630573
0.43869553	0.438690806	0.877412471	0.626641878	0.596359551	0.170686199
0.497008589	0.512421775	0.877472373	0.559547712	0.53139094	0.170609443
4.90467E-06	4.87743E-06	0.881438857	0.699409292	0.699143657	0.17502754
0.04559153	0.048365394	0.054072778	0.656071961	0.656083814	0.656081063
0.409992892	0.87720944	0.480747713	0.517571008	0.170502203	0.559325044
0.091322195	0.07807649	0.868849823	0.668274521	0.657141276	0.162658425
0.080420587	0.856230981	0.104280881	0.623627129	0.149409669	0.643654123
0.039799102	0.046559996	0.073630867	0.677350577	0.676641893	0.677756243
0.841634578	0.125234832	0.103705705	0.135295519	0.623268178	0.597870521
0.877376585	0.448091388	0.435858022	0.170624937	0.575749564	0.54288711
0.85595646	0.107571807	0.865076269	0.155185264	0.593663348	0.157087546
0.099714529	0.841614411	0.092675647	0.604572924	0.134808896	0.629791215
0.058702956	0.038194868	0.076934611	0.679632889	0.679015948	0.680232968
0.855463312	0.102833177	0.079040782	0.149278959	0.643590112	0.623374054
0.856818095	0.068713427	0.072089249	0.149494382	0.650224889	0.628587011
0.877878677	0.470419472	0.419972334	0.170659511	0.559759403	0.520976295
0.88157134	0.041120475	0.040866415	0.175441518	0.692782818	0.692940871
0.465717642	0.424577539	0.877376455	0.608786618	0.572172418	0.170598428
0.069958695	0.065382143	0.084870791	0.67042912	0.671039153	0.672702278
2.78427E-06	2.94698E-06	2.85611E-06	0.699307941	0.698857379	0.698613947
0.079520389	0.071537345	0.855159827	0.647925955	0.627716507	0.148939639
0.877244692	0.473386733	0.41024234	0.170535331	0.609159545	0.569308082
0.875358428	0.884671176	5.4978E-06	0.170380172	0.1758828	0.699612706
0.877469729	0.480415693	0.405907763	0.170583826	0.575400456	0.532937638
0.40443594	0.878159983	0.473834239	0.586223212	0.170819696	0.625882941
0.411485881	0.877237581	0.469835334	0.55164201	0.17021635	0.590539207
0.054581854	0.054211449	0.882402878	0.689920981	0.690539453	0.175441354
0.873309741	0.876328685	0.055313146	0.165528988	0.168735007	0.654807912
0.054499163	0.055160074	0.054927235	0.690320767	0.690296117	0.690894092
0.103728377	0.841849658	0.125094587	0.598612927	0.135383037	0.623576777
0.410217007	0.877502789	0.480818184	0.517415483	0.170777168	0.559444153
0.881129161	4.83915E-06	4.8268E-06	0.175394321	0.699083869	0.699486704
0.860529059	0.845164807	0.147466493	0.153252421	0.150770443	0.56299306
0.877187972	0.45947444	0.42935947	0.170776045	0.559771301	0.524485932
0.505032063	0.504904923	0.877687814	0.561283368	0.533237493	0.170841659
0.448775177	0.439593489	0.877442949	0.55973312	0.527853115	0.170582589
0.1028752	0.841871034	0.124948975	0.598593759	0.135144659	0.623582896
0.881213409	4.84488E-06	4.82105E-06	0.175399318	0.699118074	0.699580679
0.826167495	0.234049918	0.247995756	0.118934156	0.612965352	0.583638938
0.871068367	0.875916316	0.065169811	0.165014465	0.169312953	0.652718541
0.013946444	0.014389043	0.013851118	0.696998723	0.696832284	0.696175356
0.077204998	0.080710722	0.868998143	0.678452628	0.665940497	0.162492373
0.054270293	0.876986753	0.884578511	0.690461938	0.171262231	0.175521368
0.872473588	0.87553884	0.055323659	0.165280958	0.169118951	0.655019067
0.057799415	0.038479354	0.076642569	0.679830382	0.679025054	0.680211854
0.083433167	0.102227059	0.841785906	0.631202793	0.605808327	0.13472024
0.077020214	0.867409897	0.865612867	0.623000853	0.159919913	0.161479761
0.87731103	0.469827206	0.415483008	0.17060562	0.575389975	0.536083809
0.866749759	0.86611556	0.081794571	0.159192993	0.161727009	0.621211142
0.098781498	0.079992967	0.869019378	0.667324958	0.656884214	0.16256536
0.087767354	0.86704647	0.865714469	0.619621136	0.159704109	0.162394383
0.065240512	0.872300649	0.875353069	0.652833592	0.165168887	0.168613983
0.825795926	0.253325026	0.254345426	0.118966586	0.612573598	0.583807561
0.874659092	0.047263578	0.872333244	0.168269218	0.657002745	0.16470238
0.056688389	0.044809105	0.075516416	0.67563741	0.674590355	0.676175205
0.876132682	0.883808147	0.02732344	0.170422424	0.175723288	0.695127362
0.073152716	0.855308554	0.071454476	0.629342163	0.149565843	0.649534969
0.480870785	0.410281726	0.877626728	0.559402987	0.517536704	0.170670706
0.84163315	0.083351956	0.102229453	0.134855737	0.631239497	0.605930838
0.859294435	0.845602192	0.153977047	0.15224376	0.151393063	0.560956746
0.079661526	0.071584041	0.85497917	0.647976134	0.627649503	0.148927443
0.459775216	0.429776556	0.877921321	0.559885645	0.524385342	0.17064011
0.865191696	0.077057877	0.866665785	0.161122957	0.622931106	0.15949573
0.864175759	0.8545994	0.107657987	0.156329207	0.154189918	0.59388565
0.862092624	0.855362158	0.123154648	0.155091392	0.156161151	0.58843459
0.874725156	0.047239597	0.871028645	0.168579232	0.65668721	0.164243917
0.425648779	0.877322419	0.459088423	0.539463737	0.170503727	0.575593128
0.111389668	0.864744756	0.855779278	0.592260092	0.156292731	0.155506073
0.872012771	0.874931094	0.046055502	0.165128122	0.168600825	0.658048087
0.103471261	0.841311402	0.12502059	0.598431119	0.135243554	0.623353823
0.8410564	0.083353742	0.102225855	0.134830611	0.631262307	0.605947363
0.1000491	0.081394973	0.869233217	0.66874286	0.657717251	0.16261135
0.12309918	0.863184543	0.856292312	0.588488686	0.15516054	0.156269298
0.446051687	0.877355419	0.44452016	0.576444966	0.170561493	0.606944922
0.427013261	0.877465823	0.450437714	0.593042386	0.170486649	0.626488834
0.276484018	0.279323759	0.826068507	0.610929797	0.583040905	0.119046536
0.865863443	0.856389364	0.111444417	0.156248617	0.155359234	0.592174236
0.142734101	0.825833002	0.146367764	0.575723769	0.118887717	0.602543485
0.404249885	0.877783025	0.473643939	0.586218486	0.170855599	0.625905074
0.070375299	0.071536599	0.074192554	0.649853734	0.650215928	0.650647509
0.867543118	0.866809641	0.095419955	0.1592465	0.162558316	0.617780264
0.079298559	0.868770868	0.088267762	0.662378728	0.162693488	0.674470373
0.877304055	0.448063852	0.435852358	0.170585452	0.575656286	0.542775086
0.424306913	0.877345138	0.465374725	0.572907541	0.170554255	0.609540001
0.047155623	0.871583668	0.874500232	0.656848142	0.164683519	0.168281157
0.855632567	0.07950463	0.071895886	0.149088902	0.647844998	0.627400275
0.147452396	0.858926547	0.84583251	0.562866276	0.152543448	0.150371912
0.131601143	0.825718869	0.148771434	0.575195366	0.118855235	0.603974058
0.854961591	0.111427015	0.863434115	0.154739736	0.592262002	0.155695711
2.75973E-06	2.93566E-06	2.8976E-06	0.699282132	0.698791503	0.698815921
0.88166657	4.83111E-06	4.84689E-06	0.175403979	0.699187295	0.699283466
0.868829111	0.076016565	0.079072746	0.162524191	0.676440751	0.664396212
0.405832446	0.877309505	0.480589417	0.532754792	0.17055954	0.575049207
0.447662341	0.432369395	0.876887578	0.590864857	0.558311159	0.170369225
0.84791169	0.846440221	0.847631364	0.257795274	0.257056579	0.257449215
0.855713091	0.116692233	0.863101568	0.155852444	0.590380882	0.155929124
0.070307221	0.065160678	0.084816182	0.670023912	0.670804203	0.671867962
0.855007759	0.111444201	0.864629044	0.154685967	0.59218864	0.15571187
0.873859054	0.048981968	0.872502637	0.168331645	0.659031776	0.165500728
0.868839987	0.090202801	0.077269054	0.162680117	0.671387426	0.659296363
0.855266934	0.064132011	0.077915645	0.148847231	0.653398076	0.632460636
0.092764157	0.099647303	0.841387467	0.629535622	0.604433785	0.134889005
0.455050974	0.435799955	0.877461019	0.61078493	0.576870857	0.170557492
0.028341002	0.028229059	0.881449642	0.694703093	0.695302625	0.175235562
0.470457144	0.419877479	0.87782448	0.559474133	0.52114505	0.17051035
0.100064769	0.841833114	0.11402698	0.600545202	0.134956737	0.625520018
0.08184148	0.0799231	0.868958825	0.67526517	0.662527004	0.162504091
0.876849008	0.883575685	0.040856367	0.170884167	0.175937436	0.693070896
0.079146753	0.868976709	0.093005245	0.659283949	0.162661355	0.670421565
0.054266369	0.881522009	0.054653805	0.690606362	0.175371793	0.690003566
0.872686709	0.87576246	0.047448023	0.165346435	0.169055033	0.657115345
0.103105119	0.078953714	0.856017272	0.643580321	0.623347169	0.14971429
0.068855684	0.071355662	0.855121813	0.649826366	0.629705866	0.148950578
0.855797362	0.11145891	0.865021101	0.155426134	0.592140047	0.156799887
0.884846612	0.027329072	0.877014943	0.176323975	0.695291889	0.170703658
0.411486973	0.877252694	0.469843293	0.551641681	0.170214933	0.590539644
0.066303925	0.07831281	0.855663062	0.653496252	0.633281891	0.149493772
0.041102092	0.881775841	0.041629589	0.692817862	0.175161826	0.692913745
0.055296906	0.872872682	0.87442997	0.654749908	0.165299226	0.168803041
0.095380062	0.867022317	0.866316156	0.617399821	0.159238339	0.162376473
0.874553143	0.065245929	0.871145111	0.168263777	0.652769408	0.164356185
0.485036124	0.393180194	0.877964601	0.62521947	0.582603094	0.170637512
0.410429097	0.877991371	0.481080879	0.517530549	0.170798907	0.559505898
0.074902893	0.074971969	0.075448852	0.634396331	0.63433364	0.634431985
0.09971918	0.081218406	0.869183776	0.669073937	0.657146547	0.162697835
0.08178158	0.856052355	0.068088808	0.631606287	0.149084865	0.652791781
0.446336342	0.877340248	0.437070406	0.546068095	0.170592837	0.575723568
0.882787379	0.054275415	0.875814659	0.175013421	0.690517198	0.170793924
0.419843386	0.877731778	0.470397801	0.520970336	0.170807377	0.559747226
0.027323253	0.876456457	0.883325915	0.695154652	0.170806029	0.175483128
0.476021103	0.413051241	0.877322766	0.610436932	0.570824389	0.170527973
0.07974052	0.071559191	0.855671209	0.648169623	0.627295835	0.14903722
0.882583534	0.040847757	0.876136462	0.174528126	0.692855771	0.170548522
0.041979385	0.041051564	0.04252365	0.69279387	0.69172611	0.692371452
0.878025958	0.449059828	0.439870226	0.170672834	0.559983805	0.527593392
0.127442887	0.11215864	0.145616156	0.616251962	0.614981442	0.616202593
0.066646757	0.078527295	0.855807414	0.653472909	0.63318688	0.149599022
0.044672584	0.872690253	0.874848194	0.659193446	0.165634178	0.168413842
0.279347848	0.300608972	0.825854157	0.613948838	0.584113041	0.118723661
0.393196674	0.878015808	0.485068685	0.582635976	0.170898311	0.625242573
2.77578E-06	2.90382E-06	2.84881E-06	0.699246483	0.699318222	0.69952526
0.424836213	0.877437984	0.464842226	0.573150647	0.170554036	0.60987227
0.051884263	0.053503017	0.058086081	0.654026218	0.654133998	0.654135158
0.29761649	0.826003476	0.295987768	0.591694776	0.118843989	0.617586232
0.089980652	0.075890097	0.869211495	0.66965657	0.659965324	0.162590087
5.49149E-06	0.875697281	0.884641267	0.699338325	0.170527479	0.175974657
0.450328606	0.42689819	0.877241425	0.626401993	0.593236836	0.170375131
0.425670195	0.877429089	0.459160601	0.539380609	0.170581377	0.575451036
0.860676682	0.843193226	0.137242632	0.153832123	0.148608712	0.566173208
0.081731114	0.869220145	0.099781274	0.657179143	0.162644718	0.66951511
0.855705669	0.10757017	0.86501081	0.155277322	0.593753171	0.157081185
0.465724476	0.424619237	0.877383075	0.608828484	0.57218539	0.170593948
0.081855472	0.855908211	0.068818297	0.633561378	0.148942011	0.654101568
0.013705179	0.876151067	0.881720464	0.69727208	0.170732806	0.175159575
0.877461091	0.480559388	0.405667764	0.170523734	0.575008154	0.5326234
0.447832288	0.432517529	0.877214947	0.590787674	0.55845984	0.170202803
0.405584149	0.877316099	0.480799882	0.532764746	0.170540507	0.575099784
0.841345416	0.083371771	0.102218819	0.134793533	0.631361158	0.606218225
0.487034999	0.401431555	0.877438895	0.607419109	0.5643153	0.170529405
0.882959851	0.054274677	0.875909816	0.17486791	0.690499609	0.170832843
0.854979294	0.111473637	0.864516778	0.155262475	0.592129103	0.156528708
0.133725691	0.86272633	0.844041952	0.567834975	0.15519773	0.148178035
0.067658084	0.067586072	0.0678647	0.636313851	0.636300838	0.636649462
0.081900233	0.855995254	0.069039101	0.633329336	0.149147493	0.654468659
0.847177859	0.147469562	0.859956596	0.150316	0.562781652	0.152475994
0.242818233	0.242795982	0.825929334	0.608954635	0.58328702	0.119083804
0.856202976	0.091320062	0.074147082	0.149408784	0.645608847	0.62563004
0.86041426	0.84495729	0.147460881	0.153152196	0.150768978	0.562539211
0.877607641	0.470358419	0.419754529	0.170809925	0.559661479	0.520963275
0.067561045	0.067727576	0.067841036	0.636297777	0.636575136	0.636771406
0.069963358	0.065067851	0.084686976	0.670452732	0.670874166	0.672864759
0.392971132	0.877529226	0.484810174	0.582406669	0.170593211	0.625297836
0.062480803	0.062474945	0.062442098	0.638285358	0.638472183	0.638511617
0.410290202	0.877824686	0.481052898	0.517510975	0.170891761	0.559493257
0.877393418	0.469808611	0.415603197	0.170556249	0.575399718	0.536120912
0.486830583	0.40167912	0.877423466	0.607396106	0.564329271	0.170524804
0.077096175	0.867576952	0.864637545	0.623233212	0.160073351	0.161119821
0.856645466	0.116694643	0.864643742	0.1558826	0.590387663	0.155945195
0.435919944	0.877396855	0.448153456	0.542696512	0.170593177	0.575603505
0.47588761	0.413177782	0.877257066	0.609467497	0.570146074	0.17061241
0.883666013	5.49629E-06	0.875338215	0.175258336	0.699330926	0.170220161
0.470372202	0.419843853	0.877708749	0.559607366	0.520982039	0.170527955
0.130356855	0.863349644	0.857498518	0.586456932	0.154705596	0.157177331
0.845626048	0.147494384	0.859600188	0.150244853	0.562826407	0.152692453
4.84144E-06	0.882348516	4.91936E-06	0.699256078	0.175370379	0.699330855
0.14171857	0.860639651	0.845856223	0.564528893	0.153927288	0.150145366
0.072993422	0.854059642	0.07094473	0.629524926	0.148978412	0.649039066
0.877382956	0.462728857	0.420638713	0.170665107	0.609512126	0.572974882
0.46986472	0.415729864	0.877382202	0.575403226	0.536257425	0.17060307
0.438880253	0.438875533	0.877782009	0.626686339	0.596329107	0.17064837
0.882276656	0.04099387	0.040771696	0.175421642	0.69255166	0.692881083
0.877854076	0.437570345	0.444464142	0.170884673	0.592314132	0.562763024
0.876195096	0.883765962	0.054272356	0.170850511	0.175645473	0.690454071
0.442829687	0.44855284	0.877381707	0.606563663	0.576775556	0.170592939
0.436197611	0.877372746	0.454326837	0.576406544	0.17052395	0.609813297
0.435154618	0.8772707	0.455217374	0.574270484	0.170563933	0.608084743
0.148695829	0.133175909	0.825603294	0.603872571	0.574983153	0.119468347
0.82628985	0.191230333	0.187718217	0.118957393	0.611847848	0.581666176
0.871242088	0.874211676	0.065178181	0.164786586	0.168584024	0.652780339
0.070323991	0.071868121	0.074512233	0.649731269	0.649815318	0.649330041
0.070949246	0.051639631	0.083580494	0.672956064	0.672531491	0.674120913
0.437064787	0.446303148	0.877298964	0.575700138	0.545992898	0.170575836
0.867346633	0.866511701	0.095491483	0.159492093	0.162736473	0.617328466
0.877493912	0.472529095	0.482087113	0.170662481	0.559784842	0.531737072
0.86681389	0.087829007	0.867355585	0.162096496	0.61955896	0.159520321
0.469824642	0.411497597	0.8772526	0.590551221	0.552199316	0.170140725
0.099703174	0.841588231	0.092691047	0.604557706	0.134841122	0.629776753
0.8263197	0.148063617	0.13090876	0.119536558	0.601698996	0.573759285
0.480562687	0.40575319	0.877284437	0.575080576	0.532581325	0.170525383
0.055374957	0.871870945	0.874350739	0.654914124	0.164662892	0.168456207
0.072661117	0.8561691	0.071217291	0.62977646	0.149461848	0.650036778
0.826270346	0.148981605	0.131878485	0.119608539	0.60166928	0.573562134
0.107772229	0.865152591	0.855280938	0.5939623	0.157086783	0.154850708
0.877137942	0.473318995	0.403929776	0.170664869	0.625821696	0.586157091
0.877042328	0.469956935	0.41197097	0.170162763	0.591476425	0.552728748
0.068842472	0.071270297	0.85509665	0.64994421	0.629937016	0.148929311
0.107835671	0.864168437	0.854177904	0.593783647	0.156557921	0.154508291
0.862545044	0.843616497	0.133726674	0.155259488	0.148119453	0.567778369
0.056827276	0.044638928	0.07503995	0.675637531	0.67463807	0.676130709
0.484910772	0.393049438	0.877709105	0.625312691	0.582545015	0.170574892
0.473582878	0.404196533	0.877667925	0.625933447	0.586149509	0.170727408
0.205871953	0.826042998	0.21004591	0.579001528	0.119124169	0.606162917
0.877411489	0.450725742	0.432460768	0.17057503	0.609785395	0.576354136
0.45500664	0.43588693	0.877399777	0.611028995	0.577432675	0.170589328
0.040850256	0.876493926	0.883606925	0.692958432	0.170655014	0.175484139
0.438769507	0.877570009	0.438774217	0.596446182	0.170702598	0.626554792
0.47032204	0.419774563	0.877584323	0.559628203	0.520982555	0.170576559
0.099011073	0.135546328	0.177875469	0.617915892	0.618537825	0.618699276
0.077048817	0.867753749	0.864982985	0.62303274	0.160053632	0.160938123
0.230985949	0.235954093	0.826241714	0.608121725	0.576724951	0.118988243
0.503278975	0.50986104	0.878094527	0.55791855	0.529102117	0.170605967
0.123092993	0.863808652	0.85613648	0.588680776	0.15516134	0.156297222
0.123095923	0.863464205	0.856975809	0.588445442	0.155081891	0.156282341
0.411481977	0.877193824	0.469788193	0.55162968	0.170262893	0.590545787
0.054449293	0.054819877	0.055032757	0.690198153	0.690162096	0.690337856
0.414007071	0.877224745	0.474927542	0.568200453	0.170621776	0.607205377
0.12489991	0.103398895	0.841672876	0.623406287	0.598257913	0.135133628
0.070537326	0.065191806	0.085372665	0.670051625	0.670799888	0.671879728
0.865737125	0.077114156	0.867559957	0.161070373	0.623099598	0.15990711
0.086196498	0.869056308	0.083266421	0.665094968	0.162463391	0.677131852
0.8560372	0.107555611	0.865295608	0.155011467	0.593652193	0.156997818
0.059462581	0.064811116	0.06339875	0.652153524	0.651576131	0.651956111
0.864851788	0.077119993	0.867286444	0.161044731	0.622902691	0.15984822
0.439594871	0.877507286	0.448824663	0.527514953	0.170790502	0.559982285
0.877860909	0.448144873	0.433220563	0.170604124	0.591207316	0.558552853
0.877301488	0.458987758	0.425567323	0.170591536	0.575627978	0.539605354
0.44497913	0.877571407	0.43866047	0.562581332	0.170784686	0.592332187
0.104561631	0.12412402	0.16999668	0.616753771	0.621862611	0.619142417
0.877504916	0.878156066	0.878045883	0.170686917	0.170964327	0.171231517
0.068814436	0.071259415	0.855289904	0.649483057	0.629439215	0.149017079
0.874197087	0.065238279	0.870929409	0.168184814	0.652747652	0.164434559
0.847190907	0.846369441	0.847912939	0.257748529	0.25675932	0.258030402
0.85580658	0.116675075	0.864128259	0.155539774	0.590239295	0.155795323
0.014474852	0.881508264	0.014286912	0.69733144	0.175332292	0.696944953
0.844682633	0.147440437	0.859335678	0.150067558	0.56264397	0.152358973
0.459307338	0.429467424	0.877130878	0.559791105	0.52434673	0.17074445
0.866714106	0.095263704	0.867283115	0.162307628	0.6175794	0.159468739
0.825524201	0.136903614	0.128176804	0.118597123	0.606639212	0.57729961
0.059631297	0.064448712	0.062509896	0.652253689	0.651415404	0.651262535
0.401519623	0.877473312	0.480689962	0.548153577	0.170193519	0.590269359
0.841622298	0.124662383	0.103569793	0.135312197	0.622996815	0.598057351
0.855629289	0.116707952	0.864432069	0.155901063	0.590235217	0.156219185
0.825564592	0.137045691	0.130431481	0.118656407	0.605732266	0.576318594
0.279733877	0.300049857	0.82588281	0.612913432	0.583786437	0.118715004
0.878254235	0.462424551	0.415856788	0.170562154	0.626127859	0.589822173
0.054273713	0.876815499	0.882753762	0.690478692	0.170917296	0.174792292
0.066157203	0.07846898	0.855774246	0.653612896	0.634044383	0.149215725
0.85414972	0.066287841	0.078837627	0.14867113	0.652473973	0.632009372
0.111400194	0.865657875	0.856415807	0.592158373	0.156326239	0.155323636
0.865115394	0.85473429	0.10762202	0.156260993	0.154333293	0.593682386
0.841692581	0.113756635	0.100356209	0.135059548	0.625704952	0.600453671
0.113738719	0.100373932	0.841958111	0.625911543	0.600575238	0.13510959
0.051744095	0.053950383	0.058398543	0.654589604	0.654361202	0.65442644
0.866592899	0.095479802	0.867280327	0.162299172	0.617178178	0.1593806
0.877519906	0.436686957	0.444822728	0.170489998	0.591788255	0.562653019
0.878261349	0.481417736	0.401895957	0.170901825	0.589992573	0.54782678
0.028297959	0.028025656	0.882225261	0.694894593	0.695013756	0.174999241
0.86209762	0.842808087	0.13372056	0.155181186	0.147814555	0.567763989
0.415327832	0.87720739	0.4619061	0.589884719	0.17057112	0.626061452
0.470041573	0.411746078	0.877695543	0.590649417	0.551447145	0.170612842
0.855989542	0.116712528	0.864279651	0.155780911	0.590208411	0.156053803
0.113648933	0.100551564	0.842083514	0.626057416	0.60056836	0.135038008
0.854736805	0.116699678	0.862537061	0.155311803	0.590378171	0.155594291
0.054800463	0.055061269	0.054825951	0.690346183	0.690592314	0.690608837
0.868706488	0.077035963	0.079645842	0.162582864	0.676130225	0.664315251
0.877376627	0.448091212	0.435858647	0.1706249	0.575748933	0.542887072
0.147452595	0.858925046	0.845833249	0.562866331	0.152543791	0.150372134
0.881445319	0.027534921	0.027475075	0.175391761	0.694902109	0.695476134
0.459025206	0.425709398	0.877309887	0.575494637	0.539368174	0.170578004
0.8774051	0.450741145	0.432456555	0.170559941	0.609764061	0.57635477
0.480966741	0.410242902	0.87767801	0.559411723	0.517493134	0.170748667
0.081896623	0.867327285	0.866618037	0.621155311	0.159634999	0.16172553
0.040709186	0.046768107	0.074951773	0.677535368	0.677752409	0.680520986
0.149583387	0.133802554	0.826243903	0.603257272	0.575328385	0.119417263
0.825270596	0.147904352	0.13147124	0.119150174	0.603426292	0.575860754
0.014208345	0.88110991	0.014532828	0.697222166	0.175308526	0.697672496
0.842666802	0.133810883	0.86184146	0.147401383	0.567688646	0.154406213
0.141799297	0.861016633	0.844322369	0.564600141	0.154347814	0.150169114
0.877266386	0.459484845	0.429417287	0.170407978	0.559799579	0.524422159
0.065230831	0.871951286	0.874778513	0.652840135	0.165194457	0.168613796
0.8777046	0.470346077	0.419872372	0.170756476	0.55963985	0.520952871
0.05537843	0.87101025	0.874657636	0.654918493	0.164736468	0.168553703
0.218770737	0.238222167	0.826887036	0.609747122	0.578178889	0.118937024
0.877741119	0.484919379	0.393073759	0.170758305	0.625193195	0.582602873
0.054655998	0.054302276	0.881176189	0.690044682	0.690601521	0.175308206
0.845733192	0.846781378	0.845719888	0.255842212	0.256734005	0.256738349
0.047132721	0.870475777	0.873530155	0.656889344	0.164572453	0.167808647
0.476038245	0.413058075	0.877335869	0.610542896	0.570858202	0.170524628
0.877759459	0.484926803	0.393085173	0.170704889	0.625191875	0.582603386
0.107651858	0.864682577	0.854499633	0.593755855	0.156691583	0.154390854
0.498400739	0.514393904	0.877889758	0.557974474	0.52939889	0.170966418
0.111384906	0.865350457	0.855941015	0.592259615	0.156329926	0.155578638
0.875117892	0.883685773	5.49603E-06	0.170760323	0.175523243	0.699297167
0.113659116	0.099954142	0.842063764	0.625837403	0.600880364	0.135181378
0.458811335	0.421788273	0.877036065	0.590590708	0.554948638	0.170341332
0.877560083	0.470254665	0.419823271	0.17069104	0.559741495	0.5210536
0.459010063	0.42199081	0.877442223	0.590785105	0.555092299	0.170456923
0.125511254	0.3024655	0.209355864	0.62236315	0.62391799	0.622632781
0.062434642	0.062493015	0.06241186	0.638262537	0.638296883	0.638594516
0.826197364	0.13528285	0.127210366	0.119137476	0.604892357	0.577650653
0.130401911	0.825976631	0.14954853	0.575311428	0.118948744	0.603811668
0.292807285	0.825848672	0.287513292	0.584060913	0.119004267	0.61220946
0.413900056	0.877395916	0.475683413	0.566036769	0.17067602	0.605483807
0.027326102	0.876920978	0.884451116	0.695227353	0.171036146	0.175727791
0.864472921	0.855537519	0.111455018	0.156212275	0.155398302	0.592236732
0.877385132	0.469842615	0.415538026	0.170594158	0.575604798	0.536332716
0.448141112	0.435901451	0.877405957	0.57581555	0.542882545	0.170553777
0.435887245	0.877289827	0.448010057	0.542871023	0.170601289	0.575850898
0.10324266	0.841808714	0.125127647	0.598519894	0.135123278	0.62357147
0.866515319	0.865684067	0.081856494	0.159334836	0.16136352	0.621425505
0.475221405	0.414014395	0.877272597	0.609216853	0.569921626	0.170611568
0.080429468	0.868995566	0.093075024	0.658250054	0.16265131	0.670065526
4.84946E-06	0.882258302	4.87601E-06	0.699235263	0.175396853	0.699329006
0.123106559	0.864201195	0.85673185	0.588523231	0.155849894	0.156789738
0.450524767	0.427096902	0.877636373	0.62657051	0.593100048	0.170562541
0.863521936	0.856267489	0.123152513	0.155183859	0.156003414	0.588558119
0.111526333	0.863900111	0.855042787	0.591991888	0.155815424	0.155098247
0.419789397	0.877500572	0.470225879	0.520875979	0.170662971	0.559659862
0.848878967	0.84621012	0.848920603	0.257990367	0.257212728	0.257214786
0.877547314	0.470380345	0.478946091	0.170679388	0.561078652	0.53302107
0.296570068	0.825610727	0.298661014	0.59017418	0.118857329	0.618699066
0.465733167	0.424683842	0.87739405	0.608793657	0.572154002	0.170586587
0.130457934	0.863626018	0.857505658	0.586622308	0.155225561	0.157334776
0.133717738	0.861737092	0.843629229	0.567801104	0.155220368	0.14822473
0.866199814	0.087725463	0.867779323	0.162069402	0.619312811	0.159497748
0.85705935	0.123131458	0.863486045	0.15622618	0.588582365	0.155186713
0.147420958	0.859716391	0.845466957	0.562799845	0.152444754	0.150366275
0.825512955	0.266521431	0.277127168	0.118516586	0.611806452	0.586433988
0.099159721	0.841804152	0.103128981	0.60255265	0.134913122	0.627679799
0.411482367	0.877192799	0.469784897	0.551626071	0.170250038	0.590530424
0.856666615	0.091328342	0.074188069	0.14945504	0.645656864	0.625986072
0.86899032	0.098277738	0.080056967	0.162766893	0.666658587	0.653965853
0.864881448	0.854772864	0.111435625	0.155918709	0.154883491	0.591873129
0.099676221	0.841761022	0.092649084	0.604335914	0.134833716	0.629764631
0.133743911	0.861986865	0.844228804	0.567775437	0.154835285	0.147849019
0.855728282	0.107517419	0.865509174	0.155179887	0.593820994	0.157049226
0.867069401	0.866259148	0.08832297	0.159424901	0.161987554	0.619510682
0.079088908	0.869021936	0.088715791	0.663926215	0.162636864	0.672976832
0.060000328	0.060049689	0.059910214	0.639840717	0.64014766	0.640137937
0.43473051	0.8774624	0.45518954	0.57535329	0.170564302	0.608670321
0.864636406	0.854593051	0.107721678	0.156334173	0.154240073	0.593886533
0.040861311	0.875345966	0.88362559	0.693160044	0.170493167	0.175740923
0.871359941	0.875735468	0.065170349	0.164642552	0.168953639	0.652686295
0.480919449	0.410253478	0.877651301	0.559421848	0.517531004	0.170711097
0.871720865	0.874907818	0.045862399	0.165115917	0.168621267	0.658140341
0.877589232	0.473541986	0.40415843	0.170618616	0.625795611	0.586114492
0.877612911	0.438795904	0.438791167	0.170853229	0.626586058	0.596438988
0.866100328	0.081560977	0.867576058	0.16202478	0.621667397	0.159843951
0.39307738	0.877773976	0.48494642	0.582644665	0.170830437	0.625174867
0.881394264	0.027568796	0.027764285	0.175385871	0.694834817	0.695247597
0.877482301	0.480870973	0.410140343	0.170456317	0.55933654	0.517519409
0.854763071	0.068655936	0.072040384	0.149253912	0.649882998	0.629156532
0.054515906	0.055129426	0.054711597	0.690239192	0.690163989	0.69022813
0.2073744	0.825420587	0.214832128	0.577947197	0.118781792	0.605974892
0.88048224	0.054542577	0.054270615	0.175095592	0.690052866	0.690298664
0.877652472	0.8777457	0.877953739	0.170721882	0.171009977	0.170963983
0.410229682	0.877698151	0.480983928	0.517530672	0.17079233	0.559512672
0.425648671	0.877322311	0.459088407	0.539463687	0.170503756	0.575593185
0.342595348	0.825259314	0.336005271	0.58178755	0.118623981	0.611153359
0.047134301	0.871205925	0.873799743	0.656820531	0.164537581	0.167746799
0.070623343	0.05138323	0.082528446	0.6735334	0.672656405	0.674858629
0.87486384	0.047189587	0.871949015	0.168508261	0.65690982	0.164873727
0.869084316	0.07700349	0.080451393	0.162567522	0.676751064	0.664409173
0.872392869	0.87545361	0.055328304	0.165272538	0.16906235	0.654999656
0.080158294	0.855874426	0.104815547	0.623361829	0.149482504	0.642779699
0.439272539	0.443505564	0.877464051	0.59276209	0.563216957	0.170488844
0.415566093	0.877345377	0.469986695	0.536010983	0.170529945	0.575267609
0.081605136	0.869224177	0.099433548	0.657123333	0.162655413	0.669525587
0.877516958	0.448107345	0.432884079	0.170538696	0.59075478	0.557804261
0.465864874	0.424079904	0.877262139	0.608461438	0.571841479	0.170558342
0.841655328	0.113711317	0.100254415	0.135120579	0.625609938	0.600474375
0.826419724	0.13553225	0.127021635	0.119135068	0.605275341	0.577900171
0.868931239	0.091906365	0.077580185	0.162687726	0.671351448	0.65933632
0.040150617	0.046208873	0.073653382	0.677717931	0.676800065	0.67877132
0.081639663	0.078653555	0.868868401	0.675844619	0.663951756	0.162583711
0.439979301	0.878124388	0.449056549	0.527531664	0.17085349	0.560004121
0.073484126	0.855538515	0.082611433	0.628091432	0.149446097	0.648156723
0.014597865	0.881159887	0.01436274	0.697186926	0.175181636	0.697618779
0.137174811	0.861161901	0.844164488	0.566364666	0.153725559	0.148515709
0.476039088	0.41305835	0.877335958	0.610544139	0.570858549	0.170524613
0.469865821	0.415737833	0.877393518	0.575423671	0.53626133	0.170586661
0.062503422	0.062489199	0.062467157	0.638294083	0.63829915	0.63848286
0.856112343	0.091272841	0.074220817	0.149289952	0.646059143	0.625624946
0.877599331	0.438789135	0.43878448	0.170378539	0.626448229	0.596498945
0.450285589	0.426855266	0.877155504	0.626364825	0.59323171	0.170233235
0.872550428	0.874393557	0.055329525	0.165337359	0.168593825	0.654701766
0.841890668	0.092679355	0.099680709	0.134790487	0.629626152	0.604385138
0.450251878	0.426824642	0.877090989	0.626366894	0.593232926	0.170222687
0.84502727	0.137223334	0.861544843	0.148843428	0.566268989	0.154258596
0.860311419	0.844511272	0.141741475	0.152920332	0.149061952	0.564556485
0.062481138	0.062480887	0.062426986	0.638275279	0.638267244	0.638591567
0.82624289	0.236236186	0.237248906	0.118814593	0.609493098	0.580720582
0.499711113	0.516909409	0.877598058	0.559541305	0.530338181	0.170684379
0.484961148	0.393111681	0.877821188	0.625171765	0.582584309	0.170803642
0.415480994	0.8772652	0.469980624	0.536011809	0.170509061	0.575269663
0.86094359	0.844368896	0.137203651	0.15399513	0.148620119	0.56619818
0.070550302	0.051623974	0.082962342	0.673346298	0.672541115	0.674503538
0.565708175	0.877240285	0.553476527	0.537075473	0.170493608	0.565759106
0.448115486	0.435929443	0.877391701	0.575708904	0.542733135	0.170565248
0.855898995	0.091236366	0.074103554	0.149422584	0.645437553	0.625698756
0.432717509	0.878026211	0.448513848	0.558352933	0.170522212	0.591124524
2.7962E-06	2.90047E-06	2.7962E-06	0.699209027	0.698916166	0.699143116
0.875089265	0.076031086	0.871396623	0.168482551	0.650501417	0.164497417
0.871398104	0.875537316	0.047491529	0.164727956	0.168631062	0.657118804
0.825709798	0.14708776	0.131222835	0.119213686	0.603039868	0.575681034
0.060013002	0.060020166	0.059987136	0.639409796	0.640087661	0.639931359
0.859312004	0.846338201	0.153982946	0.152208005	0.151230962	0.56074859
0.068815793	0.071357317	0.855134603	0.649824694	0.629756347	0.148930175
0.054476369	0.055033859	0.054921552	0.690414374	0.690231328	0.690872139
0.846287724	0.847164374	0.844516711	0.256810094	0.257137467	0.256590799
0.147344908	0.131901086	0.826035813	0.601794477	0.572803378	0.119485521
0.480575737	0.401289314	0.877180812	0.589929099	0.547902738	0.170332481
0.104142143	0.866758702	0.867014055	0.615375629	0.159277249	0.162912989
0.882056753	4.93035E-06	4.85633E-06	0.17542003	0.699255846	0.699270812
0.84506302	0.141833134	0.860203075	0.149640376	0.56449073	0.153463847
0.124656482	0.103177186	0.841607875	0.62401337	0.598300967	0.135136288
0.877685002	0.48102775	0.401594332	0.170720529	0.59028783	0.547992152
0.877399527	0.473727164	0.410047568	0.170549266	0.609104952	0.569239099
0.871690879	0.87476075	0.065179333	0.164813858	0.168594459	0.652814974
0.86913071	0.089917047	0.076174592	0.162673521	0.671744966	0.659729098
0.446049921	0.877355205	0.444520955	0.576445028	0.170561489	0.606945545
0.863777276	0.8563988	0.123150268	0.155165748	0.155958007	0.588585747
0.861542842	0.843292301	0.137156064	0.153888436	0.148308797	0.566264391
0.826300708	0.263567046	0.274966014	0.118651491	0.613902283	0.586744186
0.864139239	0.856846454	0.130314342	0.155416908	0.157364861	0.586553556
0.484668817	0.392817788	0.877232998	0.625455749	0.582505323	0.170613838
0.476265847	0.413196515	0.877354486	0.608961951	0.569657267	0.17062038
0.081130524	0.855679024	0.068837669	0.633422174	0.148974925	0.653712351
0.425648101	0.877330928	0.459091356	0.539482032	0.170477174	0.575608737
0.855110408	0.111425811	0.863864164	0.15478671	0.592263683	0.15571881
0.877490069	0.480557135	0.405733831	0.170594118	0.575400308	0.532973743
0.078861597	0.081905453	0.86862257	0.678026418	0.665859257	0.162610812
0.855741156	0.065090302	0.079023486	0.149084719	0.652625269	0.631320927
0.867178251	0.10400701	0.866943385	0.162729058	0.615379592	0.15922716
0.877469891	0.440965851	0.443601867	0.170617859	0.609264263	0.578678352
0.88210461	4.90014E-06	4.86118E-06	0.175440074	0.699271534	0.699249883
0.057852992	0.045003784	0.076590948	0.675423455	0.674615914	0.676359544
0.06673974	0.07852014	0.854657656	0.654009345	0.63375411	0.148985147
