Va	Vb	Vc	Ia	Ib	Ic
0.058714689	0.038367379	0.077173552	0.679612669	0.678962388	0.680218941
2.7962E-06	2.90047E-06	2.7962E-06	0.699209027	0.698916166	0.699143116
0.087654772	0.079195318	0.868720634	0.672670013	0.66091034	0.162681623
0.059269301	0.03864907	0.077955119	0.679801521	0.679095467	0.680122536
0.855385084	0.11142245	0.864444833	0.155001333	0.591960571	0.156008755
0.054592679	0.055296352	0.054942998	0.690411921	0.690068782	0.69039141
0.864872272	0.855364213	0.111457608	0.15637044	0.155280171	0.591948427
0.469915928	0.411874078	0.87770576	0.590534099	0.551685284	0.170398286
0.564005296	0.877419398	0.536828335	0.53618396	0.170576419	0.565063167
0.826277362	0.147973422	0.130693786	0.11938854	0.601862342	0.574296702
0.876449472	0.884128845	0.05427947	0.171398819	0.175914041	0.690591273
0.882579126	5.49932E-06	0.875491964	0.174527838	0.699352376	0.170154362
0.826526533	0.262860898	0.283195283	0.118756852	0.612308465	0.584362677
0.08561828	0.869231033	0.082940512	0.665418549	0.16251312	0.67746333
0.861092453	0.84441109	0.141749396	0.152865933	0.148933837	0.564507632
0.137166204	0.861272118	0.843051715	0.566311969	0.153908165	0.148639527
0.107849624	0.865080664	0.855539777	0.593703434	0.15674317	0.154569114
0.415562009	0.877660713	0.462125737	0.589695475	0.170692193	0.626230738
0.435000248	0.877388342	0.454908143	0.574036827	0.170555504	0.607676348
0.88134011	4.88056E-06	4.83025E-06	0.175342709	0.699097441	0.699208742
0.055370541	0.871940281	0.87380517	0.654851687	0.164700181	0.168462718
0.862517076	0.843592893	0.133704139	0.155133702	0.147942959	0.567855615
0.040857641	0.875230185	0.883917627	0.693101036	0.170153033	0.175370087
0.09987246	0.081073419	0.869210367	0.668687154	0.657709178	0.162608401
0.875643365	0.882747806	0.040861775	0.170342229	0.17491484	0.693160151
0.01393038	0.014364787	0.013859211	0.697017176	0.696772939	0.696218249
0.865265739	0.077095477	0.866999407	0.160984486	0.622714812	0.160098082
0.874407396	0.049146109	0.872302802	0.168281406	0.658871411	0.165247442
0.041130443	0.040954728	0.881118945	0.692488867	0.693043778	0.174990002
0.869094696	0.082654488	0.074753664	0.162565375	0.673019162	0.65957183
0.480773457	0.405891569	0.877446628	0.574760979	0.532331593	0.170576245
0.865728797	0.087709333	0.866802894	0.161862753	0.619340571	0.159304309
0.013705863	0.876330857	0.883666803	0.697226308	0.170861617	0.175601748
0.081604022	0.869225023	0.099295658	0.656379666	0.162643343	0.669014951
0.421719486	0.877085988	0.458995005	0.554915876	0.170044959	0.59027713
0.028069831	0.027911684	0.882035668	0.694879578	0.694831233	0.175290732
0.149350597	0.138338058	0.098254024	0.619352724	0.617550491	0.615256483
0.846475739	0.147478974	0.860033914	0.150840791	0.56279961	0.153156808
0.099660746	0.841869161	0.092654655	0.604328051	0.13489293	0.629777325
0.8609531	0.844939598	0.141745431	0.153596178	0.149666472	0.564520596
0.081425055	0.869292302	0.099266109	0.656481031	0.16263703	0.669231947
0.864333459	0.854743044	0.107781466	0.156332224	0.15439217	0.5938997
0.480714598	0.406000234	0.87750412	0.574766705	0.532241138	0.170539823
0.051923825	0.053485703	0.058228187	0.653996855	0.654074232	0.653904782
0.42961555	0.877656286	0.459688381	0.524430577	0.170846292	0.559753043
0.871813599	0.875388234	0.075936474	0.164595329	0.169217275	0.650424384
0.865704356	0.856370126	0.111459073	0.156326752	0.155282439	0.592053759
0.141819074	0.860671202	0.845033469	0.564321769	0.153557705	0.149755272
0.855319578	0.102875702	0.079116363	0.149123419	0.643434952	0.623562652
0.877545601	0.448025652	0.433052697	0.170655844	0.590742637	0.557787896
0.884217258	5.50033E-06	0.876427917	0.175482345	0.699308805	0.171187285
0.869065022	0.097798647	0.080469505	0.162767401	0.669925996	0.656956844
0.867961146	0.865183535	0.077458482	0.15997242	0.161532724	0.623469451
0.860010791	0.843683192	0.137146895	0.153848655	0.148238987	0.566298293
0.864583146	0.854274968	0.107676088	0.15639182	0.154050933	0.593827044
0.438373139	0.444814164	0.877682784	0.593222683	0.563471652	0.170599986
0.446338972	0.87731454	0.43704356	0.546065305	0.170582214	0.575716047
0.473466946	0.40409363	0.87744943	0.625690063	0.586002513	0.170402661
0.437047305	0.446296603	0.877276174	0.575728948	0.546008857	0.170577933
0.855252094	0.066563051	0.078830496	0.148553783	0.652521787	0.631898702
0.077101222	0.080480323	0.868991213	0.678425942	0.66594711	0.162495953
0.877290719	0.448047783	0.435840973	0.170628924	0.575694093	0.542833168
0.877322049	0.469808222	0.415505455	0.170605989	0.575400809	0.536089159
0.343704716	0.82533442	0.329132357	0.584344477	0.118453648	0.613814886
0.841909919	0.092712204	0.099656408	0.134789436	0.629627463	0.604393692
0.882126926	0.027327178	0.876759696	0.175420994	0.695228797	0.170824183
0.86194773	0.843863443	0.133734505	0.155294273	0.148175345	0.567782644
0.448135503	0.435969835	0.87745187	0.575820931	0.542856279	0.170553502
0.877449964	0.87855719	0.877943111	0.170691256	0.170893837	0.171107826
0.855095744	0.079629334	0.071813071	0.148856599	0.647858522	0.627998568
0.392849269	0.877305575	0.484706928	0.582470448	0.170484207	0.625279242
0.881182531	4.85976E-06	4.8686E-06	0.175385031	0.69908984	0.699410872
0.41555896	0.877654771	0.462122832	0.589694408	0.170692865	0.626230842
0.825630915	0.136357759	0.12743881	0.119003533	0.606405177	0.577881146
0.826383156	0.191407758	0.186604283	0.118980687	0.612149167	0.581643943
0.413488553	0.877231379	0.475546183	0.568567648	0.170613867	0.607558042
0.438708904	0.438704186	0.877439311	0.626754409	0.596319802	0.170471045
0.872008087	0.87501821	0.046022303	0.165121782	0.16863266	0.65813466
0.013793722	0.014081044	0.013927329	0.6971024	0.697317226	0.69753031
0.042007474	0.040960784	0.041880308	0.692915084	0.693153549	0.693654151
0.448137956	0.435900164	0.877373099	0.575542376	0.542602444	0.170573703
0.429565167	0.877413512	0.459497622	0.524322051	0.170866609	0.55987414
0.874584157	0.047203062	0.871891931	0.168406006	0.656923835	0.164798505
0.099194939	0.841790607	0.103187138	0.602372302	0.134905585	0.627656245
0.877385206	0.462904429	0.420623469	0.170614951	0.609477268	0.572865671
0.856073809	0.116707564	0.863442974	0.15537406	0.590459112	0.155268669
0.040851235	0.876522978	0.8836482	0.692976468	0.17062844	0.17549643
0.874665768	0.047229074	0.872328378	0.168331522	0.65696123	0.16476314
0.141861727	0.861066676	0.844217751	0.564511369	0.154145973	0.150041735
0.459072168	0.421924001	0.877428037	0.591033122	0.554974304	0.170802241
0.111397578	0.864848392	0.855722857	0.592207811	0.156284025	0.155370886
0.051879911	0.053595466	0.058201557	0.653973092	0.654132285	0.654155655
0.877499932	0.462043873	0.415483382	0.17049735	0.626087632	0.589817604
0.450195134	0.426770778	0.876980609	0.626440224	0.593136785	0.170419136
0.404245462	0.877397432	0.484265909	0.5650559	0.170511563	0.60766749
0.419627066	0.877412968	0.470289335	0.521039607	0.170634841	0.55966141
0.861570055	0.84370497	0.137207088	0.15450381	0.148851467	0.566215457
0.860304612	0.845879825	0.153951422	0.151657287	0.150827054	0.56099368
0.415696624	0.877390633	0.469877844	0.536138867	0.170524558	0.575449815
0.153955062	0.860052488	0.845928551	0.560894849	0.152626065	0.151814673
0.881237135	4.86432E-06	4.83255E-06	0.175396217	0.699148175	0.699587802
0.865730449	0.087709148	0.866803147	0.161862284	0.619341909	0.159304009
0.877410063	0.437375314	0.443962308	0.170309045	0.591498172	0.562051781
0.473570096	0.404189999	0.877648939	0.625833881	0.5860859	0.170770128
0.040857712	0.875374333	0.883298019	0.693106882	0.170056715	0.175296683
0.877270918	0.437034102	0.446305738	0.170596035	0.575705962	0.546048651
0.877455621	0.440907154	0.443703002	0.170632748	0.609756276	0.579328738
0.877599331	0.438789135	0.43878448	0.170378539	0.626448229	0.596498945
0.857253811	0.130405873	0.862651856	0.156548099	0.586505825	0.154326185
0.475613801	0.413300625	0.877226819	0.609746624	0.570388364	0.170590276
0.87757268	0.884917578	0.013707591	0.170922339	0.175870438	0.697398076
0.079933588	0.868927606	0.094207659	0.65926268	0.162670675	0.670365888
0.103517123	0.841296554	0.125076568	0.598475519	0.135267493	0.623390845
0.86791295	0.865205452	0.077441478	0.160010649	0.161544061	0.623460967
0.059998326	0.06002797	0.059967061	0.639383334	0.639929282	0.640118838
0.438613566	0.877258388	0.438618298	0.596443782	0.170508232	0.626592569
0.861052833	0.844855886	0.141740283	0.153604894	0.149680613	0.564496136
0.877354553	0.44868694	0.439567761	0.170477926	0.559745097	0.527729125
0.041132928	0.040962489	0.880827311	0.692604339	0.693149868	0.174985149
0.104026133	0.86691974	0.866813079	0.615816776	0.15918776	0.162821062
0.435043404	0.877299368	0.454927957	0.574016135	0.170545722	0.607691501
0.099668459	0.841717539	0.092685831	0.604495267	0.134894925	0.629760583
0.881496743	4.79883E-06	4.91936E-06	0.175287445	0.699672691	0.699544422
0.459035614	0.425809555	0.877421188	0.575519815	0.539402303	0.170567936
0.860442058	0.844871782	0.147458164	0.153293741	0.150801161	0.562965887
0.877484742	0.458924786	0.422447194	0.170381707	0.590707012	0.554910303
0.877291814	0.440342745	0.444045973	0.170516331	0.608050464	0.57772367
0.458996792	0.421943591	0.877382961	0.59077232	0.555087852	0.170402141
0.083398035	0.102224939	0.841782403	0.631234248	0.605972806	0.134737063
0.09573974	0.867006235	0.86639501	0.617427806	0.15950685	0.162614129
0.42708099	0.877599344	0.450503547	0.593003065	0.170673071	0.626438273
0.883655822	0.040848349	0.876537944	0.17506337	0.692867447	0.171027802
0.447746002	0.4324396	0.877033634	0.590814542	0.558338724	0.170111954
0.438829004	0.87768907	0.43883372	0.596449748	0.170627456	0.626570231
0.846552902	0.15398341	0.858529948	0.150868078	0.560835708	0.151522438
0.092956974	0.080034759	0.869413559	0.66805693	0.657014598	0.162661566
0.403954406	0.877187617	0.473344406	0.586302033	0.170721237	0.625773362
0.014326628	0.881211653	0.0142365	0.697089342	0.175372511	0.696849541
0.877583066	0.47404086	0.482332533	0.170710376	0.561880229	0.532154394
0.42987609	0.878124978	0.45988971	0.524311428	0.170874927	0.559863776
0.877812242	0.473651567	0.404272485	0.170566306	0.625949997	0.586036757
0.459214764	0.422201007	0.877845553	0.590882131	0.554913586	0.170890588
4.81903E-06	4.93232E-06	0.881688937	0.699296269	0.699144581	0.175218984
0.882226421	0.041209999	0.040792103	0.175789288	0.692475408	0.692927289
0.419692823	0.877329814	0.470157477	0.521015494	0.170586149	0.559614086
0.041586991	0.041056702	0.041977929	0.692978723	0.691967085	0.692169502
0.877278224	0.483765454	0.400040354	0.170523928	0.608324072	0.565679457
0.844270802	0.137160265	0.861663561	0.148890076	0.566128904	0.15437037
0.068856688	0.071277136	0.855582437	0.650124008	0.629369675	0.14885936
0.414804038	0.877331717	0.474584772	0.569607308	0.170539452	0.608736986
0.140013676	0.131735769	0.825501239	0.604198417	0.575990748	0.118999786
0.87471716	0.049138249	0.872849431	0.168451561	0.659206627	0.165259693
0.081691871	0.078784764	0.868863775	0.675839737	0.663952039	0.162584342
0.113848474	0.100115866	0.84213675	0.625866966	0.6006429	0.135054924
0.877185254	0.459486317	0.42933617	0.170466605	0.559805502	0.52442572
0.404436487	0.87815208	0.473826694	0.58630061	0.170730459	0.625773934
0.480901655	0.410177259	0.877561306	0.559393199	0.517531511	0.170656597
0.054601911	0.054722619	0.054762574	0.690350645	0.690136249	0.690336705
4.91738E-06	4.74825E-06	0.881713498	0.699337971	0.69910416	0.175356445
0.877495001	0.473541764	0.410319675	0.170555937	0.609306868	0.569466874
0.027303042	0.881673355	0.027661796	0.695335638	0.175104426	0.694420828
0.041609275	0.041105199	0.042226233	0.693212557	0.691946442	0.693019959
0.415478542	0.877491987	0.462040791	0.589833124	0.170517367	0.626053281
0.877339105	0.468341833	0.482841188	0.170660479	0.562494651	0.533661266
0.040943195	0.881904159	0.041651756	0.692871955	0.175088209	0.692928951
0.054624996	0.054304327	0.882040357	0.689925865	0.690426014	0.175660541
0.099251297	0.841925068	0.103092548	0.602316494	0.134899653	0.627716734
0.074825048	0.074929093	0.075135125	0.6341269	0.634331907	0.634631976
0.137249199	0.86290494	0.846140641	0.566219372	0.154396549	0.149070878
0.841695857	0.102934275	0.098965171	0.135024647	0.628086154	0.602730303
0.868895028	0.075897314	0.078855859	0.162528985	0.676668105	0.664602738
0.014283007	0.014048896	0.882096627	0.697698982	0.69755368	0.175442593
0.450259896	0.426834026	0.877108883	0.626595852	0.59303171	0.170502976
0.014150955	0.014064337	0.882479742	0.697510305	0.697094104	0.175416775
0.111439912	0.864165059	0.855655078	0.592117329	0.155840269	0.155071876
0.438844157	0.438839468	0.877709949	0.626589965	0.596281559	0.170741176
0.869098326	0.0822477	0.074579567	0.162597031	0.674055	0.66028593
0.107669387	0.864562884	0.855338131	0.593751362	0.156910618	0.154713869
0.841665539	0.124809136	0.103677628	0.135303815	0.62305967	0.598039179
0.432838665	0.877854649	0.448212279	0.558323063	0.170800441	0.591389895
0.858077093	0.844916078	0.153947391	0.151583879	0.150898172	0.5609051
0.072703138	0.856010695	0.071176988	0.62963189	0.149623841	0.650248922
0.054596689	0.054205373	0.881982991	0.689928547	0.690599977	0.175454253
0.856021217	0.111469712	0.863910979	0.155708788	0.592106571	0.156728262
0.027728544	0.027474182	0.02786297	0.695445503	0.695339447	0.695224536
0.87779611	0.447986639	0.433320186	0.170654413	0.590923442	0.557925425
0.877664647	0.438821776	0.438817058	0.170949673	0.626589352	0.596437631
0.027587679	0.881875501	0.02771738	0.695311253	0.175352891	0.695158889
0.867112213	0.86630108	0.088228638	0.15958906	0.162464796	0.619678939
0.087944614	0.867682582	0.866054154	0.619377993	0.159681524	0.161986453
0.421791397	0.877095096	0.458979108	0.554926128	0.169973089	0.590272363
0.882595651	5.4973E-06	0.874671377	0.174984235	0.699355388	0.169939281
0.07303627	0.855257699	0.071114094	0.629585546	0.149003241	0.649779635
0.422108611	0.877455399	0.458970006	0.555311388	0.17042978	0.591147502
0.129026807	0.29877526	0.20198708	0.621264765	0.622473412	0.622406957
0.103456928	0.841784123	0.125245568	0.598455029	0.1352817	0.623521053
0.85536498	0.111433995	0.864015209	0.154910569	0.592180595	0.155760821
0.876754319	0.438366637	0.438361927	0.170326436	0.626439937	0.596522948
0.844644949	0.141799226	0.860267634	0.149645647	0.564516673	0.153437393
0.880455467	0.054598181	0.054270254	0.175363591	0.689883706	0.690676393
0.435847688	0.877236216	0.44804749	0.542875735	0.170520868	0.575820446
0.48080817	0.405866488	0.877431047	0.574752363	0.532325193	0.170567508
0.432756154	0.877736176	0.448131913	0.55828376	0.170847048	0.591386166
0.877270991	0.448099356	0.435779356	0.170599832	0.575683245	0.542812157
0.486713533	0.401767596	0.877462459	0.607504073	0.564503894	0.170497945
0.465725316	0.424360126	0.877254998	0.608673726	0.571993608	0.170573177
0.147002888	0.132745387	0.82578982	0.601344976	0.57187895	0.119780775
0.877322517	0.470582919	0.411556727	0.170404137	0.590890612	0.551768939
0.450293294	0.426867906	0.877175813	0.626414993	0.593132807	0.170409885
0.424914169	0.877436437	0.464670112	0.573083918	0.170557334	0.609824088
0.054287747	0.881575316	0.054646055	0.690429731	0.175345202	0.689998493
0.054635774	0.054871447	0.054789177	0.690299791	0.69016824	0.690379419
0.877195113	0.459165388	0.421927325	0.170285021	0.590458209	0.554575787
0.447912006	0.432647633	0.877420732	0.590810794	0.558512101	0.170265838
0.877257809	0.884434134	0.054278656	0.171400186	0.175344226	0.690585424
0.841763554	0.092686827	0.099744292	0.134795287	0.629656485	0.604243563
0.126789856	0.109465431	0.151451375	0.615487507	0.612860759	0.614411646
0.872132732	0.874522477	0.047032944	0.165363508	0.168303018	0.658746863
0.111407074	0.864903661	0.855710027	0.592104826	0.156355841	0.155310484
2.77228E-06	2.89328E-06	2.84784E-06	0.699233385	0.699335681	0.69952248
0.877353403	0.483940712	0.399898742	0.170490432	0.608210985	0.565465664
0.877499284	0.470604547	0.411679883	0.170344649	0.591149901	0.552090544
0.877406093	0.450744364	0.432453155	0.170559911	0.609763255	0.576354995
0.432747427	0.877743696	0.448172106	0.558274274	0.170848185	0.591361571
0.133729126	0.862517691	0.844096058	0.567791711	0.155461951	0.148449452
0.855059974	0.107529603	0.865098794	0.154955826	0.593822315	0.156948151
0.054459153	0.054991137	0.054961013	0.690184593	0.690187218	0.69030908
0.103098629	0.099104561	0.841826687	0.6277431	0.60265081	0.134967118
0.12477062	0.103121767	0.841968354	0.623711639	0.598619545	0.135233529
0.473462308	0.404084305	0.877435135	0.625801207	0.586052983	0.170434923
0.877634411	0.448845973	0.439701188	0.170655421	0.559788479	0.527826727
0.102202327	0.841491928	0.083411753	0.605462791	0.134654351	0.630781362
0.107829201	0.864689713	0.854830577	0.593748851	0.156609293	0.15451048
0.866720987	0.866512675	0.104205352	0.159294709	0.162612825	0.615482367
0.087839283	0.079366621	0.868753527	0.672681651	0.660811754	0.162673973
0.865323147	0.081542796	0.867500655	0.161675995	0.621043676	0.160009016
0.446336803	0.877360431	0.437088947	0.546082404	0.170568383	0.575757663
0.826179942	0.148601596	0.130331101	0.119158227	0.605114306	0.575591466
0.040497986	0.046473237	0.074377801	0.677749502	0.677105359	0.679525829
0.438877225	0.438872508	0.877775955	0.62668209	0.59635475	0.170646897
0.079381616	0.868841664	0.088458832	0.6643301	0.162673314	0.674170518
0.130409687	0.863783789	0.857386963	0.586295604	0.155104615	0.157405221
0.866720461	0.087676839	0.867129573	0.161974105	0.619439864	0.159137791
0.045268222	0.87223212	0.874721698	0.659057616	0.165444659	0.168560656
0.045919382	0.048699244	0.051789267	0.657697491	0.658162489	0.659365904
0.846442477	0.153914865	0.859414072	0.151278922	0.560887223	0.152142014
0.078541762	0.868980525	0.088031012	0.661821575	0.162627482	0.671129678
0.825828972	0.190031388	0.192645758	0.118402231	0.612897397	0.582183324
0.877939345	0.473716078	0.404334538	0.170664509	0.625813264	0.586148197
0.081907186	0.855978725	0.067941802	0.631401158	0.149102038	0.652662582
0.847010085	0.153925345	0.859397079	0.151553648	0.560958173	0.152134609
0.099621373	0.841843319	0.092672415	0.604312309	0.134895076	0.629775778
0.480807703	0.405782192	0.877378309	0.574699357	0.532145799	0.170545159
0.083086651	0.868656269	0.084312367	0.662803635	0.162539384	0.677140733
0.075979112	0.871526034	0.874486562	0.650536195	0.164489567	0.168492929
0.877898703	0.437500303	0.444457666	0.170923085	0.592409683	0.562805127
0.856829001	0.116689455	0.864683736	0.155847515	0.590318012	0.156055711
0.868756032	0.076634083	0.080436241	0.162578928	0.676028054	0.664339808
0.445155784	0.876803564	0.437142584	0.56172017	0.170266711	0.591310086
0.881260628	0.027883029	0.027677116	0.175485564	0.694589505	0.69530532
0.02770906	0.027744808	0.028297665	0.695288037	0.694825738	0.695349066
0.075964182	0.871773315	0.875153677	0.650524048	0.164617833	0.168613119
0.825664108	0.276767749	0.279009445	0.118323587	0.61139413	0.584141733
0.874101081	0.051642292	0.872030994	0.168376558	0.659095823	0.165023776
0.443202483	0.448103596	0.877385337	0.606553444	0.576730637	0.170592753
0.868973931	0.098130125	0.080329307	0.162770601	0.666695718	0.653963124
0.455000556	0.435904257	0.87740822	0.611038679	0.577420848	0.170585779
0.448675259	0.439617227	0.877358979	0.559921184	0.527580929	0.170502905
0.067038874	0.079846295	0.855211388	0.65252456	0.631952115	0.148685928
0.865090273	0.854219193	0.107795525	0.156831117	0.154681019	0.593808771
0.826246286	0.191022107	0.189216101	0.118937799	0.611711801	0.581670007
0.446336356	0.877340262	0.437070407	0.546068105	0.170592856	0.575723561
0.866607273	0.86638782	0.095405619	0.159229863	0.162280443	0.617245282
0.44577526	0.877355022	0.445430364	0.576702074	0.170544988	0.607060137
0.856586786	0.102843348	0.078762413	0.149590617	0.643447204	0.623899462
0.87169981	0.874422494	0.04659408	0.164782282	0.168270339	0.658056597
0.083412595	0.868879383	0.084764806	0.660606576	0.162641832	0.672906847
0.866746287	0.866373694	0.095426636	0.159232591	0.162368633	0.617246715
0.881199012	0.027903807	0.027711391	0.175471467	0.694616517	0.695426644
0.866535415	0.865733685	0.081799096	0.159461303	0.161582439	0.6214801
0.877358359	0.473411513	0.410275502	0.170501286	0.609034913	0.569263374
0.411615191	0.877541693	0.47000364	0.551601959	0.170439479	0.590543514
0.04550744	0.048819166	0.052444073	0.657819719	0.658153773	0.659453616
0.876717961	0.447773751	0.432480131	0.170405325	0.590815984	0.558251977
0.877273827	0.458992146	0.425544939	0.170593942	0.575598914	0.539599824
0.404173334	0.877614227	0.473552176	0.586219954	0.17063346	0.625713561
0.405890423	0.877389484	0.480628129	0.532772707	0.170539099	0.575083265
0.09274501	0.099681698	0.841385522	0.629550678	0.604412844	0.134828926
0.842938812	0.13378057	0.861610239	0.14736526	0.567789948	0.154394275
0.101806381	0.126926576	0.169415055	0.61708702	0.622128985	0.620415435
0.027596987	0.027629447	0.0282685	0.695259204	0.694900456	0.695370851
0.877687145	0.480929385	0.401814102	0.170804528	0.590286742	0.547959623
0.862248084	0.842201264	0.133721517	0.154905801	0.147664287	0.56766197
0.073332982	0.855387228	0.07194504	0.628982354	0.1490408	0.649291844
0.040782537	0.046493581	0.074732699	0.677329004	0.678112936	0.680664912
0.847089393	0.153932673	0.859894077	0.151507355	0.560961505	0.152110987
0.448142222	0.43591185	0.877412631	0.575826373	0.542883899	0.170552163
0.055353435	0.873531409	0.875969323	0.654805219	0.165227519	0.16884416
0.129290845	0.108491707	0.151200054	0.615451871	0.613165967	0.614656751
0.845625741	0.141777248	0.861621018	0.149960467	0.5645579	0.154110493
0.153747763	0.140789362	0.097656827	0.618756145	0.61666916	0.615076316
0.148959997	0.141958631	0.096492831	0.619075167	0.616687866	0.615295757
0.446144061	0.8776651	0.437502421	0.562705496	0.170714753	0.592405731
0.435938285	0.877409928	0.448147435	0.542682311	0.170634731	0.575584413
0.854935679	0.079681869	0.071740151	0.148905963	0.647841903	0.627945548
0.059456894	0.064197453	0.06315005	0.652061554	0.651368842	0.651293941
0.877949109	0.463551614	0.491500648	0.170622569	0.56068428	0.532283123
0.87665007	0.883345703	0.040860509	0.17078972	0.175885596	0.693142455
0.421784853	0.877150324	0.459000416	0.554970373	0.170060254	0.590247109
0.877361093	0.459053112	0.425551244	0.17057864	0.575639856	0.539627075
0.876867646	0.883946593	0.054283354	0.171369948	0.175843546	0.690639962
0.427293368	0.878026042	0.450717611	0.592975716	0.170813738	0.626530912
0.083428917	0.868891095	0.084801063	0.660733948	0.162625552	0.672911077
0.872480983	0.874375485	0.047211151	0.164837348	0.1680503	0.65707176
0.054597799	0.054238345	0.882305652	0.689927369	0.690519218	0.175475204
0.825866778	0.148267875	0.13109874	0.119194654	0.604981186	0.575550385
0.841632542	0.113636652	0.100516878	0.135056934	0.625969241	0.600511803
0.147425041	0.861273275	0.846330962	0.562755647	0.153099307	0.150838397
0.877087787	0.470309388	0.411712589	0.170207996	0.589685964	0.551198388
0.075982238	0.871757674	0.874848839	0.650506163	0.164564607	0.168566769
0.415791548	0.87812308	0.462358812	0.589921478	0.170677032	0.626082071
0.863286965	0.8462941	0.137243343	0.154482573	0.148936291	0.566217727
0.072913994	0.854746553	0.071677521	0.629515227	0.148731538	0.649770812
0.865112857	0.081496239	0.866727186	0.161455689	0.621392405	0.159321284
0.439477082	0.877247982	0.448688374	0.527544051	0.170839812	0.560030324
0.877635544	0.448032772	0.433113153	0.170646335	0.591230094	0.558677356
0.041103937	0.882099769	0.041624999	0.692731121	0.175700736	0.692072972
0.133725228	0.862592325	0.84403418	0.567847733	0.155211773	0.148198999
0.074694783	0.856131126	0.091477684	0.625604375	0.149780811	0.645926937
0.092688941	0.099597228	0.841425211	0.629569323	0.604450444	0.13482484
0.884333123	0.027328642	0.875495267	0.176397643	0.695284304	0.170692623
0.462010535	0.415444446	0.877427981	0.626341968	0.589650704	0.170592264
0.877539223	0.877463814	0.877359684	0.170709363	0.170551959	0.170388412
0.058491047	0.038630248	0.077059114	0.679889094	0.679027802	0.680307508
0.865533779	0.081472102	0.867387257	0.161428035	0.621370305	0.159304542
0.103148157	0.099175961	0.841597794	0.627693593	0.602524694	0.135012956
0.878068054	0.450739865	0.427313495	0.170591073	0.626386715	0.593190166
0.091450346	0.074253915	0.855601455	0.645300555	0.625765436	0.149153134
0.881712645	0.041311034	0.040963177	0.175491713	0.692542116	0.693065498
0.070306862	0.065706005	0.086183502	0.670385137	0.670999553	0.67256151
0.10296607	0.841882957	0.124956941	0.598586493	0.135180412	0.623607773
0.081902195	0.867099442	0.866236677	0.621086088	0.159877597	0.161961456
0.392648334	0.876917932	0.484519399	0.582528214	0.170642965	0.625307861
0.469863631	0.415743707	0.877393956	0.575423498	0.536261724	0.170586946
0.045503618	0.048195558	0.053632635	0.655839521	0.656044695	0.656488317
0.866128326	0.08777687	0.866793391	0.162107731	0.619084811	0.1596457
0.876987044	0.470587619	0.411397532	0.170431405	0.590511106	0.551488284
0.082589624	0.080069639	0.868824271	0.675484547	0.663860807	0.162579381
0.877269278	0.459110594	0.422075238	0.170353671	0.59076821	0.554955056
0.841622618	0.113841426	0.100321238	0.135063261	0.625992369	0.600551919
0.866951017	0.866250276	0.081785032	0.159514999	0.161886661	0.621419237
0.841703885	0.12489408	0.10337997	0.135270883	0.623482613	0.598026718
0.860979867	0.844069529	0.141731078	0.153552306	0.149607033	0.564540035
0.470276829	0.419751753	0.877506853	0.559580883	0.521016209	0.170478229
0.054266578	0.876253873	0.882892539	0.69042705	0.171382622	0.17548536
0.869135969	0.082759733	0.074666188	0.162563341	0.672732513	0.659560329
0.883220937	0.040858168	0.875338383	0.175301594	0.693050862	0.16997876
0.415540273	0.877361108	0.46999297	0.536016888	0.170529913	0.575257967
0.88142133	4.88738E-06	4.84546E-06	0.175501581	0.698868263	0.69929569
0.87773505	0.448913503	0.439726412	0.170673862	0.559930021	0.527592545
0.865787851	0.856335702	0.111442084	0.156245947	0.155407022	0.592176219
0.877824754	0.448961706	0.439779221	0.170697409	0.559743537	0.527753337
0.107836191	0.864667873	0.854922329	0.593729274	0.156627055	0.154516794
0.469713472	0.411389522	0.877011806	0.59047805	0.552084981	0.169998406
0.869084303	0.080044423	0.0772778	0.162578552	0.674571224	0.663153818
0.459850669	0.429949815	0.87817047	0.559896353	0.52438334	0.170628138
0.866056353	0.081525542	0.866982904	0.161713459	0.6213134	0.159596391
0.4042275	0.877714465	0.473599588	0.586222522	0.170834768	0.625876446
0.877805841	0.877222947	0.878571196	0.170673342	0.170328893	0.170780912
0.469858845	0.415685447	0.877385344	0.575417896	0.53626234	0.170596963
0.087965633	0.867025476	0.866497077	0.619699353	0.159550625	0.162034354
0.051947895	0.053657638	0.058469515	0.653874931	0.653910819	0.653803549
0.841855758	0.113745336	0.100365239	0.135166718	0.626165397	0.600885489
0.470040921	0.411741133	0.877691188	0.59064984	0.55144636	0.170615642
0.081897678	0.869279203	0.099683081	0.65656848	0.162644039	0.66930522
0.877892474	0.470444324	0.419958506	0.17067435	0.559698262	0.520971588
0.856822437	0.068764361	0.072125876	0.149582688	0.650196954	0.628835071
0.876204647	0.88334609	0.054275596	0.171081023	0.175606054	0.690534094
0.088004362	0.867261122	0.865787912	0.619196466	0.159739916	0.161989733
0.881624781	0.041129249	0.040855096	0.175480422	0.692602059	0.692984994
0.410289703	0.877633122	0.48087463	0.517470863	0.17058997	0.559456821
0.882472022	0.040848141	0.877145829	0.174654387	0.692859707	0.170606856
0.863771526	0.857297116	0.130353959	0.154607354	0.156705794	0.586534944
0.079578679	0.071553961	0.855622689	0.647854856	0.627810616	0.148943024
0.415312056	0.877172325	0.461887137	0.589915366	0.170636587	0.626082846
0.841503704	0.102863293	0.099028614	0.134979635	0.627622256	0.602567202
0.841445969	0.102923394	0.099080724	0.134974692	0.627828508	0.602817456
0.099701898	0.8416092	0.092665678	0.604564641	0.134813875	0.629791146
0.047132044	0.872645798	0.874884868	0.656931885	0.165238909	0.168294357
0.054624804	0.055453321	0.054910858	0.690208748	0.690196857	0.690336808
0.145869637	0.825870281	0.15262498	0.575524473	0.119130705	0.605484616
0.877327176	0.437170786	0.444245564	0.170349136	0.591474149	0.561954722
0.881479697	4.93288E-06	4.80028E-06	0.175340744	0.699493787	0.69968127
0.42711968	0.877679328	0.450544899	0.593066284	0.170820634	0.626462618
0.047136222	0.871804338	0.874054796	0.656860809	0.164687154	0.167941991
0.070206329	0.071464944	0.073701382	0.64971828	0.650194013	0.650596945
0.883430175	0.01370641	0.875711086	0.175066033	0.697333097	0.170430039
0.041653922	0.04113059	0.042248083	0.693094729	0.692371997	0.692357135
0.881801857	4.81471E-06	4.83456E-06	0.175407112	0.69917226	0.699307935
0.470041279	0.411745473	0.877694667	0.590649639	0.551446787	0.170613073
0.876131124	0.883751901	0.027323309	0.170420864	0.175723702	0.695124782
0.065209935	0.871504082	0.875386372	0.652921477	0.164610795	0.168775441
0.846714096	0.154000926	0.85892747	0.151165836	0.560838978	0.151827721
0.579665321	0.877524817	0.53485813	0.537738286	0.17054238	0.565601958
0.857780034	0.130442431	0.86277742	0.156763127	0.586446007	0.154518573
0.101369474	0.127065044	0.167818716	0.61674034	0.621834545	0.619122221
0.067618553	0.067599392	0.067785206	0.636597809	0.636391013	0.636747133
0.123087052	0.864033385	0.856990618	0.588457057	0.155736867	0.156957311
0.421882422	0.877131953	0.458882489	0.555126103	0.170106063	0.590768647
0.877307343	0.448087456	0.43582504	0.170595381	0.575686445	0.542807297
0.825258769	0.136867082	0.128753421	0.118681158	0.60597207	0.576573834
0.132788708	0.825791603	0.148852678	0.575167348	0.118887179	0.604012614
0.860329483	0.846092483	0.147397383	0.153279127	0.150979015	0.562634548
0.079770003	0.071476342	0.855636077	0.648044093	0.627382719	0.14919401
0.447549222	0.432323197	0.876729715	0.590768084	0.558166657	0.170268785
0.447289375	0.877351719	0.444277218	0.576906495	0.170550686	0.607217334
0.041209502	0.040957967	0.881470101	0.692498668	0.69291304	0.175260708
0.08058697	0.85530881	0.104620287	0.62345398	0.149160358	0.643377561
0.469983502	0.41565405	0.877360371	0.575459757	0.536240347	0.170573456
0.041084764	0.040907462	0.880943161	0.692468578	0.693115827	0.175004326
0.877342853	0.437071376	0.446338432	0.170588267	0.575737143	0.546083483
0.074750842	0.0749577	0.075104696	0.634140404	0.634349678	0.63470851
0.881397606	0.04116679	0.041002864	0.175321573	0.692534167	0.693045406
0.080067574	0.869087811	0.093736751	0.659233706	0.162659956	0.670415769
0.476220759	0.412950033	0.877342624	0.610629233	0.570861653	0.17053559
0.877315981	0.47040039	0.411808276	0.170405879	0.590706124	0.551658657
0.581578954	0.87737257	0.519968561	0.53122835	0.170587595	0.5602145
0.111440071	0.864165366	0.855657797	0.592115166	0.155840709	0.155072624
0.107641088	0.864526281	0.855369147	0.593753215	0.156890323	0.154683626
0.077000258	0.868043167	0.864956066	0.623027251	0.160150953	0.161094552
0.095545424	0.866633899	0.866837803	0.61752057	0.159102623	0.162472456
0.43705811	0.446289861	0.877279691	0.575772021	0.546016994	0.17058045
0.856173991	0.091277412	0.074177881	0.149409342	0.645556608	0.625665484
0.125770292	0.112249842	0.153312671	0.615732158	0.612822515	0.615174779
0.070832446	0.051717579	0.083454759	0.673482713	0.672539904	0.674785143
0.459010361	0.421992575	0.877443954	0.59078517	0.55509229	0.170457277
0.882898693	0.027327229	0.876514068	0.175582862	0.695232103	0.171066721
0.113765527	0.100334493	0.841754276	0.626232935	0.600739639	0.134961332
0.868808699	0.075476178	0.078695411	0.16254074	0.676490453	0.664337535
0.876901699	0.884161801	0.054283457	0.171339075	0.175733521	0.690643475
0.448705133	0.439615251	0.877395685	0.559815024	0.527554984	0.170564492
0.09963922	0.841893982	0.092707322	0.604401162	0.134881091	0.629764771
0.826177983	0.148622586	0.130146759	0.119157853	0.605104304	0.575591566
0.459967322	0.430004973	0.878343879	0.559854433	0.524386668	0.170755741
0.87724227	0.462349202	0.421028472	0.170544734	0.608608714	0.572162653
0.040865849	0.875386181	0.884290912	0.693238371	0.169905452	0.175191437
0.091741278	0.074263585	0.856434595	0.645330208	0.625910149	0.149691799
0.130423424	0.863571158	0.857470554	0.586292139	0.155126384	0.157419219
0.882963015	0.054279723	0.876291119	0.174739598	0.690567878	0.170810259
0.866753774	0.095536017	0.866979141	0.162308432	0.617393254	0.159341012
0.868294366	0.86594498	0.077275285	0.160043296	0.161159247	0.623253644
0.429671133	0.877740388	0.45970745	0.524414513	0.170737115	0.559754494
0.872040352	0.874700944	0.047107994	0.164826815	0.168230112	0.657012112
0.877431656	0.462784891	0.420633411	0.170646372	0.609520822	0.572987957
0.855890257	0.111413447	0.864481079	0.154994481	0.592037876	0.155917043
0.84178225	0.092687947	0.099727019	0.134803409	0.629657139	0.604260724
0.475383034	0.414292008	0.877379478	0.610295991	0.570133271	0.170565037
0.041102092	0.881775841	0.041629589	0.692817862	0.175161826	0.692913745
0.443007017	0.448138958	0.877349274	0.606596218	0.576589971	0.170605857
0.476728191	0.412965675	0.877451868	0.609842997	0.569543044	0.17055966
0.86404022	0.854886125	0.111355105	0.155642233	0.154576995	0.59207923
0.349615344	0.825398946	0.32822019	0.584153352	0.118653526	0.613621643
0.404253349	0.877765792	0.473624309	0.586214423	0.170659798	0.625708065
0.470410405	0.419883313	0.877780381	0.559634795	0.520990298	0.170844937
0.841356063	0.083349087	0.10223325	0.134845556	0.631129731	0.605923476
0.099676221	0.841761022	0.092649084	0.604335914	0.134833716	0.629764631
0.875371453	0.883269538	0.013706509	0.170365831	0.175254896	0.697304513
0.877285075	0.437151511	0.444202008	0.17054697	0.591505331	0.561906409
0.825343581	0.137846203	0.12848271	0.118673577	0.605848902	0.576526774
0.448169054	0.435884447	0.877416176	0.575728948	0.542782142	0.17056202
0.111440003	0.864165247	0.855656777	0.592116069	0.155840531	0.155072317
0.825270596	0.147904352	0.13147124	0.119150174	0.603426292	0.575860754
0.13372131	0.862501523	0.844440191	0.56782422	0.155240632	0.148221167
0.883073366	5.49704E-06	0.875004945	0.175087296	0.699336994	0.169773899
0.87410486	0.05161028	0.872012921	0.168373145	0.659104508	0.165019399
0.092642135	0.099633393	0.841512343	0.629537904	0.604560146	0.134948848
0.07115029	0.051354152	0.08286385	0.673489176	0.672745475	0.674854081
0.10039151	0.841353223	0.113851969	0.600729748	0.135111522	0.625814434
0.845644125	0.141805695	0.860040435	0.149815056	0.564490843	0.153577528
0.87741543	0.470012309	0.412218646	0.170310751	0.59141315	0.552567641
0.486582234	0.401631095	0.877413504	0.609964453	0.566657216	0.170491874
0.877689575	0.480927214	0.401822919	0.17080809	0.590286668	0.547959596
0.496779445	0.512110668	0.877521667	0.560632316	0.531692714	0.17063451
0.865730423	0.087709151	0.866803143	0.161862291	0.619341887	0.159304014
0.875081566	0.076026277	0.871015779	0.16857092	0.650497194	0.164583076
0.872076589	0.874366259	0.047213369	0.164850407	0.168078133	0.657084457
0.066370481	0.078396271	0.855699662	0.653435237	0.633424411	0.149417223
0.865404952	0.077028594	0.867881533	0.161283661	0.623362717	0.159830914
0.484800463	0.39294896	0.877495884	0.62545079	0.582521672	0.17061567
0.446377416	0.877416702	0.437105402	0.546080344	0.170609437	0.575736656
0.87732985	0.451009794	0.432012844	0.17048717	0.608747236	0.575260571
0.091740979	0.074186571	0.855272791	0.645322854	0.625799555	0.14869692
0.405887594	0.877360052	0.480618202	0.532760149	0.170565199	0.575062005
0.871950781	0.873995494	0.047120715	0.165354433	0.168304867	0.658683081
0.070599061	0.071409311	0.074442123	0.649980262	0.65020851	0.650684147
0.131758601	0.826071788	0.149540259	0.575766357	0.118974675	0.603066602
0.82553998	0.264357264	0.274270325	0.118822502	0.609435436	0.584737358
0.099678522	0.841867057	0.092659681	0.604435883	0.134885721	0.629759258
0.871807483	0.874774689	0.065179702	0.164810923	0.168593283	0.652833641
0.845186261	0.141796965	0.860896264	0.149637779	0.56465513	0.15364489
0.07707426	0.86746227	0.865774779	0.623100652	0.160259376	0.161728938
0.88239786	5.50108E-06	0.876522569	0.175287964	0.699347673	0.170834271
0.863464979	0.857265699	0.130350972	0.154572424	0.156649071	0.586558355
0.877347891	0.437075102	0.446339488	0.170591516	0.57574467	0.546086521
0.876292293	0.884448613	0.05427733	0.171141398	0.175631628	0.690563385
2.79521E-06	2.97697E-06	2.86048E-06	0.699178318	0.699291656	0.699564503
0.092764697	0.09965561	0.841531292	0.629535623	0.604453708	0.134925138
0.130404357	0.863917795	0.857863755	0.586585968	0.155251543	0.157336814
0.877349753	0.440439829	0.444219327	0.170616584	0.609865509	0.579584302
0.249314674	0.243588377	0.825884696	0.609094666	0.58402482	0.119076141
0.041632492	0.041149991	0.042466793	0.693215403	0.691916405	0.69295613
0.877334745	0.459015505	0.425559944	0.170588272	0.575674203	0.539640694
0.111399203	0.865340998	0.856239122	0.592204076	0.156297662	0.155349225
0.459422326	0.429462991	0.877240105	0.559831582	0.524349763	0.170758292
0.8689925	0.080021267	0.07697273	0.16255924	0.674708311	0.663124985
0.104561631	0.12412402	0.16999668	0.616753771	0.621862611	0.619142417
0.881620157	0.02773857	0.02769102	0.175436563	0.694296749	0.694825683
0.863495761	0.844012212	0.133701761	0.155210112	0.148071171	0.567868712
0.410250303	0.877772059	0.481037719	0.517511655	0.170850242	0.559464309
0.826251064	0.148921967	0.130928982	0.119245503	0.602131177	0.574731588
0.877254069	0.459424151	0.429477017	0.17044151	0.559796218	0.524379372
0.153973893	0.859211206	0.846496047	0.560871594	0.1519309	0.151245864
0.450414487	0.426987397	0.877416464	0.626539496	0.593080832	0.170534644
0.43590547	0.8773211	0.448070116	0.542894586	0.170501441	0.575833852
0.070188559	0.065653956	0.085528058	0.670326624	0.670824958	0.672056008
0.841355699	0.102907396	0.098998185	0.134986271	0.62775175	0.602779006
0.856029032	0.068837328	0.071545575	0.149021663	0.649570279	0.629141829
0.877898269	0.437498998	0.44446086	0.170923482	0.592417499	0.562804221
0.436179532	0.877378821	0.454344575	0.576407351	0.170523825	0.609809528
0.252248542	0.250606945	0.82570864	0.608573479	0.581656411	0.119054216
0.877686259	0.47031756	0.419885287	0.170739454	0.559639361	0.520957203
0.841786304	0.092713003	0.099693926	0.134805318	0.629656311	0.60426154
0.877514642	0.47366192	0.410258422	0.170544792	0.609322201	0.569479903
0.480781443	0.405868446	0.877457313	0.574757538	0.532335373	0.170574724
0.099736102	0.081199852	0.86911441	0.667214279	0.656682049	0.162588747
0.113927246	0.100075925	0.841918923	0.625860082	0.600603773	0.135039988
0.444572701	0.877331192	0.438303601	0.561797395	0.170330194	0.591309524
0.87756836	0.473527609	0.404151787	0.170654556	0.625718766	0.586056343
0.055325397	0.873105976	0.873992297	0.654764617	0.164809486	0.168390185
0.066946792	0.078273397	0.855819324	0.65343845	0.63303324	0.14937884
0.465741903	0.424541795	0.87737624	0.608766471	0.572180084	0.170607923
0.865030067	0.854719836	0.107642287	0.156235728	0.1543076	0.593701285
0.87740621	0.448662719	0.439648817	0.17049543	0.55974243	0.527724927
0.865863443	0.856389364	0.111444417	0.156248617	0.155359234	0.592174236
0.473495136	0.404106051	0.877489698	0.625952246	0.586159461	0.170576076
0.84592454	0.153947975	0.858335704	0.15086645	0.560906757	0.151672138
0.435989651	0.877421516	0.448141766	0.542680436	0.170632472	0.575499553
0.102177685	0.841512155	0.083414882	0.605466832	0.134654676	0.630765248
0.140168924	0.130775849	0.824636354	0.604614078	0.577537625	0.118823475
0.082389854	0.869114048	0.099798039	0.656320763	0.162632429	0.668862856
0.081779111	0.079007907	0.868902167	0.675839486	0.663961665	0.162575802
0.826249578	0.147984072	0.130856231	0.119569556	0.601679066	0.573650216
0.882013797	0.027521857	0.02755743	0.175509335	0.69437165	0.69480014
0.153940004	0.860611097	0.847381503	0.560907379	0.152845142	0.151991577
0.872797463	0.876136576	0.065174452	0.165092818	0.169332685	0.652764371
0.123103709	0.863382532	0.856324852	0.588427159	0.155089037	0.156294797
0.877255607	0.462411746	0.420975656	0.170543202	0.608555526	0.572135581
0.040636756	0.046544322	0.074605873	0.677638106	0.677408293	0.680238443
0.041161257	0.040990985	0.881207525	0.69244401	0.693090451	0.175030707
0.434743708	0.877269503	0.455479268	0.574147345	0.170552178	0.607921208
0.137248528	0.862220428	0.845414107	0.566182886	0.154481619	0.149057357
0.295924347	0.826012896	0.292675821	0.587521501	0.118894961	0.617750511
0.411678539	0.877665077	0.470074826	0.551429021	0.170758756	0.590701402
0.06251206	0.062479824	0.062449509	0.638335817	0.638334256	0.638504164
2.76777E-06	2.92667E-06	2.86872E-06	0.699422534	0.698808708	0.698831316
0.577538291	0.877443439	0.523721874	0.533986577	0.170583123	0.56295987
0.877371059	0.473554537	0.410224466	0.170538068	0.609080306	0.56926616
0.877356125	0.437069872	0.446354259	0.170599391	0.575718675	0.546078774
0.123095075	0.864520938	0.857248362	0.588502362	0.155747315	0.15685653
0.867243875	0.866513304	0.095506336	0.159486626	0.162750869	0.617320068
0.874439653	0.047216154	0.871944453	0.168513446	0.656880784	0.164867776
0.059975334	0.060038328	0.059986945	0.640170318	0.640114894	0.63987219
0.091648697	0.074366993	0.856339238	0.645408057	0.625767571	0.14988408
0.867223864	0.866250425	0.088265191	0.159572032	0.162474621	0.619670036
0.438590659	0.444478889	0.877631589	0.593187216	0.563458995	0.170624616
0.065231661	0.871867857	0.874079944	0.65277197	0.164797325	0.168403134
0.083404822	0.102203156	0.841695515	0.631103696	0.605745851	0.134724253
0.065239805	0.871682219	0.874588564	0.652783445	0.165075708	0.168626645
0.148754454	0.142656458	0.094743243	0.618244715	0.61631573	0.615272501
0.073811834	0.855595996	0.08247575	0.628090739	0.149430756	0.648173527
0.402503312	0.877406	0.485733791	0.564838415	0.170547978	0.607547895
0.419579674	0.877109653	0.470053848	0.5209561	0.170675292	0.559662267
0.425635715	0.877267698	0.459053517	0.539400977	0.170629053	0.575518405
0.841348911	0.083351551	0.102229319	0.134843116	0.631136596	0.605931615
0.104044681	0.866528862	0.866602299	0.615372952	0.15900493	0.162835684
5.49174E-06	0.874636538	0.882752342	0.699383389	0.16997375	0.175422494
0.435840129	0.877235117	0.448017718	0.542826745	0.170597055	0.575778854
0.825790452	0.277390754	0.282553984	0.118345019	0.613261094	0.583620572
0.087673427	0.867192917	0.86574412	0.61989613	0.159665311	0.1619951
0.446006897	0.877452922	0.437503072	0.563016014	0.170620227	0.592686837
0.86435298	0.856010907	0.11663875	0.155763672	0.155660847	0.590381194
0.068860996	0.071259895	0.85513412	0.649945162	0.629938929	0.148946013
0.855746806	0.116693142	0.864642211	0.155498907	0.59022773	0.155774426
0.862682422	0.84292178	0.133724621	0.155554812	0.148456276	0.56776905
0.87724363	0.484252356	0.399480751	0.170518348	0.608289411	0.565628958
0.881987122	0.027581443	0.027372643	0.175471457	0.694371436	0.694750098
0.104047636	0.867100078	0.866664472	0.615543113	0.159450631	0.162976408
0.014579888	0.014443443	0.881186452	0.697249808	0.697524437	0.175253154
0.86687034	0.09532763	0.86713638	0.16253528	0.617713462	0.159389594
0.841065823	0.083354155	0.102224975	0.134832538	0.631264422	0.605941119
0.088301219	0.079482312	0.868937303	0.672515212	0.661401508	0.162601168
0.081640095	0.869274675	0.099454627	0.65639005	0.162635138	0.669044998
0.057116613	0.044671885	0.075297027	0.675625439	0.674631507	0.676250739
0.847336947	0.846781863	0.846141946	0.257041786	0.25722665	0.256316216
0.088290323	0.080130867	0.868765442	0.672413441	0.660277643	0.162684275
0.439720249	0.877584275	0.44877847	0.527464665	0.170772393	0.559900391
0.856346745	0.116707619	0.864430729	0.155871845	0.59027426	0.156169428
0.070651503	0.05150124	0.082593889	0.673541333	0.672655459	0.674864355
0.069977159	0.05154649	0.082391604	0.673154491	0.672546891	0.674019957
0.100492049	0.841804173	0.114173445	0.60042148	0.13497724	0.625559635
0.070891811	0.051707373	0.083511304	0.673585472	0.67251315	0.674162957
0.027497766	0.881736798	0.027684105	0.695102925	0.175318123	0.69511258
0.11151586	0.864155921	0.8555705	0.591993989	0.155811297	0.155095973
0.8727678	0.875546052	0.055326955	0.165446195	0.168765689	0.654862295
0.847208077	0.153918695	0.859800781	0.151471304	0.560963707	0.152106248
0.103053485	0.099159732	0.841711575	0.627788559	0.60266291	0.134955985
0.868918417	0.080466092	0.076961329	0.162628395	0.672623722	0.661558946
0.845102843	0.141829504	0.860394808	0.149688474	0.56453639	0.153598056
0.242819521	0.242865323	0.825882577	0.608894328	0.583086874	0.119088386
0.103261265	0.841791377	0.12513434	0.59850274	0.135125909	0.6235664
0.882670458	0.027664698	0.027379978	0.175477709	0.694923184	0.694786744
0.074689587	0.074976971	0.075117604	0.634149564	0.634390594	0.634589467
0.102997497	0.078823165	0.85534064	0.643474856	0.623657205	0.14926161
0.424747013	0.877439438	0.464689654	0.573038997	0.170558956	0.609794091
0.43473051	0.8774624	0.45518954	0.57535329	0.170564302	0.608670321
0.85651172	0.116695523	0.864518089	0.155867629	0.59037239	0.155946527
0.860574036	0.845612737	0.147409211	0.153353228	0.150837422	0.562839023
0.86573037	0.087709157	0.866803135	0.161862306	0.619341845	0.159304023
0.147442773	0.859009771	0.845792055	0.562863773	0.152524238	0.150357942
0.843245131	0.133726999	0.861810319	0.147534224	0.56781466	0.154539827
0.425655376	0.877450287	0.459131961	0.539354116	0.170649913	0.575360815
4.92556E-06	4.8049E-06	0.88209614	0.699157685	0.699386628	0.175178279
0.102170811	0.841652344	0.083366309	0.605959398	0.134779737	0.630780288
0.446359315	0.877378463	0.437084939	0.5460899	0.170602246	0.575727846
0.758393896	0.757550358	0.756447576	0.383912132	0.383416563	0.382580193
0.405865933	0.877367974	0.480606589	0.532765169	0.17055864	0.575063809
0.027322313	0.876404429	0.883382739	0.695126112	0.170964223	0.175573711
0.87621689	0.883663689	0.027322271	0.170473861	0.175744556	0.695103332
0.846251765	0.153921846	0.859428956	0.151273645	0.560763329	0.152204381
0.092528523	0.080034195	0.869327328	0.667916821	0.656965926	0.162691251
0.439691885	0.877592882	0.44882013	0.527658402	0.170591932	0.559777269
0.07914356	0.869122976	0.093442571	0.659134441	0.162740634	0.670601251
0.072949592	0.85544277	0.081964656	0.627727047	0.149394859	0.647574639
0.073443364	0.855575415	0.082445671	0.627737492	0.149384651	0.64757919
0.854127875	0.11146505	0.864478127	0.155130613	0.592171261	0.156367255
0.484949588	0.393082061	0.87778163	0.625223182	0.582578702	0.170756318
0.841804186	0.09268733	0.099678692	0.134799096	0.629622803	0.60435223
0.882988325	0.054275492	0.875818678	0.174878383	0.690509289	0.170837972
0.088206618	0.078861112	0.868905121	0.672559557	0.661530139	0.162602373
0.874867473	0.065249475	0.871291559	0.16865669	0.652692663	0.164850859
0.877420669	0.462008385	0.415438987	0.170514924	0.626079465	0.589819972
0.081057719	0.855512516	0.066671474	0.63065814	0.148835334	0.652226874
0.14682373	0.132254953	0.825790531	0.601330762	0.571920383	0.119830189
0.425634496	0.877236346	0.459018219	0.539389709	0.170619092	0.575486964
0.147428538	0.859807635	0.844727706	0.562756073	0.15277523	0.150635785
0.476220971	0.412949094	0.877342248	0.610630013	0.57086136	0.170535795
4.91145E-06	4.76604E-06	0.88178366	0.699331801	0.699149903	0.175366091
0.415628826	0.877299022	0.469850887	0.536075797	0.170523524	0.575409425
0.045478544	0.048142776	0.053575115	0.655797521	0.656000564	0.656651219
0.871486361	0.875559199	0.055330138	0.165108396	0.168718749	0.654858103
0.439041727	0.878114256	0.439046446	0.596278343	0.171249361	0.626730612
0.462100295	0.415539264	0.877612253	0.626098035	0.589695	0.170469708
0.871882864	0.874080199	0.04739196	0.165190208	0.168223481	0.658621788
0.102985721	0.099116874	0.84159589	0.627757157	0.602494662	0.13502267
0.425665985	0.877295845	0.459042084	0.539399576	0.170650711	0.575541862
0.841596548	0.125087459	0.103790748	0.135306586	0.623106826	0.597743301
0.082542192	0.080112364	0.868799513	0.675436723	0.663840476	0.162581604
0.877348577	0.458980407	0.425625219	0.170576377	0.575626843	0.539622573
0.4424762	0.448926162	0.877300686	0.60743202	0.578059029	0.170590653
0.869058226	0.098348656	0.080534686	0.162757936	0.667025463	0.653995152
0.825849137	0.280817879	0.298874935	0.118477999	0.610836341	0.583065199
0.866636219	0.865605991	0.08177446	0.159270899	0.161349766	0.621450299
