Va	Vb	Vc	Ia	Ib	Ic
0.863727844	0.857303792	0.130360998	0.15463149	0.156735013	0.586518642
0.20820687	0.826683631	0.217745495	0.580310714	0.118950028	0.608881653
0.028134608	0.028300667	0.881789202	0.694734943	0.694856366	0.175406859
0.862038203	0.8423477	0.133723378	0.155085892	0.147778011	0.567705137
0.878783296	0.460261132	0.430155267	0.170858191	0.559815982	0.524391127
0.8601441	0.844269296	0.141734257	0.15281933	0.148885274	0.564528171
0.473345471	0.403953159	0.87718723	0.626007267	0.586110361	0.170473676
0.103142627	0.099203355	0.84151786	0.627744272	0.60244576	0.135035382
0.144474401	0.131791228	0.096696135	0.618277409	0.617506814	0.615845782
0.866245799	0.087729275	0.867692434	0.162103141	0.619313404	0.159577724
0.107642567	0.864689321	0.854443083	0.593698411	0.156737507	0.154425703
0.439708027	0.877669214	0.448879918	0.527574086	0.170781833	0.559826381
0.877607537	0.470358409	0.419754442	0.170810056	0.559661582	0.520963213
0.877821435	0.877123059	0.876933182	0.171223297	0.17052046	0.170747056
0.877403021	0.483695443	0.400164589	0.170604265	0.608767367	0.566109111
0.469543712	0.411263321	0.876716121	0.59036277	0.551915275	0.170133277
0.872163123	0.87551535	0.047431171	0.165311376	0.169222657	0.657148734
0.446339475	0.877349078	0.437074754	0.546073399	0.170580901	0.575726616
0.103113543	0.099104572	0.841751074	0.627733821	0.602615229	0.134996757
0.08553921	0.868987273	0.082304378	0.665344249	0.162512243	0.677373433
0.866498715	0.095001985	0.867345914	0.162255824	0.617684938	0.159466381
0.470142741	0.419728055	0.877348009	0.559614857	0.520956058	0.170582583
0.875372855	0.076028983	0.871619959	0.168749838	0.650565014	0.164587584
0.113976271	0.100061232	0.841980282	0.625860906	0.600621655	0.135040332
0.065216411	0.871570566	0.874033832	0.65286052	0.164668872	0.168374042
0.00000488	0.881782118	0.00000479	0.699130002	0.175462561	0.699233785
0.872903148	0.874389829	0.872760387	0.188446314	0.188767548	0.187729459
0.040861783	0.87577616	0.883499487	0.693144691	0.170617203	0.175525569
0.06884339	0.071292706	0.855550585	0.65010043	0.629377303	0.149050117
0.459028806	0.425715118	0.877315246	0.575437526	0.539324749	0.170587425
0.868845609	0.097664775	0.080780514	0.162779273	0.666146945	0.654062253
0.425661375	0.877445475	0.459156218	0.539364477	0.170655565	0.575432455
0.062477386	0.062478782	0.062438183	0.638256768	0.638405077	0.638528378
0.868769493	0.077081463	0.080165374	0.162576968	0.676027229	0.664364174
0.083078191	0.868979238	0.084478657	0.661004085	0.162572796	0.672944219
0.082765803	0.869254926	0.100069713	0.657212033	0.162628989	0.669495837
0.877193482	0.459167708	0.421919385	0.170285284	0.59045804	0.554575972
0.469853323	0.415747568	0.877399766	0.575433502	0.536280489	0.17056277
0.877324113	0.473486605	0.410326219	0.17053619	0.609337218	0.569444761
0.429581051	0.877508543	0.45956905	0.524392486	0.17065443	0.559895154
0.878443488	0.884988309	0.0000055	0.171160183	0.175780151	0.69946999
0.100492034	0.841785742	0.114133405	0.600366741	0.134992271	0.625573728
0.841634578	0.125234832	0.103705705	0.135295519	0.623268178	0.597870521
0.874530126	0.055394748	0.872956192	0.168559934	0.655136292	0.16475395
0.869033221	0.098373963	0.081241091	0.162781026	0.66918213	0.655527726
0.448142216	0.435911898	0.877412646	0.575826369	0.542883905	0.170552155
0.14171857	0.860639651	0.845856223	0.564528893	0.153927288	0.150145366
0.088262365	0.07997546	0.868764984	0.672435869	0.660225043	0.16268205
0.877069472	0.469963224	0.483775798	0.170761531	0.559411844	0.5307569
0.877374331	0.480730078	0.474318908	0.170672613	0.562101027	0.533303542
0.123130942	0.863236985	0.85627515	0.588618056	0.155220771	0.156316746
0.84669378	0.147468248	0.859839706	0.150402737	0.562804625	0.152631172
0.855823234	0.116773211	0.863783969	0.155603798	0.590298098	0.155515056
0.069810389	0.065021207	0.084776199	0.67050576	0.670370984	0.672757198
0.55925245	0.877305528	0.551368714	0.539106513	0.170559707	0.56648389
0.82551175	0.13715048	0.129845233	0.118644891	0.605589257	0.576347843
0.027888467	0.027590921	0.881139853	0.6947306	0.695168631	0.174840314
0.073687314	0.855556548	0.082412064	0.627735419	0.149375646	0.647589881
0.871986628	0.874638969	0.075951044	0.164398227	0.168128039	0.650408155
0.825965668	0.188358819	0.192403349	0.118498014	0.613043832	0.580596429
0.877350415	0.45913658	0.422114941	0.170400284	0.590590633	0.554770792
0.054579599	0.054257233	0.881676369	0.689972583	0.690232921	0.17517663
0.473582878	0.404196533	0.877667925	0.625933447	0.586149509	0.170727408
0.860902682	0.844173665	0.141773849	0.153632429	0.149686369	0.564486198
0.863969355	0.855884166	0.116634492	0.155678539	0.15568295	0.590339666
0.459075504	0.422064906	0.877568113	0.590780354	0.554814831	0.170943451
0.877614401	0.44879005	0.439740316	0.170716472	0.559966271	0.527629217
0.874792237	0.076030895	0.871514009	0.168369156	0.650568048	0.164817903
0.103234339	0.078886821	0.856422373	0.643771445	0.623444519	0.149643369
0.877365754	0.448092607	0.435841044	0.170628054	0.575771476	0.542882992
0.455008015	0.43586321	0.877420958	0.611041915	0.577377067	0.170577513
0.877463793	0.480451719	0.405826548	0.170570039	0.575392127	0.532895617
0.877495281	0.480543686	0.405738516	0.170590904	0.575403198	0.532975415
0.100628174	0.84187551	0.113927112	0.601060039	0.135129734	0.625918539
0.435989651	0.877421516	0.448141766	0.542680436	0.170632472	0.575499553
0.145622256	0.825758923	0.151697951	0.574809625	0.11912605	0.605165938
0.437058338	0.446284338	0.877274026	0.575742532	0.546004609	0.170582407
0.411396656	0.876988454	0.469679626	0.551459534	0.170482251	0.590573868
0.132614596	0.825991148	0.149786807	0.576109876	0.11894672	0.604162266
0.415451691	0.877440846	0.462016233	0.589795055	0.170520804	0.626071082
0.133741785	0.862441863	0.844090835	0.567776521	0.155467116	0.148441571
0.125103284	0.110058379	0.145571063	0.615583747	0.614481252	0.614626916
0.437064787	0.446303148	0.877298964	0.575700138	0.545992898	0.170575836
0.073968975	0.855527116	0.082582485	0.627548786	0.149285302	0.647723289
0.855294841	0.064243058	0.078166005	0.148892009	0.652938522	0.632608921
0.14745069	0.860292387	0.845919546	0.562692799	0.153126735	0.150829197
0.073240492	0.855377352	0.071612758	0.62931868	0.148934658	0.649681954
0.437097295	0.446333606	0.877364406	0.575807458	0.546042728	0.170570916
0.437084166	0.446338634	0.877354277	0.575723822	0.546007789	0.170627456
0.32912591	0.825990555	0.32070726	0.58689552	0.118645605	0.613241988
0.865644045	0.087719941	0.866789223	0.161888111	0.619273342	0.159322131
0.083408019	0.102174149	0.841538202	0.63115804	0.606302984	0.134857972
0.877114867	0.47000922	0.411967006	0.170175227	0.591442465	0.5527443
0.085788715	0.869123201	0.082326011	0.664881111	0.162356668	0.677161273
0.877206471	0.440433951	0.443947039	0.170610472	0.608246306	0.577763856
0.87138506	0.873998417	0.055334714	0.164536343	0.167635348	0.654736681
0.87729953	0.438639099	0.438634355	0.170318492	0.626574835	0.596423262
0.438400742	0.438395994	0.876822818	0.626549012	0.596312304	0.170427223
0.448825867	0.43959798	0.877488761	0.559695455	0.527849246	0.170733858
0.877407683	0.469803896	0.415610623	0.170553416	0.575399587	0.536129895
0.102202327	0.841491928	0.083411753	0.605462791	0.134654351	0.630781362
0.081855472	0.855908211	0.068818297	0.633561378	0.148942011	0.654101568
0.074756672	0.85628055	0.091404972	0.625649045	0.149807072	0.645911396
0.153952428	0.859547451	0.846655753	0.560817884	0.152085102	0.151307068
0.425643721	0.877341111	0.459104633	0.539484847	0.170479248	0.575604318
0.826171041	0.220113587	0.226497117	0.118844353	0.612204716	0.582591435
0.014566361	0.01453689	0.882148086	0.696891229	0.697099032	0.175753455
0.874005835	0.065238546	0.870893417	0.168025407	0.652740452	0.164498026
0.05621148	0.044897967	0.075124404	0.675586616	0.674648946	0.675907396
0.405799565	0.877265511	0.480579856	0.5327648	0.17055635	0.575082591
0.865253206	0.855491109	0.116586237	0.155927693	0.155913455	0.590377156
0.877622144	0.438800529	0.438795795	0.170828175	0.626567057	0.596430832
0.081378783	0.855639364	0.067041772	0.630386069	0.148797493	0.652518678
0.092747063	0.099677117	0.841389163	0.629549232	0.604419932	0.134830322
0.883737898	0.0000055	0.876017194	0.175494803	0.699365514	0.170869661
0.871907527	0.874365047	0.047225646	0.164843363	0.168069541	0.657100491
0.855212373	0.116686739	0.863098465	0.155179739	0.590316994	0.155600441
0.866470039	0.866730911	0.095499947	0.15947523	0.162742888	0.617428947
0.438881013	0.438876294	0.877783529	0.626685497	0.596337027	0.170647574
0.855572229	0.107503826	0.865674596	0.154838547	0.5939716	0.156998835
0.415322181	0.877177074	0.461882073	0.589722981	0.170651922	0.626168687
0.213955357	0.82600122	0.212500118	0.578273596	0.119294634	0.60631434
0.855396832	0.102861848	0.078986443	0.149298291	0.643414642	0.62365647
0.480561492	0.401270897	0.877151292	0.589904613	0.547888985	0.170275613
0.841508061	0.113764804	0.100388612	0.135150715	0.625738828	0.600768893
0.872709284	0.874110409	0.047242293	0.16495282	0.168125037	0.65698913
0.841750993	0.092680007	0.099669667	0.134796692	0.629599245	0.604324696
0.404085117	0.877406515	0.484278678	0.56497461	0.170516036	0.607605884
0.077043357	0.867413928	0.865873439	0.623145283	0.159884113	0.161420703
0.092771941	0.099607708	0.841618202	0.629475466	0.6044551	0.134933113
0.877100907	0.459383282	0.429370539	0.170418433	0.559765072	0.524386086
0.877197259	0.473350872	0.403956801	0.170652271	0.625800547	0.586140861
0.85458274	0.107529278	0.864706756	0.15493207	0.593860328	0.156995059
0.883185314	0.013706659	0.876015942	0.175138775	0.697334945	0.170512401
0.861161879	0.842768177	0.133718676	0.154872036	0.147729777	0.56776767
0.099641974	0.841846632	0.092659975	0.604326033	0.134896248	0.629760071
0.014113617	0.014130248	0.881566348	0.697039804	0.697422834	0.175311346
0.00000549	0.874876896	0.882861405	0.699313138	0.170304301	0.175034847
0.450524731	0.427099363	0.877638634	0.626501769	0.593097595	0.170677527
0.39307926	0.877767487	0.484939231	0.582653156	0.170815681	0.625183031
0.847619974	0.846956048	0.846603741	0.25708689	0.257316765	0.256793573
0.099674625	0.841769279	0.092661	0.604308343	0.134887688	0.629755117
0.882408387	0.054270919	0.875628773	0.174939384	0.690468804	0.170598894
0.864468923	0.855538084	0.111454674	0.156211778	0.155398534	0.592238896
0.866574551	0.866058273	0.10424938	0.159044454	0.162353917	0.615128387
0.877323989	0.459097193	0.42550178	0.17058297	0.575644482	0.539631479
0.090880639	0.079194372	0.869266654	0.668348278	0.657115331	0.16265062
0.045487754	0.048221882	0.054005698	0.655607821	0.656529583	0.655514453
0.458997878	0.422019721	0.877457231	0.590951047	0.555023846	0.170287117
0.864018598	0.863322718	0.863913107	0.219449641	0.219338543	0.219499826
0.883116092	0.05427493	0.876457391	0.174771905	0.69051986	0.170820286
0.842846525	0.133820302	0.8615252	0.147384575	0.567693571	0.154402199
0.867115482	0.865839776	0.077523386	0.159927198	0.161581017	0.6226713
0.459065042	0.425715889	0.877362859	0.575490374	0.539369102	0.170572337
0.080540956	0.855883908	0.104973795	0.623347128	0.14956021	0.642777214
0.877344261	0.459021436	0.42558466	0.170598598	0.57568961	0.539651729
0.480700041	0.401351932	0.877377359	0.590161516	0.548029869	0.170482593
0.876289068	0.877635218	0.877893007	0.170663563	0.170743874	0.170993312
0.868963373	0.083341612	0.07576251	0.162679709	0.674410041	0.661049447
0.287078068	0.825860454	0.281650717	0.581895887	0.118899081	0.6125013
0.103062694	0.099091647	0.841790621	0.627728262	0.602657804	0.134978198
0.083352063	0.868878506	0.084754485	0.660488665	0.162658675	0.67292332
0.062470069	0.062482883	0.062453336	0.638316426	0.638230029	0.638493608
0.855935797	0.107567923	0.865115067	0.15510009	0.593663696	0.157032768
0.01387288	0.014280203	0.013892916	0.69702548	0.696778594	0.69622021
0.059581873	0.064708491	0.06301687	0.652037869	0.651729762	0.652106911
0.825419344	0.136087451	0.127585875	0.118600869	0.606590711	0.577143708
0.499704446	0.516922894	0.877596925	0.559541357	0.530338786	0.170684578
0.87246888	0.874239643	0.047237586	0.164991261	0.168138893	0.656990718
0.436023616	0.877445268	0.448134852	0.542691161	0.170600051	0.575493553
0.438911594	0.438906851	0.877844612	0.626697709	0.596323878	0.17056129
0.866234597	0.077168713	0.867833862	0.161569184	0.623015808	0.160413659
0.861781937	0.862375042	0.863565759	0.218821517	0.21913048	0.219124834
0.865729635	0.087709239	0.866803023	0.161862515	0.61934125	0.159304157
0.107683066	0.864777435	0.854398958	0.593897787	0.156876581	0.154430536
0.873783224	0.055345608	0.871427492	0.168124627	0.654948743	0.164511346
0.084100381	0.868963275	0.085021751	0.660014236	0.162652721	0.673758796
0.114022697	0.099969751	0.841849833	0.625852519	0.600576333	0.135038269
0.141786583	0.861790308	0.84602439	0.564576716	0.154346391	0.150176515
0.082617247	0.856047619	0.069067968	0.631439035	0.149124022	0.652808854
0.553079179	0.877307962	0.556850089	0.537979353	0.170523369	0.566028264
0.083450483	0.299218237	0.277362753	0.620062924	0.618671771	0.618359313
0.848574814	0.846574968	0.847817919	0.257381539	0.257096799	0.257047304
0.095685738	0.866878675	0.866408591	0.617421935	0.159472668	0.162635132
0.080272264	0.855257989	0.104410218	0.623401123	0.149177397	0.64336403
0.881681035	0.027685262	0.027540054	0.175423919	0.694325795	0.694759961
0.113653626	0.100312939	0.841487191	0.626093385	0.600669436	0.134983412
0.868984486	0.090066608	0.076047956	0.162678477	0.672111577	0.659810324
0.081921638	0.869266666	0.099246607	0.656580122	0.162649051	0.669294233
0.426997803	0.87743071	0.450418304	0.593043354	0.170504421	0.626459029
0.423654562	0.877404748	0.465610589	0.57295087	0.170564785	0.609711923
0.165953137	0.153333814	0.09520434	0.617565149	0.617059894	0.615749392
0.213388468	0.826004486	0.212012262	0.578054775	0.119304497	0.606374027
0.045268222	0.87223212	0.874721698	0.659057616	0.165444659	0.168560656
0.865420792	0.077027333	0.867442715	0.16090824	0.623418231	0.15951872
0.124682866	0.103205466	0.841730866	0.624175408	0.598595686	0.135153118
0.07485951	0.074889302	0.074987242	0.63417509	0.63434309	0.634673383
0.074114782	0.855540132	0.082349975	0.627669727	0.149229426	0.648312218
0.438849696	0.877730448	0.438854423	0.596446117	0.17054741	0.626583638
0.825548023	0.147864286	0.131317745	0.119084751	0.604686256	0.575295022
0.438455588	0.444576757	0.877685775	0.592950002	0.563361645	0.170546868
0.868813124	0.076324648	0.079901447	0.162578873	0.676240438	0.664495826
0.860979867	0.844069529	0.141731078	0.153552306	0.149607033	0.564540035
0.876270099	0.884125944	0.05427516	0.171069201	0.175601636	0.690530151
0.454891366	0.435966124	0.877427656	0.610994211	0.577242479	0.170576341
0.876898765	0.469934763	0.419490429	0.17066683	0.559677661	0.520959118
0.44773971	0.432441946	0.877029095	0.590813627	0.558338265	0.170111827
0.279559058	0.300689489	0.825861437	0.613493059	0.583973961	0.118720631
0.82583829	0.253296005	0.254367329	0.118966376	0.61235892	0.582934897
0.864643954	0.854971472	0.1113655	0.155635871	0.154565246	0.592076285
0.877490353	0.480495872	0.405828562	0.170552932	0.575122498	0.532776888
0.825143213	0.822971549	0.825020521	0.298470448	0.298530198	0.29774806
0.462134317	0.415571425	0.877678554	0.626259466	0.589627942	0.170761707
0.074782317	0.074972116	0.075168231	0.634204461	0.634355267	0.634493012
0.066753576	0.079552907	0.853902788	0.652904891	0.633293121	0.148804975
0.082593771	0.869104008	0.099710152	0.656323982	0.162631431	0.668850133
0.86890394	0.092021321	0.07767008	0.162691995	0.671340827	0.659311002
0.426986435	0.877411019	0.450410103	0.593145799	0.170528154	0.62638258
0.040857396	0.875734968	0.883533514	0.693071311	0.170447737	0.175430804
0.013705155	0.875715772	0.882315304	0.697267242	0.170228024	0.174652406
0.088072416	0.86713719	0.86545622	0.619026043	0.159627918	0.162172598
0.881504973	0.041100437	0.040749276	0.1755043	0.692481529	0.693068032
0.475723472	0.41356749	0.877436364	0.608386355	0.569064489	0.170609721
0.065241294	0.871855321	0.874307626	0.652777222	0.165033829	0.168578346
0.127355494	0.293377354	0.198594934	0.621827126	0.624758439	0.623535377
0.410152064	0.877500658	0.480868295	0.517470607	0.170612078	0.559459348
0.137221957	0.859913459	0.844452335	0.56634751	0.1542452	0.149075826
0.877479332	0.480578454	0.405746849	0.170593019	0.575376633	0.53296221
0.054272728	0.876392369	0.882796444	0.690467448	0.170895997	0.174744713
0.086320493	0.868947877	0.083120601	0.665107445	0.162493236	0.677417393
0.217530228	0.826064362	0.217571305	0.580386496	0.119311416	0.608993578
0.342930282	0.825185055	0.329518651	0.586851713	0.118491309	0.61471867
0.865386324	0.077111524	0.867020798	0.161278945	0.622922444	0.160311094
0.867389512	0.865742614	0.081843881	0.159859749	0.161518813	0.62093572
0.028075809	0.027723405	0.88156042	0.694776607	0.694640142	0.175382523
0.877664193	0.48489075	0.393022947	0.170726462	0.625176193	0.582600837
0.083405691	0.102149265	0.84154558	0.63086575	0.605763202	0.134730389
0.045199454	0.871819737	0.873864795	0.659042574	0.165238937	0.168151698
0.459073728	0.425727447	0.877390834	0.575491008	0.539380915	0.170570521
0.884531196	0.013709356	0.877135145	0.176026163	0.697547035	0.170866821
0.864588169	0.863661876	0.863983583	0.21977704	0.219843162	0.21916883
0.87612959	0.883424022	0.027331556	0.170526754	0.17566128	0.695396426
0.103999067	0.867198721	0.866758134	0.615755783	0.159302305	0.162893704
0.877772416	0.484932576	0.393092512	0.170713406	0.625194917	0.582601147
0.855864605	0.068706556	0.071856329	0.149496509	0.64981791	0.62994307
0.00000484	0.0000049	0.881686506	0.699291254	0.699150911	0.175261194
0.085617696	0.869235861	0.083057441	0.665419231	0.162510232	0.677481856
0.13184207	0.825952789	0.149620162	0.575909945	0.118977088	0.604175518
0.081251281	0.084536436	0.868957306	0.679608554	0.666578305	0.162500335
0.278525157	0.282356563	0.826112959	0.610898675	0.582996893	0.119092528
0.878197677	0.439087863	0.439083232	0.17082635	0.626718023	0.596360053
0.455044236	0.435878403	0.877394087	0.611013853	0.577443118	0.170591148
0.087518526	0.079237158	0.868697589	0.672432743	0.660314	0.162661501
0.470235062	0.419713997	0.877426129	0.559617879	0.520961729	0.170536083
0.124663493	0.103279709	0.841798512	0.624089739	0.598648387	0.135240079
0.124574146	0.296621346	0.204622856	0.621709081	0.62707418	0.624871762
0.863325805	0.856668328	0.123165254	0.15571401	0.156480591	0.588426659
0.072823455	0.855743208	0.082700377	0.627741595	0.149403369	0.647577641
0.421694536	0.876847046	0.458783903	0.55480413	0.170474441	0.590582413
0.074896679	0.074918713	0.075176413	0.634062805	0.634515156	0.634424378
0.13985432	0.131662099	0.824568495	0.604859721	0.577534426	0.118823988
0.073708889	0.855166703	0.082396605	0.62811843	0.149417462	0.647863753
0.843004337	0.133768452	0.861129974	0.147637006	0.567817948	0.154591587
0.86607113	0.081501115	0.866954779	0.161640344	0.621361537	0.159641981
0.877703545	0.470358832	0.419846433	0.170812456	0.559678647	0.521091106
0.881392318	0.00000494	0.0000048	0.175330114	0.699515785	0.699657828
0.883236775	0.0137074	0.875178839	0.175039083	0.697371173	0.17043497
0.142734101	0.825833002	0.146367764	0.575723769	0.118887717	0.602543485
0.054608023	0.05426184	0.880906365	0.690005105	0.690415255	0.175155247
0.415479761	0.877494303	0.462041899	0.589832969	0.17051417	0.626053114
0.13713678	0.861706751	0.843141888	0.566105094	0.15445003	0.148926582
0.100532456	0.84203509	0.113943061	0.601055918	0.135127463	0.625901735
0.876867094	0.450137691	0.426715097	0.170543411	0.62643975	0.593165956
0.12469703	0.103258958	0.841730397	0.624176926	0.598592604	0.135158321
0.099226582	0.841772343	0.103078696	0.602390025	0.134906962	0.627659104
0.87760777	0.43879333	0.438788593	0.170857981	0.626589391	0.596438717
0.073127437	0.855662495	0.082521491	0.627731744	0.14938634	0.647604201
0.877490069	0.480557135	0.405733831	0.170594118	0.575400308	0.532973743
0.027641567	0.027488115	0.881123314	0.694863138	0.695547297	0.175198461
0.87207936	0.874190591	0.047899899	0.165191361	0.168309446	0.658773192
0.877247443	0.484682202	0.392816209	0.170718052	0.625251838	0.582646361
0.877874372	0.462233456	0.41566802	0.170713041	0.626336126	0.589659745
0.45936841	0.429556027	0.877277576	0.559710288	0.524345751	0.17067424
0.013864253	0.014481423	0.014063507	0.697248688	0.697044413	0.697434221
0.465738035	0.424539246	0.877373327	0.608758691	0.57217759	0.170611721
0.87754036	0.459567793	0.429606581	0.170393584	0.559752426	0.524405705
0.083404997	0.102195055	0.841803332	0.631192757	0.605772113	0.13471284
0.459010371	0.421992633	0.877444011	0.590785172	0.55509229	0.170457288
0.04147019	0.041161386	0.042214885	0.693072529	0.692499318	0.692431868
0.846945373	0.153933044	0.859447821	0.151481321	0.560950452	0.152099786
0.133736492	0.861899936	0.844291202	0.56777728	0.155359056	0.14832061
0.076644438	0.079990635	0.868972006	0.678329229	0.665996186	0.162511321
0.124629692	0.103255699	0.84193769	0.623895925	0.598660083	0.135243083
0.405857519	0.877362074	0.480612234	0.532772941	0.170537041	0.57510029
0.401461606	0.877426635	0.480696399	0.548661997	0.170625479	0.590338635
0.866056353	0.081525542	0.866982904	0.161713459	0.6213134	0.159596391
0.087759808	0.867162983	0.865522722	0.619783161	0.159509737	0.162121806
0.843879131	0.137130259	0.861624783	0.148845989	0.566230692	0.154332387
0.881363804	0.041220515	0.040827832	0.175384244	0.69252969	0.693099968
0.877466452	0.480429797	0.405887112	0.170582489	0.575396523	0.532928595
0.826834243	0.194804085	0.188458359	0.118896401	0.610353116	0.580494143
0.438687912	0.438683214	0.877397367	0.626654397	0.596319977	0.170720773
0.877367204	0.44809147	0.435847992	0.170627848	0.575771105	0.542883692
0.044654352	0.049597422	0.052076896	0.658467926	0.659256532	0.658795047
0.847067018	0.153967525	0.858772975	0.150877775	0.560858572	0.15154197
0.060081671	0.06000841	0.059894248	0.640046582	0.640614751	0.639927444
0.00000278	0.00000293	0.00000285	0.699170206	0.699345626	0.699564645
0.455009645	0.435885141	0.877399717	0.611028609	0.577432905	0.170589364
0.873138587	0.875220599	0.8761129	0.188391795	0.188966205	0.189362874
0.864013798	0.863217101	0.864032382	0.21948483	0.219355521	0.219495283
0.124754765	0.103142734	0.841842185	0.624004631	0.598661544	0.135250122
0.883176017	0.054272424	0.875904648	0.174935269	0.690505879	0.170618524
0.874868018	0.047189962	0.871948948	0.168507932	0.656911039	0.164873671
0.881184775	0.027810371	0.027649759	0.175463166	0.694663324	0.69539606
0.867419806	0.866737219	0.095423512	0.159246655	0.162566569	0.617825387
0.081699444	0.867747244	0.865735574	0.621380574	0.159884291	0.161429407
0.415475299	0.877495228	0.46204701	0.589904628	0.170618703	0.626083177
0.415425274	0.877268202	0.470022364	0.536067163	0.170524969	0.575400574
0.04527095	0.872323636	0.874849956	0.659159608	0.165534209	0.16876234
0.841659275	0.083364036	0.102282792	0.134901027	0.631418829	0.605873389
0.470208561	0.419656044	0.877353133	0.559649355	0.520989782	0.17057467
0.8752157	0.883868858	0.054271256	0.170745842	0.175479875	0.690440557
0.867176357	0.865658485	0.081833777	0.15973702	0.16155846	0.620936116
0.095453573	0.866406082	0.866045849	0.61751884	0.158872236	0.161996447
0.047170423	0.871999584	0.87443898	0.656916436	0.164758175	0.168375519
0.413764362	0.877393188	0.475710555	0.566000786	0.170680005	0.605538237
0.091740979	0.074186571	0.855272791	0.645322854	0.625799555	0.14869692
0.841604962	0.102987499	0.098708976	0.134981765	0.627933082	0.602803363
0.826601195	0.263066958	0.284334552	0.11873324	0.611526435	0.584125909
0.067585379	0.067726203	0.067849694	0.63628169	0.636545706	0.636774484
0.47358333	0.404197046	0.877668886	0.625933319	0.586149594	0.170727386
0.87745543	0.480838505	0.41014988	0.170913103	0.559639531	0.517397244
0.469915928	0.411874078	0.87770576	0.590534099	0.551685284	0.170398286
0.88354764	0.027330552	0.875896221	0.175365449	0.695346683	0.170892195
0.855631698	0.111420893	0.864576344	0.155075853	0.592001446	0.15605398
0.420102792	0.878250785	0.470644907	0.521106332	0.170830274	0.559706506
0.079290444	0.868917686	0.088537623	0.660887843	0.162628198	0.670719283
0.840998849	0.083312295	0.102218434	0.134813494	0.631248987	0.605927193
0.0000049	0.881873191	0.00000488	0.69929561	0.175349713	0.699209679
0.864955948	0.854581648	0.107677343	0.156403619	0.154057339	0.593809419
0.091699763	0.074471992	0.856150741	0.645589847	0.625471649	0.149723546
0.422109259	0.877456269	0.458970276	0.555311821	0.170429683	0.59114721
0.07885014	0.868936761	0.088243358	0.660319924	0.162619559	0.670631454
0.825102268	0.195834975	0.199335191	0.118579746	0.611613662	0.578706781
0.873249613	0.876434047	0.065184201	0.165201527	0.169133697	0.652768443
0.00000549	0.876402643	0.883604311	0.699060859	0.17107157	0.175571355
0.100329028	0.84179716	0.11394787	0.600931805	0.135037104	0.625974004
0.054572926	0.055342127	0.055171336	0.690503824	0.689903029	0.690509864
0.872586868	0.87446349	0.065200489	0.165106256	0.168869464	0.652884817
0.877822346	0.437436353	0.444453437	0.170665735	0.591970206	0.562633105
0.867180689	0.104027444	0.866593143	0.162641404	0.61540946	0.158958525
0.873944202	0.047235019	0.870306031	0.168562556	0.656804953	0.164313598
0.458959071	0.425755861	0.877347367	0.575873524	0.539676445	0.170583788
0.882056753	0.00000493	0.00000486	0.17542003	0.699255846	0.699270812
0.47027627	0.419791875	0.877553505	0.559657598	0.520991503	0.170611188
0.087652539	0.079195467	0.868738209	0.672382401	0.660117121	0.162641793
0.00000278	0.00000286	0.00000281	0.699169129	0.699095771	0.699498561
0.872583555	0.874354126	0.872449269	0.188566888	0.189074715	0.188587036
0.866516145	0.865817361	0.088317745	0.159300748	0.161825659	0.619565746
0.103574097	0.841785667	0.125136889	0.598627337	0.135398267	0.623547161
0.0000049	0.881317277	0.00000481	0.699192886	0.175203921	0.698879401
0.429573278	0.877499933	0.459568091	0.52439248	0.1706549	0.559895236
0.861904427	0.845753593	0.141712396	0.153868556	0.150037774	0.564595496
0.854425255	0.116702935	0.862243576	0.155342928	0.590374839	0.155567381
0.862049664	0.842993739	0.133703846	0.154730986	0.147459747	0.56770611
0.139983468	0.131133756	0.825575214	0.606063206	0.577480572	0.119139137
0.46202871	0.415475477	0.877476367	0.626324435	0.589643343	0.170635005
0.437102335	0.446353082	0.877389897	0.575775717	0.546042525	0.170621437
0.095385196	0.86634411	0.866045411	0.617519011	0.158874655	0.162002118
0.411647973	0.877546901	0.469973809	0.55166116	0.170348943	0.59050705
0.826230869	0.218384036	0.220028902	0.11861979	0.611191768	0.581574306
0.054597872	0.054258256	0.882029023	0.689936692	0.690742008	0.175148418
0.855660839	0.116682488	0.864390038	0.155571627	0.590229699	0.155833361
0.027303042	0.881673355	0.027661796	0.695335638	0.175104426	0.694420828
0.102907443	0.133325206	0.180187623	0.617712309	0.620959305	0.621595037
0.458973927	0.421941653	0.877354028	0.590758815	0.555082473	0.170371915
0.855307742	0.102819978	0.079148487	0.149371182	0.643431534	0.623499787
0.877771605	0.484932211	0.393092056	0.170712474	0.625194811	0.582601112
0.877961579	0.437567609	0.444569414	0.170668826	0.590989433	0.561517864
0.296253081	0.825726281	0.300862735	0.586266679	0.118885822	0.615820255
0.866633391	0.86660585	0.095343711	0.159319296	0.162633571	0.617858581
0.059623743	0.064891104	0.063062017	0.652036514	0.651764116	0.652040325
0.392939434	0.877459873	0.484773339	0.582440183	0.170490459	0.625286791
0.826522202	0.148208923	0.131638594	0.11913673	0.60485852	0.57561428
0.877311536	0.459152538	0.422067334	0.170416407	0.59058822	0.554760294
0.439498003	0.877162154	0.448590898	0.527550331	0.170773633	0.559785674
0.079888644	0.869025244	0.093893945	0.659176491	0.162693689	0.670389407
0.877083851	0.447879464	0.432743274	0.170270738	0.590877981	0.558504755
0.857597562	0.123138398	0.86356701	0.156281464	0.588560721	0.155258245
0.877316487	0.473145011	0.410600168	0.170538016	0.60931024	0.569421803
0.868958499	0.080169842	0.077188604	0.162528719	0.67472622	0.663038409
0.062509234	0.062480994	0.062409186	0.638245339	0.638262582	0.638517923
0.15394914	0.860094661	0.846669867	0.560850308	0.152731428	0.151910954
0.091645098	0.074266838	0.856327557	0.64536024	0.625774675	0.149793366
0.442942319	0.44825545	0.877346768	0.60656967	0.576604892	0.170603103
0.458992151	0.421861769	0.87728482	0.590954007	0.554905908	0.170799223
0.868862839	0.081581597	0.078115094	0.16261271	0.673402169	0.661726169
0.392913298	0.877446629	0.484783956	0.582672168	0.170788628	0.62524525
0.841366078	0.083367399	0.102199901	0.134829836	0.631367071	0.606229674
0.080150211	0.86899875	0.093804959	0.65912569	0.162679952	0.670409089
0.882070103	0.054275452	0.87529737	0.174905466	0.690520623	0.170709991
0.842203482	0.133783985	0.862535947	0.147524688	0.567674042	0.154502353
0.13719407	0.861367511	0.843766003	0.56626835	0.153998177	0.148697655
0.045229363	0.872012764	0.874841896	0.659040159	0.165272854	0.168179926
0.86887995	0.081072614	0.077288742	0.162624057	0.67288759	0.661573086
0.091227579	0.078050495	0.868856931	0.667968149	0.657383505	0.162568515
0.841270995	0.083365283	0.102205721	0.134761291	0.631387162	0.606063282
0.877251583	0.438615111	0.438610366	0.170263911	0.626585021	0.596422951
0.085970906	0.868960405	0.082714965	0.665200454	0.162501427	0.677417004
0.111439533	0.864164317	0.855648513	0.592122498	0.155839216	0.155070085
0.877401753	0.469792344	0.415581357	0.170599831	0.575555911	0.536216895
0.86303741	0.86257161	0.863976854	0.218964417	0.219089989	0.219454325
0.065206722	0.871684731	0.874722724	0.6528782	0.164502347	0.168689074
0.84632752	0.153958498	0.859209303	0.150826364	0.560889458	0.15167099
0.876132682	0.883808147	0.02732344	0.170422424	0.175723288	0.695127362
0.099674291	0.841878153	0.092669691	0.604429208	0.134883996	0.629762602
0.044666498	0.871646709	0.874120762	0.659356697	0.164845666	0.168004859
0.100303174	0.84176016	0.113949015	0.600891811	0.134996432	0.625946595
0.133729891	0.861922064	0.843513523	0.567750525	0.155250997	0.148245128
0.055328386	0.873070496	0.873842923	0.654730014	0.164952086	0.168564444
0.137178058	0.861310653	0.843376548	0.56628787	0.153955711	0.14867323
0.013934906	0.014319046	0.013848587	0.696971771	0.697446331	0.697449644
0.141859225	0.860834816	0.844946522	0.564452339	0.153726076	0.149841426
0.079773337	0.071528895	0.855358796	0.647732525	0.627550867	0.148922973
0.862303924	0.843260785	0.133712459	0.155124354	0.147823352	0.567810729
0.099065409	0.841803277	0.10306866	0.602548489	0.134914238	0.627682196
0.157423082	0.148412319	0.094209514	0.616961313	0.616264611	0.6153627
0.867096415	0.86585056	0.077280636	0.160100388	0.161786419	0.622717841
0.092835155	0.099655925	0.841666683	0.62930958	0.604400461	0.134974008
0.450195134	0.426770778	0.876980609	0.626440224	0.593136785	0.170419136
0.877738789	0.480971352	0.401797727	0.170768169	0.590261612	0.547986495
0.882583534	0.040847757	0.876136462	0.174528126	0.692855771	0.170548522
0.88136508	0.00000482	0.00000491	0.1754127	0.699021828	0.698961631
0.864834173	0.077129561	0.867239999	0.161061689	0.622862243	0.159866174
0.027950541	0.027579062	0.028369366	0.694918484	0.694362709	0.695018249
0.874887757	0.076027263	0.872193127	0.168391853	0.650537679	0.16481447
0.473546262	0.404167702	0.877602255	0.625917328	0.586022224	0.170478626
0.419776181	0.877544061	0.470278883	0.520889686	0.170653669	0.559684285
0.140846168	0.130380367	0.824641854	0.604647867	0.577647254	0.118844946
0.862946875	0.863882711	0.862759333	0.218931577	0.219332766	0.219033305
0.866922008	0.866436027	0.088300234	0.159557452	0.162290916	0.619568822
0.141861727	0.861066676	0.844217751	0.564511369	0.154145973	0.150041735
0.881237135	0.00000486	0.00000483	0.175396217	0.699148175	0.699587802
0.044569158	0.872302918	0.873553374	0.659176793	0.165729468	0.16841219
0.448779411	0.43965789	0.877506335	0.559887222	0.527497129	0.170722803
0.88241442	0.054496067	0.054133581	0.175674546	0.690080199	0.690383853
0.401673261	0.877713453	0.480773118	0.548261917	0.170445421	0.589945988
0.00000277	0.00000292	0.00000285	0.69913568	0.69954724	0.698809679
0.079895097	0.869164239	0.093358823	0.659150537	0.162736664	0.670624258
0.846841019	0.153952172	0.859205113	0.151445648	0.56088092	0.152070796
0.882444534	0.054647622	0.054315781	0.17585625	0.690351563	0.690267722
0.866530161	0.86668445	0.095492032	0.159483985	0.162733766	0.617443382
0.103186189	0.078922284	0.856376101	0.643763798	0.62345636	0.149648224
0.884154726	0.0000055	0.875359893	0.175188187	0.699386773	0.170103066
0.884113494	0.027325114	0.875029632	0.175566136	0.695216809	0.170293123
0.843530337	0.133773277	0.861864923	0.147645738	0.567829972	0.15459748
0.88181819	0.054555821	0.054223797	0.175822452	0.690196568	0.690262224
0.125218904	0.110235914	0.145340642	0.615724028	0.614470606	0.614755598
0.876650125	0.883345675	0.040860509	0.170789725	0.1758856	0.693142448
0.863260769	0.856485208	0.123133781	0.155761676	0.156551378	0.588472976
0.871966094	0.875712301	0.075950327	0.164748505	0.169348846	0.650431344
0.877215561	0.459103402	0.422055089	0.170310897	0.590445485	0.554562811
0.847082691	0.147491248	0.859855311	0.150530003	0.562757341	0.152806175
0.876680337	0.883329583	0.040860475	0.170786969	0.175889485	0.693141535
0.041943365	0.041055363	0.042478799	0.692897852	0.691735977	0.692313859
0.04133379	0.881924904	0.041631925	0.693094673	0.175190299	0.692859478
0.877295822	0.440460606	0.443943761	0.170534845	0.60807974	0.577710959
0.882002126	0.00000489	0.00000485	0.175391913	0.699230607	0.699359517
0.487170284	0.401063196	0.877411655	0.607398756	0.564314058	0.17053059
0.079672249	0.082578566	0.868843674	0.677540894	0.665296615	0.162584291
0.8773889	0.469814809	0.415563359	0.170556541	0.575403465	0.536120145
0.866859404	0.095285216	0.867254954	0.162520007	0.617722453	0.159387451
0.1247524	0.102965503	0.841849392	0.623822839	0.598125386	0.135141537
0.054252893	0.881595801	0.054652224	0.690467713	0.1753413	0.689989724
0.872087045	0.874081377	0.047766431	0.165116715	0.168145008	0.658665088
0.404174202	0.877628768	0.473565493	0.586220267	0.170788199	0.625865318
0.877703854	0.480922866	0.401856126	0.170833071	0.59028721	0.547962017
0.04114056	0.040873229	0.88176696	0.692633548	0.692994204	0.175207003
0.067672991	0.067609434	0.067928603	0.63648768	0.636353836	0.636726932
0.080078028	0.868811488	0.092886618	0.658301196	0.162734168	0.669996913
0.242819521	0.242865323	0.825882577	0.608894328	0.583086874	0.119088386
0.054583538	0.055444802	0.05516074	0.690399615	0.690116373	0.690299011
0.102206009	0.841611783	0.083417031	0.606127131	0.134723241	0.63143797
0.068865552	0.071288056	0.855599369	0.650137669	0.629385362	0.148795375
0.079728274	0.071557646	0.855629705	0.648164687	0.627237613	0.149068659
0.068880739	0.071255195	0.85553972	0.650034529	0.629472864	0.148912835
0.480689423	0.401374173	0.8773893	0.590061693	0.547994196	0.170370543
0.045627479	0.048286456	0.054332718	0.655382064	0.656490137	0.655476845
0.059520213	0.064880427	0.063246689	0.652004139	0.651813268	0.652073218
0.139568167	0.13063424	0.825483542	0.604087286	0.576515878	0.118842329
0.044811105	0.049695297	0.051919611	0.657554142	0.658068264	0.658505047
0.877604671	0.473983208	0.484308458	0.170737492	0.561814705	0.532202208
0.081974596	0.869097371	0.099052716	0.656181391	0.162644235	0.668848047
0.411611266	0.877534106	0.469992856	0.551576041	0.170520586	0.590518503
0.092783177	0.080731495	0.868954609	0.667809654	0.656875721	0.162709263
0.877407596	0.450745301	0.432445712	0.170560898	0.609761795	0.576354006
0.825928271	0.187710257	0.191165769	0.118454302	0.612939217	0.581063558
0.027775165	0.027572605	0.881259521	0.694991498	0.695682342	0.175198816
0.057799415	0.038479354	0.076642569	0.679830382	0.679025054	0.680211854
0.081543623	0.867614723	0.865722818	0.621375094	0.15990041	0.161487867
0.013818119	0.014011418	0.013814505	0.696616167	0.697367139	0.69683337
0.066733869	0.079456041	0.854302376	0.653165533	0.633443152	0.148762836
0.054573304	0.054249589	0.881692505	0.690000801	0.69061537	0.175323795
0.881139488	0.00000488	0.0000049	0.175369108	0.699061414	0.699264623
0.348232067	0.825374993	0.34173906	0.583710725	0.11847092	0.613121174
0.113622595	0.100298566	0.841574728	0.626152073	0.600653147	0.134972
0.070115855	0.05161672	0.082272412	0.67341739	0.672593132	0.674968241
0.480816959	0.410159557	0.877446806	0.559343207	0.517504721	0.170637947
0.427053641	0.877543325	0.450474735	0.592984409	0.170797594	0.626525499
0.092720846	0.099596036	0.841602399	0.629577467	0.60457294	0.134958397
0.079088908	0.869021936	0.088715791	0.663926215	0.162636864	0.672976832
0.411509483	0.877264923	0.469834643	0.551737394	0.170325109	0.590528544
0.841677179	0.124848631	0.103681889	0.135304089	0.623055394	0.598042592
0.866147571	0.087671774	0.866414156	0.161597127	0.619368474	0.15899395
0.091697359	0.074520074	0.856193347	0.645545411	0.625857749	0.14940073
0.427013704	0.87746667	0.450438119	0.593042249	0.170486687	0.626488493
0.496779445	0.512110668	0.877521667	0.560632316	0.531692714	0.17063451
0.438816642	0.877664436	0.438821336	0.596359433	0.17093832	0.626484783
0.013908911	0.014411574	0.013932435	0.696988147	0.697498205	0.69754362
0.243371199	0.243344426	0.825804515	0.608727454	0.582438817	0.119088876
0.484722691	0.392859548	0.877330775	0.625221281	0.582639777	0.170679223
0.081731114	0.869220145	0.099781274	0.657179143	0.162644718	0.66951511
0.29555966	0.294800638	0.825703577	0.613786792	0.584390442	0.118714336
0.102206129	0.841691721	0.08346581	0.606033305	0.13477172	0.630873086
0.877339904	0.437070774	0.446336157	0.170588362	0.575738396	0.546081752
0.027341252	0.881603593	0.027662942	0.695326546	0.175045988	0.694369251
0.054499163	0.055160074	0.054927235	0.690320767	0.690296117	0.690894092
0.844193404	0.133794282	0.8625888	0.147648728	0.567769772	0.15463017
0.855726825	0.107570527	0.865130573	0.15530318	0.593755502	0.1570951
0.080195712	0.855595909	0.104361359	0.623687333	0.149290492	0.643739907
0.107821945	0.86492148	0.855063436	0.593706575	0.156830583	0.154613318
0.070051388	0.071482003	0.073647816	0.649863189	0.650001005	0.650145209
0.864610609	0.854306792	0.107664436	0.156385459	0.154006626	0.593870403
0.437106934	0.446356216	0.877396391	0.575805385	0.54604594	0.170570541
0.875909403	0.883344215	0.0000055	0.170610997	0.175229739	0.699305383
0.06250793	0.062485676	0.062416478	0.638218191	0.638263476	0.638536453
0.044290299	0.872367099	0.873185077	0.659310031	0.16560883	0.168275267
0.069365468	0.065602267	0.085181477	0.670503815	0.670491826	0.67268825
0.881429407	0.00000482	0.00000492	0.175450268	0.698861363	0.699274664
0.876373598	0.88360124	0.027333195	0.17063878	0.175858472	0.695436959
0.540524822	0.87735557	0.557250122	0.530837192	0.170571487	0.560327193
0.028139675	0.027801382	0.881599015	0.694792805	0.69512308	0.175273075
0.825569864	0.13710213	0.128296696	0.118636942	0.606608192	0.577567061
0.877880174	0.87713279	0.877217549	0.171138191	0.170545453	0.170695984
0.045274141	0.048837918	0.054029543	0.656035228	0.655937682	0.656127096
0.855402373	0.111430868	0.864403886	0.15500074	0.592009373	0.155902613
0.140383534	0.130557151	0.825664203	0.604110122	0.576115047	0.119142529
0.825704886	0.148058768	0.13123819	0.119191417	0.604736337	0.575494465
0.866670181	0.104006174	0.867116883	0.162595119	0.61543228	0.159182457
0.107773159	0.865059861	0.855926322	0.593935715	0.156883471	0.154622368
0.013805859	0.014187036	0.013974496	0.697374779	0.696932211	0.696910259
0.8642577	0.856083866	0.116646805	0.155777277	0.155648075	0.590358634
0.422107083	0.877454759	0.458970148	0.555310816	0.170428745	0.591147375
0.865593839	0.077133054	0.867439048	0.161511206	0.622974528	0.160357195
0.147407294	0.860036302	0.846371082	0.562694166	0.152807496	0.150550821
0.864510178	0.854918064	0.107657176	0.156449487	0.154011928	0.593712158
0.046192054	0.048343797	0.052966858	0.657782643	0.658988794	0.65990319
0.14172714	0.860320116	0.846002555	0.564530139	0.153860993	0.150064544
0.863167212	0.857544858	0.130340132	0.154689181	0.156818075	0.586452786
0.882978381	0.013706753	0.876290455	0.175046477	0.697339382	0.17044623
0.102182107	0.841565516	0.083431661	0.606184592	0.13475953	0.631269617
0.099713264	0.841555608	0.09268722	0.604604659	0.13482309	0.629784313
0.486950812	0.401338282	0.877237801	0.607760238	0.564837468	0.170501247
0.881801754	0.054591633	0.05422152	0.17585419	0.690062482	0.690283116
0.054289332	0.881580778	0.054645623	0.690440816	0.175344363	0.689996279
0.068856921	0.071367553	0.855402292	0.649963968	0.629454887	0.149181543
0.877494185	0.459596545	0.429535735	0.17054716	0.559646331	0.524594734
0.045596623	0.047960856	0.0534854	0.65580066	0.65614624	0.65635426
0.87733328	0.458970595	0.425611487	0.170586551	0.575637327	0.539618603
0.444490848	0.877316567	0.438446332	0.561814143	0.170284905	0.59135007
0.103404003	0.841637178	0.125288679	0.598590756	0.135292008	0.623459261
0.076001399	0.871272026	0.87519938	0.650522061	0.16442897	0.168864824
0.065226904	0.872038057	0.874949713	0.652871887	0.165220252	0.168645299
0.047157976	0.871534633	0.873997422	0.656878054	0.164577688	0.168169307
0.059569006	0.064637649	0.063193573	0.652135219	0.651794178	0.651991167
0.054305013	0.881375984	0.054603874	0.691056623	0.175438286	0.690035378
0.82444778	0.82318757	0.823250014	0.298302976	0.29847529	0.297280667
0.092654626	0.099612135	0.841241705	0.629498875	0.604464498	0.13493869
0.44633978	0.877313064	0.437042562	0.546064108	0.170572257	0.575714003
0.825493535	0.147941747	0.131417923	0.119111459	0.604673068	0.575266388
0.877668281	0.484893631	0.393024139	0.170734234	0.62519349	0.582606289
0.470457144	0.419877479	0.87782448	0.559474133	0.52114505	0.17051035
0.864860002	0.855294851	0.111457537	0.1562106	0.155165032	0.591939931
0.124697846	0.103158525	0.841985908	0.623738411	0.598627404	0.135234093
0.844131629	0.133798507	0.862394585	0.147857554	0.567781511	0.155033438
0.045616735	0.047799855	0.053453375	0.655683622	0.65644067	0.656782908
0.092019629	0.074300983	0.856992533	0.645516445	0.625767325	0.149554872
0.11138932	0.86486506	0.855870057	0.592246639	0.156336143	0.155585288
0.054294817	0.881473407	0.054645381	0.690328755	0.175371844	0.689985185
0.84472977	0.133715139	0.86380719	0.148572746	0.567797588	0.15559234
0.113948399	0.100082012	0.842032813	0.62586666	0.60062519	0.135040933
0.860884277	0.846057916	0.14743751	0.15337333	0.150853175	0.562907558
0.079505027	0.082766215	0.868906354	0.679338833	0.666340641	0.162500679
0.877668746	0.480814227	0.401891673	0.170663096	0.590308167	0.547974983
0.845452428	0.153949701	0.857829786	0.150876376	0.560903564	0.151662704
0.877789194	0.473635324	0.404266218	0.17061657	0.625931821	0.586036953
0.861918705	0.844723705	0.137236552	0.154583998	0.148930513	0.566178169
0.473583112	0.404196808	0.877668431	0.62593345	0.586149506	0.170727412
0.876647316	0.877132641	0.876841976	0.17014052	0.170767365	0.170626207
0.137195132	0.861742004	0.844340654	0.566105419	0.154626868	0.149079945
0.130404151	0.863699317	0.857740377	0.586431615	0.155147412	0.157452545
0.877300306	0.44809058	0.435816994	0.170587463	0.575626248	0.542731226
0.141723484	0.860453767	0.84593448	0.564530175	0.153902596	0.150111418
0.059374902	0.064128266	0.063364738	0.652179925	0.651565923	0.651808619
0.476549634	0.412972463	0.877467605	0.609239472	0.568834422	0.170560582
0.425700762	0.877383079	0.459093183	0.53939308	0.170672588	0.57557054
0.869135896	0.090279552	0.076201608	0.162671121	0.671818077	0.659772504
0.070306862	0.065706005	0.086183502	0.670385137	0.670999553	0.67256151
0.877306793	0.448693295	0.439513359	0.170487907	0.559754993	0.527727657
0.041171599	0.040978019	0.881361764	0.692347133	0.693128266	0.175281586
0.099701898	0.8416092	0.092665678	0.604564641	0.134813875	0.629791146
0.864073571	0.856046003	0.123142174	0.155827416	0.156629426	0.588402362
0.415430654	0.877406273	0.462002305	0.589835825	0.170503019	0.626036338
0.572803084	0.877111735	0.543610126	0.538590633	0.170404254	0.565903214
0.876295515	0.882060646	0.040860217	0.170460087	0.175093399	0.693131048
0.081705729	0.867372475	0.865609327	0.621290013	0.159841588	0.161594428
0.091694682	0.074421414	0.855319537	0.64547065	0.625863418	0.149308749
0.12428679	0.110275505	0.149774361	0.616443318	0.614137412	0.614587538
0.841384928	0.102926976	0.099018511	0.134979019	0.62762341	0.602635752
0.075993834	0.871435703	0.874476762	0.650522885	0.164573842	0.168693494
0.826685937	0.265880721	0.274290934	0.11868926	0.608982353	0.583092552
0.874503961	0.065241846	0.872417793	0.168589184	0.652721998	0.164785692
0.480773457	0.405891569	0.877446628	0.574760979	0.532331593	0.170576245
0.142743059	0.826098355	0.149057463	0.576281891	0.119156844	0.605707635
0.558496342	0.877202827	0.537361506	0.527127346	0.170587602	0.555997461
0.067395379	0.079945363	0.854925682	0.65249886	0.632078164	0.148664052
0.140183095	0.131125163	0.826010199	0.606083435	0.577339443	0.119225751
0.882434627	0.0000055	0.874711961	0.174661637	0.699369076	0.170138739
0.12477976	0.103059204	0.841706751	0.623928616	0.598175293	0.135141734
0.054528862	0.054891875	0.054936456	0.690357897	0.690069978	0.690307821
0.868686843	0.07733935	0.080129215	0.162577236	0.676245389	0.66432404
0.086928358	0.078457043	0.868937234	0.672449488	0.661318183	0.162616954
0.123110761	0.864442014	0.857096251	0.588518318	0.155849709	0.156785893
0.091181056	0.078206058	0.868859546	0.668034415	0.657275683	0.162590711
0.469945882	0.411759335	0.87759005	0.590708853	0.551407636	0.170292048
0.459087505	0.42570704	0.877399166	0.575490628	0.539387955	0.170568106
0.824938653	0.823042046	0.825041684	0.29855602	0.298585484	0.298174966
0.091648888	0.0743179	0.854983735	0.645371196	0.625643971	0.148806437
0.822886092	0.823055402	0.822044021	0.297962334	0.298720389	0.298241963
0.082075323	0.869264721	0.099780561	0.656568357	0.162650251	0.66929414
0.877398766	0.480828729	0.410096221	0.170443904	0.55932488	0.51758854
0.873321064	0.055344472	0.870722531	0.168062498	0.654906795	0.164503444
0.055349752	0.872716988	0.874994424	0.654931197	0.165132929	0.168548616
0.877599645	0.474000768	0.482754715	0.170712765	0.561869381	0.532167583
0.013719018	0.014110745	0.014049109	0.696988351	0.697610785	0.697428965
0.062481138	0.062480887	0.062426986	0.638275279	0.638267244	0.638591567
0.843404739	0.13376501	0.862214611	0.147766604	0.567796129	0.154921608
0.00000277	0.00000289	0.00000283	0.699144915	0.69934282	0.69859882
0.881451098	0.00000495	0.00000479	0.175332831	0.69952649	0.699666494
0.40591739	0.877344248	0.480603289	0.532755249	0.170553992	0.575083579
0.328486966	0.826070391	0.330470488	0.583963197	0.118523841	0.611899839
0.123106011	0.862761094	0.855821657	0.588497502	0.155187966	0.156262618
0.48063781	0.405846752	0.87743281	0.574753923	0.532328238	0.170557387
0.868779039	0.084299461	0.076075149	0.162665003	0.67294916	0.661635493
0.867220477	0.866503027	0.095441459	0.159505099	0.162710194	0.617320972
0.877173457	0.462261836	0.420936122	0.170574197	0.608770532	0.572253583
0.1041833	0.867143572	0.867228952	0.61545668	0.159259345	0.162993457
0.868976005	0.090338479	0.077040183	0.162658796	0.671472257	0.659247797
0.056605878	0.044664113	0.074857613	0.675627908	0.674641416	0.675979991
0.867463339	0.866313988	0.088283333	0.159426781	0.162334058	0.619688881
0.075971473	0.871792068	0.875162353	0.650517973	0.164460254	0.168493882
0.85608535	0.091302869	0.074137295	0.149216755	0.646009805	0.625726491
0.877349053	0.480737986	0.401652576	0.170481294	0.590136584	0.548440696
0.014298618	0.881569095	0.014471419	0.69745539	0.175461947	0.697019732
0.054281223	0.876178467	0.883858029	0.690595873	0.170965062	0.17563919
0.447780483	0.432473005	0.877103634	0.590850009	0.558424813	0.170186845
0.260215259	0.255114887	0.825345025	0.612045788	0.582814125	0.118614852
0.054611085	0.054273352	0.881439045	0.690027196	0.690603537	0.175317847
0.404125118	0.877512108	0.473499483	0.586236208	0.170731217	0.625861331
0.062546273	0.06248496	0.06247096	0.638405331	0.63847313	0.638548063
0.849130053	0.846559779	0.848088639	0.257367358	0.25711847	0.256991915
0.146547252	0.133509141	0.097280743	0.618886993	0.617905938	0.615311101
0.881697176	0.041208416	0.04095388	0.175411022	0.69268301	0.692828984
