Vam	Vbm	Vcm	Iam	Ibm	Icm
0.866970809	0.867208136	0.104004247	0.159328013	0.163083806	0.615310553
0.876943808	0.438461207	0.438456504	0.170187049	0.626632937	0.596315265
0.071474235	0.856083794	0.068813518	0.629545674	0.149485917	0.650005829
5.49528E-06	0.87556391	0.881774515	0.699208323	0.170636017	0.175251906
0.435901405	0.877441038	0.448201688	0.54279202	0.170595114	0.575726773
0.445434169	0.449273029	0.877346112	0.608474527	0.578268307	0.170601262
0.874820881	0.049620945	0.87223679	0.168405167	0.658431539	0.165215612
0.027517575	0.028056923	0.027690449	0.69508527	0.695143557	0.69512779
0.028203517	0.882323899	0.028119274	0.694918976	0.175559958	0.695828504
0.871703248	0.874214232	0.065194583	0.1644458	0.167779685	0.652760936
0.862606315	0.846253924	0.141693964	0.15392531	0.149987504	0.564557251
0.404140874	0.877540979	0.473511132	0.585968055	0.170478103	0.625693672
0.401940153	0.877357131	0.487081395	0.564029122	0.170552232	0.606912453
0.081380463	0.079515302	0.869168334	0.67392401	0.662086204	0.162536118
0.459021527	0.422015826	0.877473179	0.590706418	0.555013257	0.170483754
0.404222127	0.877712041	0.473601747	0.586135139	0.170439305	0.62582075
0.881001202	0.027704156	0.027483005	0.175197353	0.694958272	0.695294009
0.083502906	0.083673895	0.084047932	0.632146109	0.63220183	0.632436557
0.480582668	0.40585681	0.877323039	0.574825257	0.532414925	0.170555048
0.083520954	0.076015316	0.855144139	0.648415667	0.627633355	0.148700566
0.439603161	0.877514791	0.448818992	0.527584768	0.17062292	0.559861603
0.222981506	0.826514945	0.223387009	0.581674463	0.119194663	0.612395057
0.856263534	0.079838464	0.071569269	0.149630322	0.647981542	0.62779769
0.091282271	0.074470518	0.855508669	0.64564195	0.625938083	0.149122988
0.091438465	0.074442857	0.855556443	0.645580912	0.62565756	0.14935795
0.855472916	0.06895486	0.071428753	0.149078729	0.649802179	0.629289555
0.860893931	0.845383529	0.141671766	0.153949741	0.150069544	0.564486886
0.869177176	0.091306235	0.079220924	0.162542	0.672687352	0.660028873
0.86742049	0.866186459	0.077255965	0.159795823	0.161580022	0.622945242
0.075041117	0.074882312	0.075309491	0.634376234	0.63437392	0.634509504
0.040826771	0.874911338	0.883142188	0.692516854	0.169876422	0.175172993
0.134728091	0.125758041	0.826896669	0.604194276	0.576151442	0.119252014
0.072295925	0.065986508	0.086693596	0.670575631	0.669923702	0.670782127
0.877438708	0.459054622	0.42566072	0.17060095	0.575797662	0.539674048
0.080655436	0.21881851	0.222874915	0.620186622	0.626275817	0.62703793
0.515677957	0.525929446	0.877450246	0.562061064	0.532305598	0.170605841
0.040818911	0.880940541	0.041173012	0.692879636	0.175091676	0.692445358
0.863745623	0.857181773	0.130378712	0.155387769	0.157177703	0.586441243
0.874532842	0.882422519	5.49578E-06	0.170403422	0.175446441	0.699330692
0.435684005	0.877372944	0.453942564	0.576741523	0.170539437	0.610118544
0.07427071	0.855659429	0.091314171	0.625800795	0.149290801	0.645795958
5.49603E-06	0.874149946	0.882238926	0.699411105	0.170071332	0.175480458
0.87758481	0.459054234	0.422127829	0.170511367	0.590862375	0.555314588
0.861085621	0.844562117	0.141776449	0.153127171	0.149197151	0.564517658
0.854594445	0.116639164	0.8643162	0.155944415	0.590329758	0.156070398
0.855474667	0.107717442	0.86466828	0.154887902	0.593789658	0.156662464
0.083391033	0.10222903	0.841702108	0.631328592	0.606058082	0.134673104
0.087972138	0.867523574	0.865744236	0.619179202	0.159654809	0.162370375
0.425560594	0.877312746	0.459085953	0.539557575	0.17055331	0.575618306
0.104024242	0.866455167	0.866897827	0.615366115	0.158848464	0.162875438
0.014049458	0.014085531	0.881126295	0.696860291	0.697173329	0.175176128
0.865985719	0.087634302	0.867009045	0.161658048	0.619739139	0.15946377
0.883640141	5.49629E-06	0.876186198	0.175686215	0.699262796	0.170958068
0.392644586	0.876855884	0.484465288	0.582327418	0.170600279	0.62526857
0.876610184	0.047101129	0.873600665	0.169143121	0.656914273	0.165351611
0.106414847	0.082762192	0.85517684	0.643384865	0.623403006	0.149247908
0.865417232	0.855378903	0.107829343	0.156755021	0.154696279	0.593851321
0.091290502	0.074664016	0.855786539	0.645626261	0.625818402	0.149490667
0.404048891	0.877361597	0.473424902	0.586084709	0.170448997	0.625825879
0.877348349	0.458990727	0.425621457	0.17056681	0.575596813	0.539533319
0.014110749	0.013958015	0.881216503	0.69664083	0.697323202	0.175102431
0.845875787	0.147373022	0.860440512	0.150686793	0.562783212	0.152984171
0.141756557	0.860639855	0.846074039	0.564527969	0.153116894	0.149480866
0.845306834	0.141828479	0.860741247	0.149783555	0.564480604	0.153483175
0.013707162	0.875671453	0.883301917	0.697404508	0.170525499	0.175434877
0.054724472	0.054496186	0.054706881	0.69034111	0.690206583	0.690754152
0.874771715	0.049785117	0.873094005	0.168045581	0.659060301	0.165328744
0.09551767	0.866664842	0.865985105	0.617379212	0.159240218	0.162385055
0.106659637	0.08233508	0.854502597	0.642314922	0.623637417	0.149218424
0.102254589	0.841715832	0.083363636	0.606001334	0.134804459	0.631401357
0.868901194	0.07727631	0.081174869	0.162577905	0.676385689	0.66499236
0.116696065	0.864504084	0.855662619	0.590381728	0.155663791	0.155829839
0.462166025	0.415604355	0.877743401	0.626262009	0.589643038	0.170675277
0.454588278	0.436789379	0.877286308	0.608657026	0.574834824	0.170579927
0.405681505	0.877334501	0.480608944	0.532996423	0.170507489	0.575366081
0.404097892	0.877463858	0.473477615	0.586072102	0.170688014	0.625905279
0.103959589	0.86679455	0.866881871	0.615454737	0.158842157	0.162871019
0.027929095	0.882212172	0.028388763	0.694851912	0.175558303	0.695903383
2.76476E-06	3.06064E-06	2.97417E-06	0.699009357	0.699374102	0.69931441
0.100266814	0.841681217	0.113905577	0.600422829	0.134980006	0.625644065
0.867092688	0.866346675	0.095406257	0.159391864	0.16246218	0.617514309
0.437078026	0.446345474	0.877356875	0.575742503	0.546078276	0.170601842
0.845774737	0.141841846	0.861550337	0.15023065	0.564540348	0.153872935
0.014298296	0.881207951	0.014314287	0.697149322	0.175180979	0.696590169
0.480933421	0.410248384	0.877660761	0.559416203	0.517467186	0.17078189
0.014267251	0.881322561	0.014310456	0.697132687	0.175194393	0.697301296
0.445495409	0.448867114	0.877318912	0.608472955	0.578253813	0.170610301
0.876391359	0.881949877	0.040858622	0.170447758	0.175083269	0.693081851
0.448842768	0.439586443	0.87751151	0.559646989	0.527799088	0.170608249
0.410093525	0.877445678	0.480874323	0.517599734	0.170513364	0.559329464
0.067194869	0.052098179	0.080799956	0.673056119	0.672630581	0.674306003
0.877476708	0.480810307	0.410208105	0.170502898	0.559512407	0.517429664
0.083389693	0.102234983	0.841748915	0.63136085	0.606021838	0.134693064
0.470351044	0.419810215	0.877646504	0.559584464	0.520987637	0.17064585
0.883730496	0.013708801	0.876667045	0.175332814	0.697519318	0.170710593
0.862281219	0.856645353	0.130428259	0.154759062	0.156738832	0.586528043
0.108093648	0.864667769	0.854522993	0.5936936	0.156678634	0.154457651
0.450618197	0.427193527	0.877826518	0.62647978	0.593096078	0.170625659
0.877430806	0.480651628	0.405655114	0.170559949	0.575087362	0.532726342
0.855465272	0.065918417	0.07825686	0.148979473	0.652318119	0.632262538
0.103044493	0.09925037	0.84153421	0.627715543	0.602483615	0.135023266
0.067746384	0.067658395	0.067933849	0.636372185	0.636558081	0.636701876
0.87169995	0.875407001	0.065205749	0.165164368	0.168804585	0.652720592
0.12006797	0.120635529	0.190702541	0.617410881	0.619340463	0.618503821
0.074880827	0.074962876	0.07519223	0.634100049	0.63432772	0.634776912
0.825053877	0.145937782	0.128328001	0.118788173	0.603454294	0.574520617
0.411630892	0.877273653	0.470268946	0.551644506	0.170618299	0.590503743
0.866805898	0.104313554	0.866845856	0.162578947	0.61518381	0.15915829
0.450503739	0.427079074	0.877597511	0.62648573	0.59310295	0.17065993
0.880732608	0.014200654	0.013893995	0.175215218	0.696437229	0.696989977
0.873621786	0.055329423	0.870054659	0.167963626	0.654815013	0.164368736
0.876608885	0.883973541	0.027327176	0.171294715	0.175591308	0.695187304
0.877163837	0.45028684	0.426862107	0.170483001	0.62655156	0.592979928
0.07536148	0.07673196	0.854710352	0.649752308	0.629657923	0.148727013
0.130502082	0.862919663	0.857022338	0.586313006	0.154820356	0.156966604
0.826625523	0.194772672	0.194213605	0.119539316	0.610912035	0.580663057
0.842014611	0.125081357	0.10355014	0.135207742	0.623885951	0.598312925
0.481140676	0.401791934	0.878264136	0.590297434	0.548254169	0.170489631
0.864676054	0.855796834	0.107828443	0.156833905	0.154906501	0.593527279
0.877056508	0.480670145	0.409920894	0.170529488	0.559512044	0.517455209
0.869000638	0.080666628	0.077949695	0.162598216	0.67492788	0.662608508
0.130504598	0.862092054	0.855755588	0.586472004	0.154645878	0.15672623
0.875287283	0.883613562	5.49755E-06	0.170152427	0.175449959	0.699322438
0.154001303	0.859310117	0.846794227	0.560849356	0.152300737	0.15158303
0.86618746	0.866351386	0.103975902	0.159457815	0.162677153	0.615323703
0.82584035	0.136316174	0.128855341	0.119048425	0.605314868	0.576102428
0.873390544	0.875458561	0.055277495	0.164964048	0.168951866	0.654940543
0.081690451	0.867577369	0.866107645	0.621300703	0.159370822	0.161857527
0.505958152	0.530698685	0.87767161	0.561638541	0.532580454	0.170996805
0.269663406	0.276705195	0.825568641	0.614188536	0.588258667	0.118615905
0.132560252	0.827246644	0.139975134	0.576703834	0.119899726	0.6054746
0.473572144	0.40419553	0.877655755	0.625850958	0.586132219	0.170759605
0.327338562	0.337735261	0.825296671	0.611946213	0.581274414	0.118808132
0.873977578	0.047115845	0.872376218	0.168311564	0.656958452	0.165074474
0.865494085	0.076948886	0.868049975	0.161272915	0.623262718	0.160040987
0.874025884	0.076017889	0.870375729	0.16888361	0.650456531	0.164507335
0.14181251	0.860995425	0.844944868	0.564611679	0.153455412	0.149577693
0.439718279	0.877774925	0.448954154	0.527811015	0.170692929	0.559732005
0.392935214	0.877453741	0.484770772	0.582472537	0.170707529	0.625166757
0.102223867	0.841594606	0.0833885	0.606111886	0.13474186	0.631293408
0.877658297	0.484885045	0.393024003	0.170479335	0.625266411	0.582599358
0.855094176	0.107927431	0.864307576	0.154711744	0.593920298	0.1565787
0.469831071	0.415703782	0.877350475	0.575362178	0.536087368	0.170543809
0.085676651	0.077382678	0.869347062	0.672553873	0.660485727	0.162552262
0.84297161	0.133746188	0.860909726	0.148099669	0.567776868	0.154972793
0.415485045	0.877505238	0.462047469	0.589753271	0.170570131	0.626137784
0.855188558	0.091391865	0.074232487	0.148996981	0.645679242	0.625554065
0.435845766	0.87723533	0.44804512	0.542691161	0.170529726	0.575578817
0.842014264	0.125109604	0.103222092	0.135139979	0.623766497	0.598458197
0.867197887	0.865944728	0.08781872	0.1594274	0.162016435	0.619496273
0.435523976	0.877340659	0.454165354	0.576673144	0.170552362	0.610030945
0.864014424	0.856357507	0.123042933	0.155164167	0.155904975	0.588360615
0.861199347	0.846411829	0.147410897	0.153274574	0.150958768	0.562716468
0.876730543	0.883835396	0.027325918	0.171077553	0.175763135	0.695176351
0.855619249	0.079905135	0.071552757	0.149310362	0.647724062	0.627640945
0.040904021	0.880781299	0.041251882	0.692989363	0.175355678	0.692375959
0.335767376	0.334085703	0.824694142	0.615969309	0.589269989	0.11863008
0.825784987	0.298166634	0.307620179	0.118610762	0.612725653	0.584731387
0.863858873	0.856359816	0.123014077	0.155279445	0.156108246	0.588340163
0.866347823	0.087850533	0.867318629	0.162364238	0.619385784	0.159505853
0.071786506	0.065600718	0.085539111	0.669837656	0.670052389	0.67046891
0.047215179	0.871644452	0.874549723	0.65700393	0.165046674	0.168591055
0.845321704	0.141834205	0.861025807	0.149966798	0.564507861	0.15393981
0.415553564	0.877383677	0.470014599	0.535921615	0.170560781	0.575223819
0.095716744	0.329473763	0.277105864	0.622081819	0.624034363	0.623551949
0.877466094	0.480553549	0.405797136	0.170588984	0.575353108	0.532969752
0.436904456	0.446228688	0.877477977	0.592981562	0.563212886	0.170575549
0.855725321	0.066392127	0.079119868	0.149128889	0.652509039	0.632091507
0.862957601	0.845459936	0.137106026	0.154915232	0.14928344	0.56620579
0.866372555	0.86584868	0.087856864	0.159507218	0.161966162	0.619601543
0.401779251	0.8773873	0.487148193	0.564743367	0.170529566	0.607787474
0.877224186	0.448648932	0.439506022	0.170434121	0.559865041	0.527619007
0.041136048	0.040858775	0.881949605	0.692298979	0.692772761	0.17537761
0.401494881	0.877550435	0.481058174	0.548351117	0.169981303	0.589933944
0.081052893	0.079017166	0.869017775	0.674384783	0.662227754	0.162504743
0.884860598	0.02732829	0.877063601	0.175908362	0.695254151	0.170791869
0.084851857	0.868404253	0.082593919	0.664267066	0.162552653	0.675488461
0.469901564	0.411665793	0.877497914	0.590919365	0.551689213	0.170694938
0.068711164	0.079458267	0.855124066	0.651912923	0.632361523	0.148811781
0.856275269	0.080045615	0.071531861	0.149301882	0.647860668	0.627835771
0.099993791	0.082293086	0.86879083	0.665643653	0.655724055	0.162798216
0.844879158	0.137283308	0.861577378	0.149269724	0.566306519	0.154761076
0.028524629	0.881712287	0.028917601	0.695291258	0.175589059	0.695134158
0.092700072	0.099781177	0.84150262	0.629639274	0.604156066	0.134766383
0.872915376	0.875262129	0.055271966	0.165089361	0.168827295	0.654889915
0.077399319	0.867999688	0.865646168	0.623200222	0.160128539	0.161542721
0.079550591	0.869240654	0.082125988	0.66360046	0.162414844	0.675546514
0.067716649	0.067655986	0.067945182	0.636338676	0.636444994	0.636756036
0.014305387	0.881336906	0.014635633	0.697078434	0.175105882	0.697537591
0.877719359	0.437268097	0.44453807	0.1706457	0.59161262	0.562098638
0.133767336	0.862214148	0.841712251	0.567652752	0.155028138	0.147931776
4.92725E-06	0.881032441	4.83312E-06	0.699346021	0.175044392	0.69912291
0.322754082	0.340754404	0.824811044	0.615766611	0.588794549	0.118621693
0.877378848	0.484272833	0.399508955	0.170630549	0.607601917	0.564895372
0.041214723	0.040872083	0.881541766	0.692260916	0.692755093	0.17540078
0.877379909	0.459014055	0.425627135	0.170572722	0.575618949	0.53957111
0.054274743	0.876305032	0.88328966	0.690564066	0.170992134	0.175366763
0.093764386	0.297035469	0.248522171	0.622083212	0.621065114	0.621361224
0.855787109	0.102923736	0.078903716	0.149729482	0.643419523	0.62377636
0.859090422	0.846705268	0.154000437	0.152446748	0.151571489	0.561049319
0.074185187	0.855869657	0.091139344	0.625848844	0.149458115	0.64585932
0.877864977	0.459699928	0.429801072	0.17069631	0.559753943	0.524469884
0.103454687	0.842003804	0.12519789	0.598195175	0.135274168	0.623483885
0.841830604	0.103131416	0.09911117	0.134871467	0.627839539	0.602553085
0.866804544	0.104384677	0.86683071	0.162652034	0.615176601	0.159175246
0.129005611	0.825769056	0.145689675	0.574331525	0.118580174	0.603652651
0.469826702	0.415752778	0.877407328	0.575358226	0.536085255	0.170574252
0.445672334	0.448710944	0.87733114	0.608475152	0.578262741	0.170605898
0.05533919	0.871742612	0.875075256	0.654615782	0.164239583	0.168618908
0.825819288	0.222816979	0.228148536	0.11934039	0.609827348	0.580633
0.085313997	0.076744886	0.869067747	0.673151208	0.661119549	0.162418469
0.067693113	0.067668007	0.067979243	0.636492569	0.636436478	0.636822875
0.122832329	0.120939467	0.099134879	0.612473547	0.611691189	0.613838768
0.862101483	0.843441419	0.133718098	0.155183941	0.148055084	0.567774755
0.867437501	0.104142983	0.866327797	0.163075885	0.615346142	0.158991249
0.08338819	0.102226292	0.841803252	0.631159005	0.606067213	0.134716468
0.883118624	0.027329187	0.876483907	0.175215022	0.69526997	0.170900791
0.470351715	0.419814314	0.877651124	0.559584595	0.520987612	0.170645643
0.454793231	0.877543337	0.458047638	0.53088589	0.170778377	0.560014579
0.074757387	0.07500505	0.075095217	0.634139191	0.634411251	0.634708103
0.06523191	0.870773128	0.874447858	0.652681159	0.164185309	0.168294159
0.09193814	0.309789022	0.264505698	0.622509119	0.623350392	0.61920359
0.419523352	0.87710861	0.470089874	0.521068986	0.170564951	0.559733043
0.47572748	0.413853147	0.877444004	0.607919813	0.568343968	0.170588446
0.450371652	0.426947476	0.877333585	0.626470382	0.593150126	0.170479173
0.877358232	0.437072288	0.446353011	0.170615702	0.575706867	0.546067248
0.100229913	0.842191961	0.114139956	0.600659721	0.135086435	0.625837073
0.154073134	0.858704803	0.846168874	0.560894343	0.151818931	0.151067192
0.255645331	0.263315501	0.825846177	0.617355673	0.586280001	0.118979118
0.401427333	0.877295674	0.48729711	0.564137541	0.170537863	0.60717158
0.09264162	0.099639805	0.841533902	0.629573142	0.604307876	0.134864361
0.419635482	0.877244648	0.470118024	0.521027244	0.170599362	0.559684444
0.065231095	0.871097525	0.874566825	0.652915809	0.164391813	0.168733461
0.876599641	0.88259871	5.49578E-06	0.170408473	0.174992255	0.699173741
0.083008602	0.869125635	0.079256659	0.664414188	0.162515242	0.67747267
0.092708145	0.099730343	0.841730623	0.629559349	0.604420485	0.134880026
0.86618362	0.8560905	0.107729266	0.157096244	0.155047338	0.593774368
0.123176144	0.863335723	0.85555547	0.588416741	0.155227156	0.156505872
0.054626519	0.054239317	0.88195243	0.690097508	0.690110933	0.175439988
0.874089045	0.049020974	0.872206764	0.168425326	0.658253771	0.165250407
0.080469013	0.20402395	0.202297938	0.620293404	0.621087292	0.624032707
0.872256552	0.873168933	0.046829576	0.165327081	0.168247727	0.658823002
0.054286603	0.875913749	0.883064424	0.690732219	0.170939482	0.1751733
0.825567515	0.146280062	0.129699674	0.119012077	0.60318155	0.574281564
0.437009006	0.446329852	0.877268391	0.575622912	0.546016362	0.170644735
0.88305583	0.054277757	0.875470764	0.175521976	0.69061297	0.170314662
0.014271002	0.881432924	0.014258776	0.697358017	0.175237956	0.696606693
0.467256627	0.877845946	0.446409166	0.532105105	0.170728028	0.560981137
0.48056416	0.406011174	0.877415428	0.575172273	0.532659942	0.170568456
0.055352412	0.871755611	0.875239544	0.654609143	0.164255347	0.168627088
0.445507446	0.449796626	0.877321021	0.608588158	0.578424262	0.17059442
0.437097555	0.446351697	0.877382757	0.575767024	0.546084273	0.170605785
0.076048906	0.871013764	0.874743899	0.650552937	0.164503934	0.168716506
0.147470192	0.859712088	0.845509228	0.562642048	0.152750358	0.150340517
0.882295215	0.041163777	0.04085463	0.175259667	0.692789048	0.69242909
0.076047488	0.871487629	0.874754316	0.650538867	0.164486137	0.168562943
0.855755683	0.103026472	0.078845927	0.149636659	0.643511212	0.623575862
0.060563059	0.042835243	0.077358641	0.675681896	0.674945848	0.677465362
0.84188858	0.125002054	0.103341068	0.135157621	0.623673295	0.598467703
0.048675065	0.045643774	0.053718638	0.656279936	0.655838291	0.655769225
0.876263493	0.076053174	0.872902666	0.16922053	0.650534098	0.165090324
0.856698768	0.130428367	0.862813187	0.156908713	0.586479119	0.154895661
0.077958723	0.868967123	0.086084346	0.661254733	0.162501364	0.673395523
0.126862469	0.825468551	0.144687866	0.574858424	0.11902729	0.603797389
0.099819836	0.84167262	0.092848716	0.604459878	0.134863525	0.629366321
0.427046711	0.877528864	0.45046732	0.592929097	0.170679387	0.626451665
0.846966831	0.153996481	0.859780185	0.151786049	0.560818034	0.152470538
0.86375718	0.85631346	0.130383217	0.155254316	0.157202527	0.586483867
0.866160136	0.081583809	0.867614769	0.161972276	0.62123716	0.159664929
0.866014649	0.081803376	0.867092588	0.161777661	0.62156761	0.15944226
0.877379104	0.484062892	0.399537883	0.170600435	0.608770635	0.566117694
0.855209463	0.065592743	0.078685918	0.148978048	0.652885685	0.633000668
0.100081272	0.081214836	0.869034241	0.668590929	0.657349159	0.162835306
0.484738456	0.392895107	0.877381158	0.625506452	0.582332865	0.170848175
0.825013631	0.186766118	0.185914695	0.118097065	0.611168769	0.582362392
0.014398692	0.881152496	0.014322875	0.697126428	0.17515421	0.697424944
0.884058221	0.013705415	0.875541144	0.175678395	0.697278318	0.170736442
0.067750616	0.067655286	0.067957989	0.636496427	0.636524077	0.636696679
0.874881659	0.047115321	0.872130976	0.168307975	0.657012464	0.165106962
0.104141025	0.865709016	0.866956172	0.615265062	0.158817577	0.162767966
0.075033175	0.074894694	0.075281204	0.634257334	0.634479481	0.6344971
0.845787441	0.153946573	0.858197799	0.150671435	0.560909297	0.151462657
0.825625452	0.13749376	0.12916563	0.119068651	0.60583394	0.576938385
0.859536848	0.846692612	0.154002468	0.152348376	0.151475901	0.560782072
0.877872721	0.47015471	0.411822507	0.170243394	0.590411504	0.551350411
0.116690677	0.864587993	0.855615055	0.590377475	0.155669169	0.155854548
0.877413865	0.473133974	0.41018567	0.170633035	0.608992618	0.569399871
0.87775122	0.450578067	0.427158622	0.170863846	0.626477725	0.59303551
0.876985503	0.883934059	0.054275051	0.171333692	0.175281644	0.690502373
0.480583025	0.40118851	0.877102854	0.589960292	0.548235172	0.170003435
0.065250118	0.871428393	0.875338097	0.652747717	0.164806565	0.169105905
0.448847015	0.439652124	0.877574485	0.559662444	0.527798489	0.170646043
5.49452E-06	0.875283016	0.885534335	0.699426756	0.169879368	0.175709698
0.877245995	0.492629158	0.496684248	0.170548927	0.561315679	0.531666707
0.877132545	0.458822297	0.421944412	0.170690576	0.590499652	0.555003626
0.137174925	0.861879445	0.845431692	0.566198043	0.154106796	0.148839518
0.841604891	0.083381911	0.102239064	0.134792429	0.631243292	0.606010748
0.87444891	0.065157543	0.872916086	0.1690289	0.652652928	0.165147895
0.47350062	0.404110984	0.877500503	0.625748059	0.586208524	0.170537433
0.123175627	0.86333525	0.85554554	0.588419909	0.155223305	0.156502722
0.128120282	0.123064006	0.20419087	0.617917605	0.618716681	0.617622782
0.437703606	0.44578252	0.877684864	0.593055907	0.563423337	0.170698533
0.077225064	0.867794862	0.865118985	0.62325385	0.1599899	0.16140361
0.877375228	0.884029614	0.04085049	0.170971353	0.175655689	0.692925476
0.081501836	0.856135019	0.067591174	0.631207746	0.149431304	0.652021452
0.074980201	0.076835827	0.85529463	0.649567158	0.629664811	0.149269939
0.881399541	4.84288E-06	4.91654E-06	0.175299484	0.698999523	0.699362211
0.8773949	0.448702665	0.439612487	0.170515779	0.559832289	0.52760938
0.872318891	0.874348872	0.055311078	0.164532715	0.16831453	0.654975901
0.855161617	0.107854816	0.864191381	0.15444045	0.593930352	0.156557388
0.877227218	0.473361988	0.403976262	0.170469979	0.625909111	0.585978429
0.123200672	0.863147436	0.856930142	0.588490577	0.155390626	0.156560428
0.865345751	0.856361993	0.111433105	0.156135278	0.155087978	0.592175577
0.392990969	0.877608902	0.484868236	0.582560556	0.170837359	0.625429349
0.445340192	0.877414691	0.438016149	0.561981771	0.170364273	0.591721043
0.099083641	0.338585565	0.280793524	0.622330099	0.624896056	0.6220431
0.866189115	0.095581651	0.865931074	0.162341803	0.617784022	0.158918949
0.107529203	0.082973087	0.855714223	0.643474338	0.624189547	0.149553396
0.867122811	0.866918477	0.104021036	0.159210905	0.163149952	0.615376615
0.88302186	0.027329278	0.87665358	0.175202308	0.695272637	0.170893793
0.863742591	0.85676634	0.123068555	0.155269568	0.156529826	0.588733672
0.055302073	0.871516204	0.874758158	0.654972664	0.164144083	0.168233466
0.845974194	0.147402407	0.860749121	0.150602629	0.562734496	0.153107076
0.054279273	0.876582422	0.883472305	0.690560391	0.17103549	0.17534941
0.85976015	0.845704709	0.15401944	0.152404464	0.151519495	0.560974986
0.419890562	0.877848762	0.470461443	0.521027323	0.170724707	0.559497527
0.845860353	0.153952538	0.859185387	0.1510007	0.560829975	0.151791546
0.425542701	0.87731813	0.45910296	0.539600572	0.170548252	0.575642701
0.877292777	0.499916007	0.487034406	0.169982166	0.561162166	0.53235274
0.074845615	0.074978471	0.075142806	0.634465964	0.634584882	0.634705849
0.87734859	0.458990876	0.425621437	0.170566769	0.575596885	0.539533458
0.055331814	0.87212091	0.874545552	0.655075445	0.164748014	0.168620266
0.464882767	0.424736531	0.877365438	0.607251895	0.570596137	0.170523319
0.165934816	0.090951235	0.168472067	0.617628819	0.616449695	0.621902644
0.877404708	0.459055906	0.425611221	0.170614719	0.575788751	0.539671952
0.480879418	0.410104441	0.877449435	0.559288561	0.51760982	0.170531361
0.401432983	0.877306958	0.480834917	0.547998154	0.170012657	0.589576348
0.855862175	0.103033242	0.078853286	0.149542433	0.643655481	0.623446848
0.877977522	0.481115552	0.410381326	0.170737524	0.559422645	0.517341814
0.877769303	0.447998152	0.432993163	0.17064585	0.59122967	0.558607597
0.842114456	0.124983244	0.103634618	0.135174614	0.623511697	0.598078202
0.014253223	0.01436278	0.881386661	0.696691933	0.697297697	0.175185025
0.868920025	0.080607417	0.078659084	0.162539582	0.675154018	0.662548287
0.067588496	0.079055455	0.85514413	0.651957706	0.632024205	0.149036185
0.432773479	0.877342736	0.44800623	0.557950336	0.170403923	0.59029095
0.083171152	0.868837109	0.093612866	0.655113935	0.162750489	0.66876511
0.8756668	0.076052034	0.871186976	0.16945097	0.650494261	0.164769409
0.111504658	0.864548497	0.855496374	0.592188423	0.156333911	0.15535207
0.43490432	0.877366561	0.455230222	0.576116008	0.17058376	0.609770299
0.434704754	0.877382658	0.455406852	0.576131393	0.170583809	0.609785997
0.469771269	0.415745595	0.877326472	0.575361932	0.53610864	0.170533943
0.253303896	0.825501963	0.247027366	0.583305365	0.118439501	0.612539413
0.321278307	0.825637657	0.312948803	0.581821651	0.118561054	0.612379215
0.450303265	0.426880974	0.877198928	0.626442649	0.593025517	0.170643741
0.091245211	0.074628639	0.85568135	0.645629027	0.626122803	0.149115462
0.060976394	0.042258489	0.077028476	0.675567643	0.675162615	0.677461246
0.054304865	0.881749873	0.054587695	0.690400862	0.17534426	0.690403277
0.875005742	0.884304211	5.49755E-06	0.170606574	0.175925985	0.699354514
0.081721915	0.866710669	0.865250949	0.6212113	0.159638414	0.16148671
0.872796813	0.874433428	0.047229499	0.165133106	0.168303313	0.657030087
2.76576E-06	3.14605E-06	3.0388E-06	0.699148172	0.699417343	0.699019897
0.047216095	0.871847072	0.875101262	0.656978899	0.165006446	0.16859233
0.084718404	0.868418977	0.081872848	0.664283659	0.162555594	0.675490763
0.071415044	0.854692405	0.068802684	0.629567605	0.149038564	0.649615539
0.425151796	0.877359178	0.464754758	0.572221802	0.170574826	0.608763845
0.074858857	0.075007994	0.075176305	0.634119972	0.63440234	0.634705189
0.869185073	0.091769462	0.078959676	0.162572947	0.672912747	0.659831773
0.825457379	0.146693975	0.12967829	0.118858463	0.602566748	0.573983168
0.040755133	0.880825058	0.041118727	0.69295474	0.175114047	0.692253432
0.077995275	0.869167529	0.085248947	0.661280775	0.16248479	0.673549207
0.013768652	0.014595625	0.014382675	0.696843708	0.697329775	0.697278004
0.013761824	0.014691587	0.014581179	0.697215685	0.697107632	0.696780886
0.877193962	0.448646996	0.439477817	0.170439801	0.559865979	0.527619151
0.88139437	4.8973E-06	4.77303E-06	0.175241329	0.698891075	0.699421845
0.081048876	0.07898897	0.869011046	0.674381906	0.66222834	0.16250539
0.10225602	0.841657228	0.083378029	0.605959903	0.134766761	0.63144529
0.065232722	0.870906111	0.875305935	0.652405502	0.164463257	0.168523888
0.855684727	0.0660111	0.078867323	0.149026026	0.652497279	0.632122735
0.877471759	0.462029583	0.415469593	0.170544871	0.62622542	0.589608274
0.486585703	0.401935973	0.877396425	0.607569857	0.564659614	0.170427643
0.86041291	0.847235889	0.154020838	0.152589423	0.151736301	0.560851798
0.013971496	0.013912276	0.881274399	0.697045525	0.696950087	0.175238593
0.842157708	0.125057447	0.103525391	0.135180318	0.623592572	0.598139195
0.877418422	0.45951789	0.429551467	0.17059958	0.559803379	0.524305999
0.104074071	0.866128957	0.867156516	0.615154272	0.158438178	0.162853997
0.877461545	0.45894932	0.422130789	0.170585171	0.590661882	0.555203097
0.083820085	0.869161304	0.080051055	0.66456824	0.162686308	0.6776165
0.071744409	0.855698138	0.079652219	0.627588987	0.14922759	0.647663234
0.461929537	0.415369954	0.877272061	0.626306115	0.58956251	0.170741714
0.86384702	0.857475884	0.13037299	0.155454001	0.157346586	0.586503878
0.826278514	0.146429807	0.129692509	0.119145585	0.602935026	0.574200005
0.861877513	0.843604677	0.1337995	0.155155613	0.147997579	0.567707192
0.081758731	0.86755324	0.866095047	0.621227972	0.159516038	0.161814552
0.866021921	0.081573179	0.866808513	0.161607525	0.621466469	0.159441375
0.147420492	0.860595002	0.845177814	0.562679769	0.153183783	0.150758785
0.126476368	0.122493904	0.201115731	0.617988533	0.619348844	0.618912307
0.458920821	0.4218673	0.877211772	0.590531507	0.554855265	0.170471813
0.054455698	0.054802212	0.055104892	0.690002242	0.690737106	0.69091193
0.027232713	0.07577737	0.075756059	0.679087267	0.680034962	0.679536108
0.862655387	0.842572278	0.133742189	0.155297235	0.148181555	0.56765424
0.450551182	0.427129014	0.877694621	0.626361517	0.593169507	0.170698509
0.841693399	0.083393306	0.102254496	0.134784322	0.631089506	0.605976358
0.4016984	0.87772645	0.481091992	0.548319956	0.170610362	0.590298676
0.438480752	0.445291734	0.877933904	0.591890313	0.562541802	0.170830251
0.077020548	0.867353379	0.865483998	0.623174628	0.160008791	0.161783849
0.842016101	0.124955977	0.103743734	0.135127893	0.623435464	0.598033437
0.480798185	0.40572739	0.877438372	0.575029579	0.532604102	0.17055953
0.841610937	0.083376192	0.102234546	0.134713255	0.631076216	0.60576483
0.079706217	0.869177797	0.081611831	0.662939511	0.162414643	0.675910154
0.877186862	0.461887674	0.41532647	0.17066883	0.626199084	0.589668772
0.875466586	0.055396177	0.870973062	0.16897138	0.654811727	0.164734169
0.445528311	0.448735173	0.877329323	0.608585239	0.578272964	0.17060295
0.429498195	0.877396278	0.459541513	0.524328236	0.170798029	0.559929593
0.146052655	0.128805724	0.826305304	0.603227577	0.574567133	0.119179688
0.881360826	4.86232E-06	4.84603E-06	0.17520114	0.699062095	0.699235925
0.877274725	0.473084744	0.410254465	0.170594636	0.60885668	0.569283806
0.876520859	0.882749693	5.49553E-06	0.170945892	0.175477197	0.699133032
0.082465758	0.869243476	0.098871983	0.654786648	0.162630948	0.667468828
0.855734805	0.066177932	0.078876641	0.148945545	0.652518737	0.632278628
0.027324147	0.875828078	0.88291653	0.695165414	0.170327768	0.175112606
0.134944541	0.131349215	0.098654011	0.611512839	0.611654365	0.614107863
0.027323541	0.876111163	0.88280057	0.695150655	0.170475643	0.175344725
0.466774207	0.877893194	0.444905216	0.530765672	0.170610251	0.559518284
0.867315326	0.865593935	0.081535833	0.159799663	0.161712765	0.621509991
0.08285009	0.869195663	0.098901014	0.654642432	0.162547541	0.667778901
0.845838379	0.147394481	0.86067648	0.150685418	0.562761438	0.153003555
0.877626414	0.473561661	0.404176047	0.170673594	0.625845803	0.586155881
0.099348396	0.841369792	0.102971705	0.602612458	0.135180982	0.627705057
0.439634914	0.877502	0.448780413	0.527791511	0.170642741	0.559722047
0.825757266	0.136752331	0.126331601	0.119043031	0.605954924	0.577180628
0.401583121	0.877724641	0.481140056	0.548322192	0.170625885	0.590298052
0.864645699	0.854637114	0.111427699	0.155810272	0.154351408	0.591921767
0.091392593	0.0744872	0.85585034	0.645578136	0.625754249	0.149389652
0.054673244	0.054722004	0.055476147	0.690337965	0.690220151	0.690818324
0.130499853	0.862624537	0.856742381	0.586508325	0.154645446	0.156719832
0.013707297	0.876071527	0.884037414	0.697408734	0.170480165	0.175435134
0.845580967	0.147396915	0.860676664	0.150586899	0.562768205	0.153097187
0.875429479	0.88241644	0.040860866	0.170123432	0.174636498	0.693113927
0.43700976	0.446336691	0.877274754	0.575601242	0.546022552	0.170625652
0.44635675	0.877365805	0.437076285	0.546074779	0.170626017	0.575718693
0.080084312	0.869258315	0.081892649	0.663488721	0.162384773	0.675783567
0.095536564	0.866219487	0.86597684	0.617285941	0.159272218	0.162414763
0.091309548	0.078702679	0.869386704	0.673272254	0.658652214	0.162586783
0.095410592	0.866877641	0.866297761	0.617417735	0.159205428	0.162467228
0.877703845	0.450558782	0.427130386	0.170576437	0.626435471	0.593283736
0.102267604	0.84174401	0.083439706	0.605918355	0.134699285	0.631434966
0.059597835	0.042507851	0.075856328	0.675594306	0.674927176	0.67723459
0.041119068	0.040899862	0.882054027	0.69177931	0.692924291	0.175649479
0.844921441	0.147395409	0.860785301	0.150467751	0.562685389	0.152900302
0.877390575	0.461993581	0.415423842	0.170500135	0.626154944	0.589753203
0.871786839	0.874339824	0.07597648	0.164687154	0.168063622	0.650558576
0.48085409	0.405672788	0.877427758	0.57519966	0.532675269	0.170559661
0.048077294	0.872092121	0.874341011	0.658817618	0.165206348	0.168385726
0.087859887	0.866954486	0.865925526	0.619535543	0.159643317	0.162138158
0.860661476	0.845690625	0.147365292	0.153191149	0.150783132	0.562869939
0.083499874	0.083701888	0.084027612	0.632368864	0.632124973	0.63246241
0.437890784	0.445178792	0.87723727	0.590826198	0.561102993	0.17066882
0.091775046	0.078464955	0.869310311	0.672908197	0.658324722	0.162578134
0.866600993	0.081576958	0.867095746	0.161897681	0.621557286	0.159569933
0.129188318	0.825918302	0.145917452	0.574402641	0.118966894	0.603576888
0.869085277	0.092768249	0.079871096	0.162691657	0.672809658	0.6592164
0.882029532	0.027723405	0.027521648	0.175657598	0.694934091	0.695161628
0.883236712	0.041058141	0.040767216	0.175493885	0.692446736	0.692628309
0.405895563	0.877575625	0.480751705	0.532805659	0.170623302	0.575299521
0.469752085	0.411546806	0.877222721	0.590815477	0.551518793	0.170522839
0.445454444	0.449260997	0.877349121	0.608474778	0.57826926	0.170600606
0.856463689	0.123100672	0.863544295	0.156276623	0.588433031	0.155322816
0.861489912	0.843704196	0.137166745	0.153698472	0.148091905	0.566227669
0.324976932	0.826023102	0.304941127	0.582888273	0.118604112	0.61263163
0.877135386	0.461869056	0.415292957	0.170526123	0.626154952	0.589771521
0.083398978	0.083674919	0.083816996	0.63216037	0.632091898	0.632478485
0.871994801	0.874471665	0.07598111	0.164722984	0.168134975	0.650591425
0.091346716	0.074532256	0.855878798	0.645631109	0.6256594	0.149428519
0.054276519	0.051367051	0.057329554	0.65379747	0.654263178	0.65411494
0.091649322	0.077907818	0.869162099	0.672339337	0.657900045	0.162575887
2.79571E-06	3.21283E-06	2.99139E-06	0.699345744	0.6993244	0.699166511
0.484858555	0.393001561	0.87760855	0.625390224	0.582382103	0.170454555
0.415664768	0.877423955	0.470028003	0.5361533	0.170588277	0.575466176
0.469809653	0.415747126	0.877366845	0.575315359	0.536059087	0.170555638
0.875752876	0.884279878	5.4973E-06	0.170788037	0.176310644	0.699535496
0.209960581	0.209509155	0.826776223	0.607514292	0.579407759	0.119150765
0.120020362	0.120589754	0.190622652	0.617681143	0.619091617	0.618615862
0.872029699	0.874782142	0.047097601	0.164978296	0.168103318	0.65702929
0.865973291	0.081847258	0.867815215	0.162035292	0.620849312	0.159863592
0.438120367	0.44529544	0.877610002	0.592395004	0.562878223	0.170903906
0.859840611	0.846735689	0.154000375	0.152525086	0.151664133	0.560885746
0.435853797	0.877330644	0.448130818	0.542772412	0.170569918	0.57564961
0.450550598	0.427128388	0.87769341	0.626361004	0.593169146	0.170692279
0.15403393	0.859221789	0.847739454	0.560849569	0.152089944	0.151405073
0.877196075	0.473346292	0.403961062	0.170635881	0.625935427	0.586077577
0.092698841	0.099676324	0.84162414	0.629585905	0.604421945	0.134908214
0.877376467	0.469895233	0.415436946	0.17055217	0.575546518	0.536225114
0.08784441	0.866273926	0.865228957	0.619425596	0.158781222	0.161925562
0.857269643	0.130458623	0.862663814	0.156594725	0.586475402	0.154369243
0.075072054	0.074838744	0.075203111	0.634193026	0.634540607	0.634658356
0.083479784	0.869200408	0.100969841	0.655855049	0.162743447	0.667006914
0.065243953	0.870788304	0.875627199	0.652752429	0.164893376	0.169237488
0.877436151	0.480578701	0.405643416	0.170586757	0.575342291	0.532959236
0.88436461	0.027327229	0.876360789	0.176186329	0.69523504	0.170744902
0.130512873	0.862642691	0.857546967	0.586528037	0.154914704	0.15703487
0.877423206	0.459053584	0.425628551	0.170596067	0.575675496	0.539619046
0.393110436	0.877811943	0.484953432	0.582347558	0.170680075	0.62544709
0.12524577	0.103299171	0.841399583	0.62384933	0.598712455	0.135341336
0.85636165	0.116673572	0.863913388	0.156100853	0.590336395	0.155831216
4.92359E-06	0.881019366	4.83399E-06	0.699340259	0.175045625	0.699120559
0.046722756	0.871987991	0.873975403	0.65887796	0.164680035	0.168069562
0.42543323	0.877308868	0.45919727	0.53968152	0.17057804	0.575691369
0.860924277	0.844530744	0.141699261	0.153939994	0.149892217	0.5646111
0.083458844	0.08363811	0.083973139	0.632365527	0.632122671	0.632355805
0.083422442	0.102226891	0.841876776	0.63123553	0.605754844	0.134703202
0.87735669	0.473428035	0.409983346	0.170576002	0.608796123	0.569171751
0.881627048	0.014013163	0.014116572	0.175468985	0.697338948	0.697725754
0.855201937	0.091436759	0.07433718	0.148954197	0.645653728	0.625615032
0.067265682	0.052116972	0.080848793	0.673002163	0.672777601	0.674391002
0.425484726	0.877462345	0.464264837	0.57341981	0.170581141	0.60985129
0.014243809	0.014408996	0.881296651	0.696678951	0.697200638	0.175186729
0.865039067	0.077068663	0.86773637	0.161198128	0.623089814	0.160068501
0.450550074	0.427127815	0.877692315	0.626360911	0.593169264	0.170690199
0.087980058	0.867556506	0.86571638	0.619218064	0.159444836	0.162172117
0.403820033	0.876920186	0.473211528	0.586175933	0.170426786	0.625897364
0.175768427	0.091284259	0.184080795	0.614615131	0.616939011	0.615925822
4.93682E-06	4.85232E-06	0.881018295	0.699142811	0.699387579	0.175290043
0.141776444	0.861186038	0.845608251	0.564568627	0.153322156	0.149490985
0.091765116	0.078742623	0.869199825	0.670251948	0.657680956	0.162546284
0.091318152	0.074492895	0.855553208	0.64562958	0.625523491	0.14921761
0.415211179	0.876960026	0.461776296	0.589666114	0.170573179	0.626246764
0.877285949	0.469853507	0.411547598	0.170166519	0.590482349	0.551687015
0.048793277	0.045578767	0.053575153	0.656236443	0.655920236	0.655826096
0.876791344	0.484452187	0.392590333	0.170479937	0.625251216	0.582612559
0.881792285	0.041072741	0.040859391	0.175363413	0.692484646	0.69244894
0.438572268	0.438567559	0.87716561	0.626567902	0.59635411	0.170303228
0.446327182	0.877311336	0.437052404	0.546087198	0.170592369	0.575732596
0.841901864	0.125006793	0.103337903	0.135155439	0.62368177	0.59847003
0.014230658	0.014462054	0.881345124	0.696603534	0.697337635	0.17513971
0.071754839	0.855759346	0.079679882	0.62756104	0.149299094	0.647814125
0.469906145	0.411703026	0.877539198	0.590963472	0.551725827	0.170595682
0.100263148	0.841804828	0.114038711	0.600399914	0.134936389	0.625628157
0.447674291	0.877290115	0.445481412	0.579139878	0.170596868	0.609206315
0.869070666	0.098580765	0.081492184	0.162717001	0.667730142	0.656146793
0.082009149	0.869019688	0.093478576	0.657131885	0.162637139	0.670522118
0.860566987	0.846197969	0.147386959	0.153322445	0.151092251	0.562584213
0.429476822	0.877295941	0.459468428	0.524322736	0.170850962	0.559878151
0.13427529	0.125614547	0.826634279	0.604161257	0.575878566	0.119343161
0.46202678	0.415462384	0.877462135	0.626059639	0.589823574	0.170574893
0.071722322	0.855704528	0.079700132	0.627621279	0.14923433	0.647688402
0.013748926	0.014264543	0.014386807	0.696988275	0.697348125	0.696907215
0.137140009	0.86270364	0.843834272	0.566163266	0.154302892	0.148871758
0.881462409	4.82421E-06	4.86375E-06	0.175202168	0.699439815	0.699046649
0.480949066	0.401603288	0.877877882	0.590168385	0.548279451	0.170667844
0.084554521	0.868523303	0.081839919	0.664432458	0.162557639	0.675655362
0.103162676	0.099339439	0.841524257	0.627802387	0.602716049	0.135031021
0.855745184	0.103231631	0.078897905	0.149743147	0.643255584	0.623804425
0.825787615	0.145670027	0.128663857	0.118864268	0.603470596	0.574544286
0.08342405	0.083652281	0.083895535	0.632072803	0.632100562	0.6325178
0.392897834	0.877388813	0.484743162	0.582359252	0.170679166	0.625467674
0.861781636	0.845642689	0.141695028	0.153918246	0.149915923	0.564577645
0.074957198	0.074874683	0.07507399	0.634238921	0.634278423	0.634769239
0.863379852	0.844337424	0.133806442	0.155490859	0.148680958	0.567811544
0.855577372	0.079851861	0.071600423	0.149370047	0.647776684	0.627576866
0.469866008	0.41568642	0.877348208	0.575345505	0.536049865	0.170560424
5.49502E-06	0.875820092	0.882984721	0.699242819	0.170920316	0.175330333
0.877991194	0.448233896	0.432970812	0.170873363	0.591009297	0.558620108
0.047754861	0.046524453	0.053591572	0.657866989	0.658274493	0.657391542
0.446331873	0.87730084	0.43703722	0.546030111	0.170637306	0.575654373
0.480676243	0.405886666	0.87742509	0.575186089	0.532667911	0.170562678
0.099316205	0.840966816	0.103015702	0.602489459	0.135082093	0.627554593
4.91145E-06	4.86746E-06	0.880982266	0.699069465	0.699325399	0.175417049
0.246388572	0.826174287	0.242697713	0.584571907	0.118704647	0.611749388
0.081747641	0.867416839	0.865323272	0.621130821	0.159613512	0.161488437
0.882796472	0.041220562	0.040807456	0.175582176	0.69255708	0.692468308
0.405759178	0.877197658	0.480523645	0.532880269	0.170498376	0.575152115
0.877189718	0.43858398	0.438579333	0.170280811	0.626421106	0.596464558
0.860884712	0.843892776	0.141715713	0.153794907	0.149824582	0.564691738
0.464745025	0.424656506	0.877443639	0.608033098	0.571416474	0.170512554
0.027221115	0.076971084	0.076672952	0.678613533	0.680182506	0.678591529
0.857016038	0.130458239	0.862641837	0.156584795	0.586483133	0.1543596
2.78476E-06	3.19377E-06	3.00804E-06	0.699373937	0.699332333	0.699136506
0.873884299	0.076024499	0.871935899	0.168998435	0.650565333	0.165135749
0.086387101	0.868311394	0.082969952	0.663699622	0.162505386	0.675198961
0.43587225	0.877387836	0.44818407	0.542805235	0.170612868	0.575761114
0.872664625	0.875373784	0.075963553	0.165295373	0.168612776	0.650598911
0.470642463	0.420055644	0.87818764	0.559623863	0.521073079	0.170670235
0.432804086	0.877789649	0.448418585	0.558199249	0.170421767	0.590966783
0.87378023	0.04961212	0.87222929	0.168468681	0.658280863	0.165321444
0.86468917	0.854997334	0.111386642	0.155983866	0.154951798	0.592192263
0.077402154	0.867999742	0.865682532	0.623208267	0.160130528	0.16153596
0.877312633	0.480490016	0.405715593	0.170568263	0.575126331	0.532767915
0.869093226	0.079882761	0.077743943	0.162550581	0.67504015	0.662533564
0.067201938	0.052279023	0.080910946	0.673035229	0.67266834	0.674339124
0.108033589	0.865146388	0.854835634	0.59366605	0.156913259	0.154777531
0.841760011	0.083371311	0.10223612	0.134780287	0.63116405	0.606025606
0.130460337	0.863014131	0.857064029	0.586398923	0.154884118	0.156952804
0.425098081	0.877315513	0.464668997	0.572134391	0.170570456	0.608649036
0.073121246	0.069864081	0.074788967	0.648965932	0.649998544	0.649188312
0.084343575	0.075823867	0.855465242	0.647534891	0.628200514	0.148880543
0.459021178	0.422015402	0.877472278	0.590706398	0.555013257	0.170483631
0.866475014	0.866401325	0.103952952	0.159117025	0.162386066	0.615309482
0.072846091	0.069894067	0.074796746	0.64896629	0.649944242	0.649233476
0.864859618	0.854623726	0.111429244	0.155792602	0.154326655	0.591919518
0.083449449	0.869299119	0.101054902	0.6558601	0.162728054	0.667084281
0.133297262	0.128677518	0.098443681	0.610059822	0.609615599	0.614318397
0.876868008	0.484493059	0.392625416	0.170466456	0.625280685	0.582585419
0.095463483	0.866508363	0.866545858	0.617222301	0.158873868	0.16245778
0.868956751	0.098643254	0.083089453	0.162809396	0.665040769	0.653491628
0.868996345	0.08001174	0.076692966	0.16250996	0.674470001	0.663582584
0.082566681	0.868920871	0.093008913	0.656858657	0.162612743	0.670192619
0.059994936	0.060021168	0.059964039	0.640078429	0.640264286	0.64024852
0.041076793	0.040844086	0.881430818	0.692479557	0.692598679	0.175353305
0.877592745	0.469996711	0.411684907	0.170438586	0.590415761	0.551752904
0.079044186	0.855918059	0.102939153	0.623525136	0.149704903	0.64348959
0.876356615	0.047096334	0.872955723	0.169414689	0.656867661	0.165373919
0.880831778	0.027522628	0.027474367	0.174967204	0.694941296	0.695183459
0.841711448	0.092761574	0.09985352	0.134785726	0.629483248	0.60396367
0.856012699	0.116676592	0.863465417	0.155727725	0.590333082	0.155583915
0.415484908	0.877504975	0.462047343	0.589753235	0.170570115	0.626137837
0.459096913	0.422086027	0.87762297	0.590722942	0.555072983	0.170541699
0.410429424	0.878003843	0.481092997	0.517575047	0.170957513	0.559378139
0.074959403	0.074830063	0.074993978	0.634219551	0.634300781	0.63478088
0.087266213	0.07946202	0.868878559	0.671908051	0.660715051	0.162569407
0.882528481	0.054269666	0.874809666	0.175201945	0.69048546	0.170566888
0.876356401	0.882768625	5.49578E-06	0.170477599	0.175071493	0.69917392
0.49804994	0.542219021	0.878208439	0.559730205	0.531483782	0.170399491
0.083693633	0.869198979	0.099231123	0.654593311	0.162554536	0.667832363
0.867469335	0.865557974	0.081543635	0.159806585	0.161747649	0.621490351
0.071785416	0.065778981	0.085992961	0.670106792	0.670041169	0.670507041
0.415475872	0.877481188	0.462032383	0.589523885	0.17066168	0.626212718
0.872544773	0.873946157	0.065196116	0.1645328	0.167986462	0.652736388
0.863437314	0.856834839	0.123085688	0.155255007	0.156481576	0.588718919
0.429573624	0.877456423	0.45953009	0.524224328	0.170577807	0.559938944
0.881551266	4.87885E-06	4.85032E-06	0.175193478	0.699406252	0.699088239
0.13046097	0.862834937	0.856559808	0.586449535	0.154776392	0.156881739
0.87715735	0.450283998	0.426858396	0.170489706	0.626556925	0.5929957
0.055107548	0.054640966	0.055676056	0.690318344	0.69034559	0.690121551
0.013709565	0.875952963	0.883314818	0.697528573	0.1706271	0.175482932
0.091693481	0.078603889	0.869462011	0.673466323	0.658887292	0.16260412
0.881491922	4.87173E-06	4.82306E-06	0.175190207	0.699202956	0.699165788
0.137154516	0.861967775	0.845105535	0.566145929	0.154616566	0.14920029
2.79422E-06	3.20808E-06	2.99046E-06	0.699246231	0.699510075	0.69902399
0.102229196	0.841594791	0.083348864	0.606015868	0.134837155	0.631170385
0.103105774	0.099220006	0.841531609	0.627748577	0.602541279	0.135028361
0.147470259	0.859706929	0.84551194	0.562642324	0.152750985	0.150340991
0.874343741	0.881960495	0.027326886	0.170222036	0.175157308	0.69519992
0.41214223	0.877565749	0.470023262	0.551849564	0.170639306	0.590724359
0.841689329	0.092770656	0.099902033	0.134879426	0.629387462	0.604342385
0.128598701	0.12280825	0.204369928	0.617934983	0.61880768	0.617966975
0.883114284	0.027328641	0.87629121	0.175205925	0.69525185	0.170895246
0.880935414	0.027671218	0.027375146	0.174851473	0.694967986	0.695115561
0.437086479	0.446394361	0.877412616	0.575700591	0.546123533	0.17062912
0.040801931	0.881776901	0.041148003	0.692888384	0.175219062	0.692797233
0.083271361	0.083802668	0.083798447	0.632332835	0.632149218	0.632480186
0.877797304	0.459699282	0.429734971	0.170756276	0.559760956	0.524463573
0.842076441	0.125116666	0.103468124	0.135176946	0.623472015	0.598054143
0.415704147	0.877466638	0.47001658	0.536116154	0.170582903	0.57545625
0.062487791	0.062475771	0.062383997	0.638748187	0.638659327	0.638601763
0.877525182	0.448157937	0.435972053	0.17064197	0.575722493	0.542789397
0.865627681	0.076926665	0.868036689	0.16123693	0.623330958	0.159967548
0.154033893	0.859222102	0.847740777	0.560849365	0.152090495	0.151405565
0.426535233	0.876510442	0.449960711	0.592970421	0.170409852	0.626586049
0.161473152	0.0911895	0.165775785	0.618137245	0.616427429	0.62194832
0.076050032	0.871723193	0.874741472	0.650500149	0.164520089	0.168598617
0.074350988	0.855606411	0.091172197	0.625882505	0.149230783	0.645853717
0.86646875	0.866406038	0.103972712	0.159190579	0.162382252	0.615315236
0.068031658	0.07941308	0.855913561	0.651963292	0.632351831	0.148918887
0.881280857	0.014275074	0.014259177	0.17553701	0.697529732	0.697735026
0.102233547	0.841464357	0.083367681	0.605933677	0.134816252	0.631248837
0.103039708	0.099325703	0.841551421	0.627709197	0.602402013	0.135015804
0.87346224	0.876083401	0.047227697	0.165483812	0.168904625	0.656965139
0.846294959	0.147401889	0.861095327	0.150653882	0.562766016	0.153184211
0.083388305	0.102221536	0.841691877	0.631290006	0.60611076	0.13468527
0.054626426	0.05423935	0.881951742	0.690094121	0.690116984	0.175439839
0.841689982	0.113839367	0.100128876	0.135035117	0.625761758	0.600544198
0.856690177	0.130419579	0.863604456	0.157039072	0.586410001	0.155048761
