Va	Vb	Vc	Ia	Ib	Ic
0.857356441	0.130469115	0.862660776	0.156719426	0.586552536	0.154572621
0.439141131	0.878312662	0.43914588	0.596470551	0.170646591	0.626473897
0.055376555	0.871549394	0.874597819	0.654898429	0.164566937	0.16838216
0.425604652	0.877229288	0.459022269	0.539469105	0.170538361	0.57551923
0.446097612	0.877381345	0.444025113	0.577169601	0.170573164	0.608107591
0.065200615	0.871681655	0.875022171	0.652841048	0.16448318	0.16868297
0.856865201	0.111465241	0.865988527	0.155543746	0.592161262	0.156741075
0.877205049	0.470250675	0.411743254	0.170432509	0.59066695	0.551615369
0.424185627	0.877388593	0.465194605	0.57317468	0.170547317	0.609860828
0.875645932	0.883879943	0.054267578	0.17051358	0.175249951	0.690398931
0.844904805	0.845959462	0.846987923	0.257394875	0.256949307	0.257371077
0.862414848	0.84298041	0.133701414	0.154718886	0.147440561	0.567710568
0.861050923	0.844171759	0.141721071	0.153115307	0.149208943	0.564539068
0.865112857	0.081496239	0.866727186	0.161455689	0.621392405	0.159321284
0.446337897	0.877342026	0.437070447	0.546068936	0.170591132	0.575721643
0.865406713	0.077000182	0.867742728	0.161053466	0.623352366	0.159615455
0.079751929	0.071493078	0.855622587	0.648076366	0.627325832	0.149171137
0.882136308	0.00000488	0.00000486	0.17543876	0.699292329	0.699266912
0.877484212	0.480622308	0.405692476	0.170554744	0.575127067	0.532780559
0.102219594	0.841594701	0.083447755	0.606183302	0.134768344	0.631220935
0.450475904	0.427052271	0.877542647	0.626495692	0.593057774	0.170664623
0.882708675	0.054270626	0.876296873	0.175063509	0.690452269	0.170954373
0.87504927	0.065242728	0.871440021	0.16826108	0.652783398	0.164328439
0.202987898	0.826054974	0.209666637	0.578326355	0.118988987	0.607364184
0.027325897	0.877185065	0.884654978	0.695209272	0.171071133	0.17571289
0.877461091	0.480559388	0.405667764	0.170523734	0.575008154	0.5326234
0.88127303	0.0000049	0.00000477	0.175372322	0.699072893	0.699056823
0.013707168	0.876170284	0.881686976	0.697365863	0.170892992	0.175216848
0.844573614	0.137232025	0.861884668	0.14894176	0.566152851	0.154450044
0.859219926	0.845968356	0.153995928	0.152345397	0.151441119	0.560924917
0.841816822	0.113741813	0.100399986	0.135103394	0.626205137	0.600746197
0.841678146	0.124888348	0.103501773	0.135276426	0.623434391	0.598009847
0.484785052	0.392942139	0.877473206	0.625402722	0.582505661	0.170602711
0.825148023	0.147464719	0.1319623	0.119030178	0.604089407	0.576035084
0.104078687	0.867159153	0.866777862	0.615751138	0.159278458	0.162885057
0.057178147	0.044493674	0.075246379	0.675638204	0.674642921	0.676203677
0.082937991	0.080221513	0.868991966	0.6759492	0.663707779	0.162562459
0.845102843	0.141829504	0.860394808	0.149688474	0.56453639	0.153598056
0.868928367	0.090856562	0.07772264	0.1626893	0.67136259	0.659342216
0.104057446	0.867114806	0.8667796	0.615744347	0.159256808	0.162885294
0.439041994	0.443988164	0.877601935	0.59046356	0.561127933	0.170378681
0.875401496	0.884127416	0.054271389	0.170629217	0.175350723	0.690440037
0.147776173	0.132513268	0.825222655	0.602562811	0.572027634	0.119108866
0.448170646	0.435898351	0.877429654	0.575827996	0.542876429	0.170552432
0.875769115	0.882725351	0.027321369	0.170642692	0.175803158	0.695121405
0.0729732	0.855370631	0.081948277	0.627698224	0.149342432	0.647568439
0.06764539	0.067625333	0.06786255	0.636204893	0.636347043	0.636633652
0.863299783	0.846262428	0.137240629	0.154442898	0.148953248	0.566219985
0.103026626	0.078865058	0.855976951	0.643238399	0.623621355	0.149671487
0.877411729	0.469844762	0.415538609	0.170598969	0.575562644	0.536228334
0.480769035	0.401475618	0.877559499	0.590034926	0.548257756	0.170412693
0.873491463	0.876248634	0.047444401	0.165370157	0.168981155	0.657056788
0.841345498	0.083370311	0.102220632	0.134802586	0.631356536	0.60622869
0.480699707	0.401351405	0.877376487	0.590161664	0.548029527	0.170482698
0.0823199	0.2806127	0.263620605	0.620301654	0.618165289	0.618849332
0.041471787	0.041084276	0.041994938	0.69298382	0.691763769	0.692310411
0.12470528	0.103239336	0.841703114	0.624167867	0.598532132	0.135124306
0.077080471	0.867351077	0.86448215	0.62298798	0.160287229	0.16122925
0.074536802	0.855675156	0.091532824	0.625986531	0.149386586	0.645591042
0.070067172	0.065652736	0.085698169	0.670329191	0.670805856	0.671991138
0.082261176	0.856207864	0.068366284	0.631380932	0.149087636	0.65285916
0.877389746	0.483676168	0.400203673	0.170613194	0.608646752	0.566067153
0.079349642	0.869052911	0.093287845	0.659283436	0.162653685	0.670409461
0.074375545	0.855398016	0.091317523	0.625760848	0.149119605	0.645531852
0.459068526	0.425720562	0.877393851	0.575493889	0.5393823	0.1705701
0.863768289	0.855979703	0.116642453	0.155437322	0.155457825	0.59038775
0.10218265	0.841507255	0.083427558	0.605719239	0.134753636	0.63065108
0.875234391	0.076022134	0.871224767	0.168489638	0.650494111	0.164528148
0.130422234	0.863563871	0.857471552	0.586290829	0.155124866	0.157420042
0.142420237	0.826924871	0.150707626	0.576252224	0.118887312	0.603211489
0.85705935	0.123131458	0.863486045	0.15622618	0.588582365	0.155186713
0.00000549	0.874636538	0.882752342	0.699383389	0.16997375	0.175422494
0.054280968	0.875074882	0.883382037	0.690593051	0.170947466	0.175563637
0.054297126	0.881262812	0.054617014	0.69106652	0.175440879	0.690039285
0.054590739	0.055410749	0.055061957	0.690402526	0.690132926	0.690322954
0.469865285	0.415739433	0.877393737	0.5754236	0.536261477	0.170586711
0.424145756	0.877406081	0.465560783	0.573139773	0.17055873	0.609861013
0.051802222	0.054021289	0.058641628	0.654153478	0.654421592	0.653717111
0.867543118	0.866809641	0.095419955	0.1592465	0.162558316	0.617780264
0.448135503	0.435969835	0.87745187	0.575820931	0.542856279	0.170553502
0.100197052	0.082259884	0.868879588	0.667156639	0.656363638	0.162656034
0.856146912	0.091243835	0.074130356	0.149391304	0.645790854	0.625489932
0.410338479	0.877683587	0.480880264	0.517468177	0.170556607	0.559455292
0.841795283	0.124891351	0.103248688	0.13525791	0.623551652	0.597968746
0.866193745	0.095200253	0.867185156	0.162312996	0.617599545	0.15945333
0.841796274	0.11380823	0.100316099	0.135151098	0.626209404	0.600820038
0.845418958	0.147467842	0.859400136	0.149976012	0.56276036	0.152432307
0.041193845	0.040957818	0.881283558	0.692759408	0.69308679	0.174897618
0.866749759	0.86611556	0.081794571	0.159192993	0.161727009	0.621211142
0.86387845	0.856270436	0.123124153	0.155329205	0.156205571	0.588627452
0.883008014	0.0000055	0.87619538	0.175398668	0.699365819	0.171018319
0.877366522	0.480781946	0.410118758	0.170354047	0.55931798	0.517576419
0.289402747	0.285518652	0.825844133	0.615201977	0.585688444	0.118707509
0.87746824	0.473478183	0.410211985	0.170606856	0.609290576	0.56949253
0.429783576	0.877827569	0.459685796	0.52439464	0.170706273	0.559898149
0.027636621	0.881387986	0.027696929	0.695260853	0.174974486	0.694290681
0.8772836	0.470581655	0.411669381	0.170367396	0.590690562	0.551616859
0.411676707	0.87761412	0.470014677	0.551623174	0.170513731	0.590482238
0.144926357	0.137422687	0.096646399	0.619109336	0.616963891	0.615263475
0.855699938	0.111432002	0.864465414	0.154917754	0.592188786	0.155758385
0.067572078	0.067718225	0.067842399	0.636173419	0.636295598	0.636817846
0.075061584	0.856142084	0.091546413	0.625631742	0.149811938	0.645912613
0.447371986	0.877326638	0.444287194	0.576921386	0.170552726	0.607228981
0.87512467	0.075985542	0.871435656	0.168907268	0.650418253	0.164516594
0.439580467	0.877385607	0.44872606	0.527621107	0.170651849	0.559740294
0.871271968	0.874528221	0.065184975	0.164800039	0.168512694	0.652874259
0.073884482	0.855516863	0.082541335	0.627631339	0.149283726	0.647674876
0.843523135	0.133797671	0.862089993	0.147652504	0.567765106	0.154687669
0.092689141	0.099596059	0.841162658	0.629424319	0.604439983	0.134931132
0.067660972	0.067575188	0.067847011	0.636303703	0.636292743	0.636636363
0.877385176	0.469842643	0.415538012	0.170594155	0.57560479	0.53633273
0.054261709	0.876194868	0.88210367	0.690351583	0.171198294	0.175437606
0.878120147	0.462355784	0.415791496	0.170751417	0.626307622	0.589683415
0.870851965	0.873904362	0.055342685	0.164416742	0.168097854	0.654883658
0.027764839	0.027481537	0.028168163	0.694961776	0.69439643	0.695438263
0.103161157	0.078920916	0.856360923	0.643762773	0.623470045	0.149651176
0.103071594	0.099076862	0.841560913	0.627702877	0.602612914	0.134979359
0.092679925	0.099631869	0.84143609	0.629518711	0.604547958	0.134949429
0.052149953	0.053382421	0.05855286	0.653878719	0.654317104	0.653460713
0.864251687	0.856071669	0.123109055	0.155430957	0.15631489	0.588623019
0.480416392	0.405870435	0.877269304	0.575050243	0.532554528	0.170526504
0.00000278	0.00000291	0.00000284	0.699238529	0.699376143	0.699517293
0.068772312	0.071384155	0.854688093	0.649579847	0.629484181	0.149213529
0.87740907	0.450747065	0.432445729	0.170560484	0.609760565	0.576354797
0.059629592	0.063958612	0.062285351	0.652105127	0.651789379	0.652090338
0.069455398	0.065394036	0.084423705	0.670329096	0.67112595	0.672798397
0.841718083	0.11382463	0.100187248	0.135041862	0.625909692	0.600476702
0.083464989	0.868883181	0.084836023	0.660768216	0.162621524	0.672907106
0.131078651	0.825708233	0.148621725	0.575221865	0.118859971	0.603967333
0.140302451	0.133445913	0.825368035	0.605498222	0.577637005	0.11869545
0.473558159	0.40418388	0.877629735	0.625900571	0.586124266	0.170792261
0.095538504	0.86635262	0.866592553	0.617576475	0.159089456	0.162455632
0.045571202	0.048315822	0.05426082	0.655432809	0.656447676	0.655494102
0.874056975	0.047302421	0.871208447	0.168439111	0.65688507	0.164504919
0.872918157	0.874302718	0.872928503	0.188259817	0.189303777	0.189282772
0.080453238	0.856053289	0.104874803	0.623676325	0.149562659	0.643260071
0.087166555	0.079328507	0.868701259	0.672394423	0.660129702	0.162650022
0.067582051	0.079790972	0.854335874	0.65225421	0.632631377	0.148730461
0.00000549	0.876491169	0.884172086	0.699153308	0.171134853	0.175571224
0.875509424	0.883647094	0.0000055	0.170783073	0.175621403	0.699388241
0.102216098	0.841595875	0.083423951	0.606125235	0.134711998	0.631431472
0.872953284	0.876201491	0.075941469	0.164772148	0.169431648	0.650566999
0.279031435	0.282477311	0.825753038	0.612663381	0.584986597	0.118728047
0.07475862	0.856472268	0.09144621	0.625792313	0.14994996	0.645530458
0.862482205	0.863462078	0.862636674	0.21851878	0.219250798	0.219043952
0.054252536	0.881602386	0.054652009	0.690491175	0.175341229	0.689982651
0.846137038	0.147495155	0.860363198	0.150738287	0.562865111	0.153003325
0.081116746	0.869273997	0.099716939	0.656414248	0.162635719	0.669119947
0.44605724	0.877373015	0.445453322	0.576857367	0.170549156	0.607178487
0.411703941	0.877643451	0.470027269	0.5516498	0.170531478	0.590509421
0.877348737	0.437075327	0.446340092	0.17059138	0.575744513	0.546086999
0.099616742	0.841798089	0.092673533	0.60430835	0.13489961	0.629751002
0.860443856	0.844421863	0.141722069	0.15286951	0.148966497	0.564563525
0.876638541	0.877516099	0.877539911	0.170626578	0.170796142	0.170971376
0.873085185	0.874423959	0.875442525	0.188883691	0.188818897	0.189782117
0.014050849	0.88143951	0.014347013	0.697285556	0.175419168	0.697058526
0.857165913	0.130432108	0.862660844	0.156634343	0.586593861	0.154393413
0.866602377	0.866635112	0.104510686	0.159152972	0.16281823	0.615223228
0.877383641	0.462714402	0.420660178	0.170664889	0.609512506	0.572974215
0.419692489	0.877485019	0.470296379	0.521039173	0.170616666	0.559658347
0.856101987	0.123041573	0.864075183	0.156485138	0.588509071	0.155821929
0.056322253	0.044750073	0.074990518	0.675533791	0.674668692	0.67590088
0.8227154	0.823252195	0.823656994	0.298022958	0.298761953	0.298300796
0.052070701	0.052814552	0.057257087	0.653738065	0.654202399	0.653978411
0.843771769	0.13721078	0.86137822	0.148903166	0.566085233	0.154378046
0.846302507	0.153881559	0.859530509	0.151258931	0.560808578	0.152213107
0.0625021	0.062483593	0.062430355	0.638357983	0.638388108	0.638519671
0.855545372	0.10286628	0.078923331	0.149494517	0.643417517	0.623558721
0.864682755	0.854814033	0.111459354	0.155794348	0.154697941	0.591899466
0.855007759	0.111444201	0.864629044	0.154685967	0.59218864	0.15571187
0.227717795	0.23840163	0.825592341	0.610671565	0.579623353	0.118710133
0.875105671	0.076030471	0.871248408	0.16874608	0.650561443	0.16458863
0.871859385	0.874766324	0.055324132	0.164953978	0.168614683	0.654806557
0.0747879	0.07495971	0.075150877	0.634152404	0.634365052	0.634556584
0.10288147	0.133266596	0.180006982	0.617685751	0.62100315	0.621605156
0.562241216	0.877252009	0.553861655	0.537017313	0.170501865	0.565789587
0.058073352	0.03879145	0.0770404	0.679865542	0.679024129	0.680273758
0.866905274	0.103997469	0.866679334	0.162582143	0.615282106	0.159040504
0.127972936	0.309644867	0.213407818	0.62353687	0.623892405	0.620200471
0.432603403	0.877385091	0.447988512	0.558247081	0.170505348	0.59094273
0.877163598	0.438571084	0.438566357	0.170242497	0.626600393	0.596444093
0.028048874	0.02761657	0.881658889	0.694798275	0.69476309	0.175350728
0.13941796	0.825298133	0.146863399	0.574656761	0.118571203	0.601632222
0.04490152	0.049358386	0.051302347	0.658251153	0.658627482	0.658447579
0.862932525	0.863046188	0.863635961	0.21957619	0.219139865	0.219490048
0.403931924	0.877399824	0.484652584	0.564777635	0.170530137	0.607426624
0.081811287	0.867115814	0.866220025	0.621086603	0.159840407	0.161954101
0.438497694	0.444497108	0.877653855	0.59321909	0.563473519	0.170617477
0.866472708	0.865381805	0.088172754	0.159183357	0.16195461	0.619503924
0.876650105	0.884207743	0.027328159	0.170630293	0.175563622	0.695250444
0.079644265	0.868980036	0.093638164	0.659078484	0.162687847	0.670408021
0.877672105	0.484894721	0.393026952	0.170737106	0.625182362	0.582604026
0.014230464	0.881510222	0.014292025	0.697422201	0.175393042	0.696997722
0.43475504	0.877503283	0.455024554	0.574472889	0.170569967	0.607881488
0.470099021	0.411690211	0.877702017	0.590646802	0.551421401	0.170676878
0.00000486	0.881615999	0.00000488	0.699333209	0.175342678	0.699194537
0.498754786	0.519518615	0.877447076	0.559555936	0.530797385	0.170671461
0.877505585	0.473495544	0.404121562	0.170605366	0.625762467	0.5860663
0.415711112	0.877408833	0.46992035	0.536202521	0.170576738	0.575463849
0.067637115	0.06762213	0.067859751	0.636208751	0.63634158	0.636634711
0.877273362	0.459103511	0.422032996	0.170348733	0.590758463	0.554956427
0.099219629	0.841929004	0.103129439	0.602337539	0.134908224	0.627725489
0.480906398	0.410109161	0.877489416	0.559294324	0.517618342	0.170495496
0.881213409	0.00000484	0.00000482	0.175399318	0.699118074	0.699580679
0.00000484	0.881533509	0.00000485	0.699139675	0.175481448	0.699076654
0.864132206	0.85565733	0.123148372	0.155880892	0.156669539	0.588420435
0.107669387	0.864562884	0.855338131	0.593751362	0.156910618	0.154713869
0.044810704	0.872679907	0.875044819	0.659160013	0.165569902	0.168509215
0.432606329	0.87738118	0.447981243	0.558250967	0.170467889	0.590932881
0.864564195	0.854613204	0.10765996	0.156426198	0.154099928	0.593665921
0.027392331	0.881887069	0.027759693	0.694873845	0.17533084	0.695400874
0.877269489	0.459090732	0.422072577	0.170393497	0.590724413	0.554896898
0.429779505	0.877907933	0.459764476	0.524497529	0.17090574	0.559783132
0.868973229	0.083321957	0.075713018	0.162671922	0.674345465	0.661330548
0.856323154	0.091327577	0.074135986	0.149295592	0.646301196	0.625303517
0.87588605	0.883743475	0.054273185	0.170844796	0.175634238	0.690466203
0.875439454	0.884509051	0.0000055	0.1709805	0.176424971	0.699650393
0.133807503	0.861503212	0.842970686	0.567711599	0.154715123	0.147826376
0.054594097	0.0542065	0.882444067	0.690143111	0.690533898	0.175808724
0.443924067	0.447530201	0.877370051	0.607215074	0.577777245	0.17058557
0.103055906	0.0788958	0.855932402	0.643243133	0.623529365	0.149613693
0.86887604	0.075428396	0.078461756	0.162528781	0.67653681	0.664370599
0.425609229	0.877347451	0.45914305	0.539423139	0.17054526	0.575467243
0.055307006	0.873209243	0.873671818	0.654738826	0.165050922	0.168637656
0.14743446	0.860492965	0.845784948	0.562686427	0.15311801	0.150822832
0.855898995	0.091236366	0.074103554	0.149422584	0.645437553	0.625698756
0.041023092	0.041134705	0.041577476	0.693064365	0.69264636	0.693712092
0.872389115	0.874502999	0.047373487	0.165801374	0.168678244	0.656920277
0.136052014	0.322142089	0.215928459	0.622541174	0.623692989	0.621382245
0.881264682	0.00000491	0.00000485	0.175384428	0.699166826	0.699686681
0.141856579	0.82684575	0.151243854	0.5762254	0.118879894	0.603161711
0.87456169	0.055397858	0.873087306	0.168513055	0.655128142	0.164746017
0.20456631	0.826340331	0.202522628	0.579567629	0.11930545	0.607061936
0.856075017	0.111457666	0.864664749	0.155653538	0.592150092	0.156742903
0.856288683	0.123106467	0.86414042	0.156513031	0.588361629	0.155791321
0.450235079	0.426808449	0.877057802	0.626529391	0.593028729	0.17043229
0.099224751	0.841828817	0.103083975	0.602512197	0.134920202	0.627719784
0.255998392	0.255136985	0.825297283	0.608583039	0.580992289	0.11857149
0.448122152	0.43596333	0.877433097	0.575838388	0.542883307	0.170548576
0.45978411	0.429719201	0.877869458	0.559802469	0.524441906	0.170606604
0.855460336	0.065380392	0.079217632	0.148523617	0.652420213	0.631852926
0.884217258	0.0000055	0.876427917	0.175482345	0.699308805	0.171187285
0.143090702	0.826099291	0.148969042	0.576203363	0.119266647	0.605658977
0.877697298	0.480923855	0.40184359	0.170818479	0.590286891	0.547960708
0.872932009	0.055345228	0.870361515	0.168287272	0.654902165	0.164438489
0.874300207	0.055389689	0.872829391	0.168624568	0.655104762	0.164774414
0.877375565	0.483592784	0.400350798	0.170487212	0.608213469	0.565506035
0.845418686	0.147459994	0.860454673	0.149980621	0.56272687	0.152415805
0.085485602	0.869002405	0.08206037	0.665400124	0.162545984	0.677363442
0.883791369	0.013705659	0.87607651	0.175058499	0.697305216	0.17055037
0.869130211	0.097711956	0.079348787	0.162750536	0.669924124	0.6573131
0.083443741	0.102178624	0.841401223	0.630907647	0.606139993	0.134852699
0.103409113	0.841562733	0.125141217	0.598313542	0.1351699	0.623486275
0.869109527	0.076712544	0.080154859	0.162537208	0.676665774	0.664485578
0.875081097	0.076016555	0.87114879	0.168844074	0.65049906	0.164516289
0.392803529	0.877220829	0.484668523	0.582682545	0.170794013	0.625225227
0.028592142	0.028125218	0.881016739	0.695007102	0.695827034	0.175153056
0.132788708	0.825791603	0.148852678	0.575167348	0.118887179	0.604012614
0.508892518	0.499496386	0.877109903	0.559924632	0.53095174	0.170751166
0.876564852	0.438271694	0.438266985	0.170326517	0.626518925	0.596469725
0.081749761	0.867742612	0.865737165	0.621379318	0.159880024	0.161423238
0.871491548	0.876078873	0.075947466	0.164699846	0.16932056	0.650410742
0.877758233	0.448894236	0.439773675	0.170691892	0.559796556	0.527856911
0.866614797	0.865557602	0.088144357	0.159208384	0.16186856	0.619479478
0.425655376	0.877450287	0.459131961	0.539354116	0.170649913	0.575360815
0.075982435	0.871583799	0.874622528	0.650511181	0.164618578	0.168518237
0.881302414	0.05457165	0.05433649	0.174990907	0.690163293	0.690530089
0.438703212	0.438698438	0.877427858	0.626601157	0.596330289	0.1704461
0.439477082	0.877247982	0.448688374	0.527544051	0.170839812	0.560030324
0.865511174	0.087693841	0.866898288	0.161840263	0.619207943	0.159207942
0.881364895	0.054581053	0.054409546	0.175044997	0.690169428	0.690572267
0.419841351	0.877642369	0.470309657	0.520887712	0.170834993	0.559777711
0.446693263	0.877348595	0.444352326	0.57646585	0.170554697	0.606936447
0.438870246	0.877771532	0.438874969	0.596463252	0.170563543	0.626587001
0.872121325	0.874648981	0.075935077	0.164546414	0.168444499	0.650424427
0.877067067	0.484598358	0.392719906	0.170742287	0.625328778	0.582658509
0.413900056	0.877395916	0.475683413	0.566036769	0.17067602	0.605483807
0.045336715	0.048471077	0.054075	0.655598467	0.656564629	0.655368057
0.85568279	0.123093264	0.863664863	0.155848556	0.588341241	0.155038673
0.877314314	0.4370616	0.446321037	0.170595539	0.575745503	0.546061248
0.434997769	0.877388934	0.454909344	0.574037247	0.170555439	0.607676047
0.459696656	0.42967034	0.877728586	0.559831145	0.524433927	0.17081037
0.00000491	0.00000486	0.881300375	0.699367041	0.699173662	0.175072136
0.103058367	0.078830896	0.855777617	0.643492068	0.623515907	0.149207508
0.00000278	0.0000029	0.00000285	0.699246483	0.699318222	0.69952526
0.143085199	0.826099044	0.148967152	0.576205218	0.1192664	0.605658034
0.219558812	0.826418594	0.213029706	0.580074091	0.119112972	0.608582877
0.027330874	0.88163077	0.027663894	0.695345264	0.175052214	0.694376934
0.877686237	0.470317573	0.419885258	0.170739478	0.559639483	0.520957206
0.080689012	0.856033936	0.104059093	0.623558419	0.1495293	0.643735749
0.845829401	0.141781965	0.861824839	0.149964153	0.564570761	0.154123401
0.868357705	0.865834913	0.077172214	0.160171226	0.161583331	0.62312358
0.412840783	0.877369676	0.476597964	0.566721445	0.170537055	0.606678729
0.435880178	0.877259283	0.448038322	0.542885052	0.170510473	0.575832001
0.111397664	0.864904307	0.855815226	0.592204846	0.156287046	0.155364039
0.882692994	0.040849805	0.875945795	0.174518884	0.692891489	0.170558424
0.843880882	0.137130507	0.861624822	0.148846515	0.566229642	0.154332868
0.858074002	0.130486161	0.862663459	0.15682003	0.586505391	0.154665003
0.065202739	0.871679346	0.875282498	0.652839533	0.164459477	0.168667172
0.027426325	0.881508202	0.027578471	0.695011953	0.175028482	0.694838345
0.841876378	0.092717409	0.099656018	0.134791596	0.629621327	0.604383098
0.086765369	0.86853477	0.083849786	0.664548517	0.162576114	0.677274601
0.882754989	0.0000055	0.876144739	0.175004776	0.699378412	0.170504783
0.111393384	0.864637758	0.854780405	0.592065677	0.156363111	0.155308811
0.445141785	0.877145603	0.43753876	0.562517451	0.17054954	0.592232872
0.41027532	0.877857531	0.481097052	0.51758565	0.170495736	0.559337917
0.410154273	0.877457674	0.480830667	0.517491115	0.170455923	0.55946605
0.439497998	0.877340772	0.448759561	0.52768745	0.170553212	0.559775065
0.841482613	0.124889249	0.104017972	0.135324421	0.62295745	0.597744932
0.091884027	0.074486958	0.856612835	0.645539869	0.625547735	0.149660271
0.082389276	0.868945092	0.083646708	0.663704653	0.162518678	0.67709282
0.013760979	0.013984882	0.013921222	0.697180946	0.697237255	0.697502213
0.87799193	0.438223862	0.443853572	0.170667645	0.591005018	0.561505169
0.875063101	0.049195145	0.873427489	0.168400966	0.659172102	0.165292002
0.866636219	0.865605991	0.08177446	0.159270899	0.161349766	0.621450299
0.825439099	0.137735262	0.128676719	0.118658328	0.605712612	0.576481719
0.070963582	0.05142705	0.082786981	0.673467559	0.672545899	0.674733556
0.41389801	0.877393109	0.475680185	0.566035038	0.170676602	0.605484377
0.87472091	0.055374807	0.871729884	0.168388625	0.654942851	0.164254061
0.470057747	0.411896931	0.877904714	0.590512732	0.5514223	0.170533389
0.153915503	0.859406407	0.846856082	0.56088146	0.152763224	0.151908078
0.045434892	0.048293803	0.05366926	0.655853213	0.656061831	0.656045803
0.487448746	0.400830672	0.877419514	0.609688656	0.566337305	0.170500333
0.070415355	0.071518027	0.074052231	0.649918341	0.650235615	0.650684157
0.103234339	0.078886821	0.856422373	0.643771445	0.623444519	0.149643369
0.349615344	0.825398946	0.32822019	0.584153352	0.118653526	0.613621643
0.279148951	0.289395708	0.825686584	0.61220086	0.585057576	0.118724427
0.876052746	0.877176316	0.875991814	0.170336605	0.170706761	0.170506587
0.415565193	0.877428522	0.46999076	0.53619805	0.170551511	0.575467679
0.882520822	0.040847231	0.876915303	0.174601562	0.692846348	0.170595946
0.092761176	0.099685277	0.841430195	0.62957904	0.604411987	0.134867072
0.081034709	0.855766423	0.067425932	0.631529723	0.149038415	0.652343545
0.877387366	0.469817168	0.415549496	0.170556689	0.575404546	0.536119938
0.06887207	0.071267806	0.855547911	0.650100432	0.629422077	0.148757958
0.863064982	0.843843986	0.133695944	0.155140665	0.147958392	0.56790183
0.881629854	0.00000485	0.00000486	0.175405384	0.699154644	0.699316267
0.860101679	0.844405442	0.141744947	0.152927997	0.149080936	0.564559564
0.877583995	0.438781436	0.438776704	0.170912394	0.626587524	0.596434713
0.480908871	0.410164346	0.877554244	0.559407163	0.517532331	0.170688947
0.865480182	0.087749745	0.866751905	0.161943714	0.619153947	0.159372593
0.855656223	0.107509475	0.86570513	0.155246188	0.593666188	0.157111405
0.864693339	0.854530658	0.107684222	0.156488248	0.154060051	0.593696658
0.1474519	0.859935427	0.844805366	0.562814123	0.152642234	0.150542302
0.446048401	0.877355	0.444521654	0.576445074	0.170561489	0.606946115
0.855303481	0.068843684	0.072037808	0.149218	0.649898929	0.629393362
0.099203851	0.841803329	0.10316285	0.602373114	0.134902532	0.627663897
0.841697148	0.124987122	0.104007731	0.135290731	0.623189262	0.597748294
0.448123309	0.435909837	0.877374132	0.575569349	0.542612793	0.170577348
0.439023104	0.878077043	0.439027826	0.596287405	0.171205093	0.626703919
0.854769103	0.107566605	0.865024658	0.154946681	0.593775216	0.156948155
0.877275963	0.437030393	0.446314184	0.170592594	0.575679045	0.546043494
0.877578445	0.480932229	0.410171566	0.17090202	0.559588569	0.517362014
0.866845895	0.104006937	0.866650372	0.162603525	0.61515175	0.159114549
0.882872811	0.040853131	0.875482444	0.17510086	0.692971126	0.170673669
0.855897633	0.116697209	0.863703403	0.155864337	0.590374703	0.15594547
0.876589776	0.884118237	0.027329127	0.170616389	0.175864532	0.695263566
0.102217673	0.841310558	0.083390117	0.605836212	0.13476981	0.631382952
0.083442902	0.102229184	0.84180831	0.631255036	0.605933667	0.134727781
0.446338752	0.87734899	0.437075523	0.546073432	0.170578046	0.575727691
0.874235735	0.050046226	0.872335717	0.168277703	0.658821866	0.164982989
0.874932165	0.047226461	0.87135517	0.168380122	0.656942689	0.164827438
0.877076804	0.884268911	0.0000055	0.171078168	0.176514863	0.699625165
0.08405734	0.868953977	0.085580562	0.660037152	0.162642801	0.673953888
0.868137493	0.864936443	0.07761326	0.160268249	0.161704363	0.623283475
0.014626885	0.014453461	0.881220957	0.697211636	0.697522329	0.175293295
0.10012074	0.841832133	0.114044183	0.600541069	0.134959496	0.625521975
0.074805324	0.074888753	0.075057458	0.634046252	0.634327638	0.634564991
0.05427185	0.877226851	0.884964794	0.690484282	0.171186571	0.175532467
0.866628715	0.103970543	0.867257402	0.162648554	0.615519232	0.159205307
0.073015859	0.855992419	0.082623041	0.627846559	0.149466707	0.647444718
0.01438811	0.880735012	0.014325926	0.697289429	0.175281267	0.697120212
0.864901129	0.855627725	0.116577898	0.156205487	0.1561097	0.590399322
0.868690387	0.076407342	0.079431072	0.162556174	0.676377253	0.664275836
0.873828581	0.065235498	0.870484695	0.167955959	0.652670712	0.164489549
0.067708826	0.067600788	0.067849342	0.636437351	0.63657263	0.636764789
0.881450575	0.041191589	0.040849818	0.175500157	0.692506609	0.693074366
0.276607598	0.301229753	0.825879665	0.614635505	0.585072772	0.118610524
0.080565913	0.855921488	0.104853458	0.623158499	0.149345403	0.642943762
0.0142244	0.881098302	0.014531965	0.697209013	0.17535164	0.697675712
0.095450217	0.866683414	0.865799468	0.617482535	0.158947194	0.162015961
0.87722506	0.459144194	0.422057638	0.170296527	0.590456023	0.554575895
0.06245262	0.062490216	0.062418055	0.638268243	0.638275444	0.638598939
0.459234082	0.422208309	0.877884582	0.590940492	0.555144682	0.170331608
0.054596852	0.054213912	0.882005903	0.689939601	0.690628019	0.175610485
0.074338978	0.855378207	0.091313818	0.625751063	0.149110721	0.645526983
0.08797579	0.867695439	0.86597708	0.619333	0.15968588	0.161980536
0.099677969	0.84160706	0.092647324	0.604523891	0.134885624	0.629757851
0.040714715	0.046859574	0.075075157	0.677494373	0.67780633	0.680565087
0.845452246	0.846208264	0.846348663	0.256814217	0.256684286	0.257675849
0.856294123	0.116699951	0.86443839	0.155907337	0.590247638	0.156226824
0.028187682	0.028065361	0.881101388	0.69479558	0.695026348	0.174882367
0.43850126	0.438496494	0.877023863	0.626593835	0.596333263	0.170438747
0.421926238	0.877009779	0.458694679	0.555237288	0.170048888	0.590883326
0.877348803	0.440639885	0.44386306	0.170627799	0.609879575	0.579568513
0.866894419	0.095570104	0.866833347	0.162318076	0.61740033	0.159353737
0.465717101	0.42457726	0.877376092	0.608786586	0.572172283	0.170598517
0.864911548	0.86355233	0.863984308	0.219085625	0.21946663	0.219058209
0.079381616	0.868841664	0.088458832	0.6643301	0.162673314	0.674170518
0.86074652	0.845103088	0.147544012	0.152687233	0.150249608	0.5628031
0.868954662	0.089254208	0.074947585	0.162664197	0.672172497	0.659752754
0.544275724	0.877343047	0.551630877	0.531271237	0.170581808	0.560863588
0.822429886	0.822919614	0.820298245	0.298144591	0.298653722	0.298007294
0.077048817	0.867753749	0.864982985	0.62303274	0.160053632	0.160938123
0.140756426	0.128858575	0.825949173	0.604328779	0.576117649	0.119114584
0.087630689	0.079065676	0.868709554	0.672370192	0.660113458	0.162646416
0.877484725	0.480501951	0.405829379	0.170591777	0.575397925	0.532974425
0.825664024	0.135582208	0.126356945	0.11914678	0.603896244	0.576873808
0.87275299	0.873869345	0.075934737	0.164730282	0.168661869	0.650385239
0.087381254	0.079526258	0.868784735	0.672429749	0.660114706	0.162641734
0.141741123	0.860830932	0.845511342	0.564524509	0.153655955	0.149837116
0.419780802	0.877610813	0.470337078	0.521088311	0.170822552	0.559706405
0.860153842	0.845507501	0.14175494	0.153695321	0.149781934	0.564525952
0.824136385	0.82335078	0.823412617	0.299037252	0.298570151	0.298539619
0.486759551	0.401540767	0.877314438	0.607666138	0.564797202	0.170477495
0.864100371	0.863103629	0.86386216	0.219576526	0.219193525	0.219637263
0.447710378	0.432440652	0.877010111	0.590790316	0.558319977	0.17012973
0.450263059	0.426838017	0.877115675	0.62662874	0.592950563	0.170413585
0.869061374	0.082654948	0.074817336	0.162595361	0.673878656	0.660094902
0.877344051	0.451003963	0.431998427	0.170502284	0.608750537	0.575306374
0.073203344	0.855213264	0.071876499	0.629291099	0.148689946	0.649076403
0.864131794	0.856325317	0.123129745	0.155789585	0.15660217	0.588374606
0.869014222	0.090556903	0.076533403	0.162702534	0.671495596	0.659458961
0.87781699	0.877500877	0.878524816	0.170572764	0.170800995	0.171023265
0.013821307	0.014220551	0.013950131	0.697213265	0.696923817	0.696790628
0.872321893	0.875172909	0.046419284	0.165111645	0.168479904	0.658303153
0.884198179	0.040848801	0.876708997	0.175077446	0.692873798	0.171085463
0.081808819	0.867108266	0.866210302	0.621090593	0.159914273	0.161963439
0.421680871	0.876486501	0.458411397	0.55475158	0.170352267	0.590349161
0.872334394	0.874714474	0.047618476	0.165291903	0.168447709	0.658893091
0.47603983	0.413058592	0.877336036	0.610545239	0.570858855	0.170524601
0.00000496	0.00000479	0.881628636	0.699326152	0.699100854	0.17505337
0.028029708	0.027554345	0.881655509	0.694791698	0.694828843	0.175336531
0.045547273	0.048294849	0.054007518	0.655668057	0.656924633	0.656416098
0.877426374	0.47346142	0.404075862	0.170626293	0.625922875	0.586025765
0.863258551	0.856727515	0.130368164	0.155106717	0.156826166	0.586512127
0.874621209	0.0760263	0.871311944	0.168505368	0.650496876	0.164614733
0.856827546	0.123038625	0.864046963	0.156491598	0.588449781	0.155487058
0.074193461	0.855550889	0.082288907	0.628091363	0.149421736	0.648170502
0.435915475	0.877428787	0.44819532	0.542711696	0.170591947	0.575617521
0.437617203	0.445141872	0.877372087	0.59276079	0.563202231	0.170451221
0.147446943	0.858970302	0.845811076	0.562864789	0.152533395	0.150365027
0.088566621	0.079655406	0.868915934	0.672488201	0.661379195	0.162609705
0.877331562	0.459026435	0.425553886	0.170580545	0.57564798	0.539625491
0.841666921	0.083360731	0.102290285	0.134900725	0.631418147	0.605877846
0.092667106	0.099552577	0.841452802	0.629564304	0.604514545	0.134821802
0.448820907	0.439550826	0.877438046	0.559681187	0.527847382	0.170669822
0.415559402	0.877218392	0.469822223	0.535956164	0.170510999	0.575186494
0.047134017	0.871792271	0.874060382	0.65685886	0.164690536	0.167942887
0.014391536	0.014265964	0.882268482	0.696754319	0.697227166	0.175580195
0.877093708	0.877474685	0.878051451	0.170790689	0.170690835	0.171272894
0.087706339	0.079206519	0.868692364	0.672875828	0.661858045	0.162760013
0.875310755	0.055395892	0.871816503	0.168488373	0.655025987	0.164507447
0.080379407	0.869026018	0.093317546	0.658316658	0.162586125	0.670328941
0.867455313	0.866517998	0.095462035	0.159495979	0.162632713	0.617428304
0.087845335	0.867013888	0.865743803	0.619879895	0.159656312	0.161978845
0.13039775	0.863439876	0.857408333	0.586233634	0.15486323	0.157296841
0.087857694	0.079000908	0.868733794	0.672717264	0.660979682	0.162679801
0.862717763	0.863030816	0.863325412	0.218554406	0.219075225	0.219053953
0.470265135	0.419810014	0.877559152	0.559681083	0.521048854	0.170650163
0.841698581	0.124900674	0.103323355	0.135272681	0.623474417	0.598017969
0.882613355	0.054273331	0.875560237	0.174930703	0.69051231	0.17062949
0.041432043	0.041050452	0.041814621	0.693278973	0.691771779	0.692779661
0.877810706	0.470420424	0.419897095	0.170841359	0.559726576	0.521029765
0.877282821	0.448042733	0.435842171	0.170603939	0.575691738	0.542823238
0.878045474	0.485072958	0.393222699	0.170800549	0.625119032	0.582544043
0.469875789	0.415734745	0.877422003	0.575430716	0.536287069	0.170563006
0.855395216	0.102837709	0.07908739	0.149281908	0.64348463	0.623550453
0.844136423	0.846457994	0.845474272	0.256767043	0.257054151	0.2572213
0.459072376	0.425661776	0.877291582	0.575442366	0.539350176	0.170573924
0.044316067	0.049752611	0.051593587	0.658580965	0.659484892	0.658679073
0.882111545	0.04100463	0.040782018	0.175409214	0.692585577	0.692861766
0.877401776	0.469803906	0.415627754	0.170555702	0.575385436	0.536121624
0.868939962	0.090134256	0.07550718	0.162667882	0.671466461	0.659248601
0.869024907	0.080191189	0.07718849	0.162572768	0.674726878	0.66311497
0.43711082	0.446378709	0.877421961	0.575772974	0.546059048	0.170604596
0.077010033	0.867050803	0.865056904	0.623257917	0.160071666	0.161060018
0.120392619	0.111891868	0.141675945	0.616155667	0.614655546	0.616148747
0.081729293	0.079119147	0.868789829	0.675200655	0.663384238	0.162568928
0.4811254	0.410386547	0.877996878	0.559292542	0.51771282	0.170478004
0.841922702	0.133821108	0.862576187	0.148242285	0.567663269	0.155338036
0.448607348	0.439462207	0.877143793	0.559699192	0.527760745	0.170445154
0.04107216	0.881682878	0.04139615	0.693099118	0.175578586	0.692591606
0.882429163	0.040851357	0.874732026	0.175225855	0.692968464	0.170205619
0.877460572	0.440547147	0.44417916	0.170637367	0.609844649	0.57946557
0.448136913	0.435929209	0.877411581	0.57582742	0.542884485	0.170550461
0.066724759	0.079434789	0.85563728	0.653469599	0.633471488	0.148822782
0.883287677	0.054276398	0.87626137	0.175010561	0.690526506	0.170799766
0.865285809	0.077127682	0.867187206	0.161087185	0.622793044	0.160192999
0.074919928	0.856339619	0.091350951	0.625679482	0.149856129	0.645920446
0.876480011	0.88303807	0.040852962	0.171033198	0.175393969	0.692981999
0.039712617	0.046946511	0.073953166	0.676481761	0.677314756	0.677271681
0.099897537	0.081364416	0.869225478	0.669230587	0.657510015	0.162741282
0.435859152	0.877274625	0.448068565	0.542872282	0.170509555	0.575822479
0.074802848	0.074900323	0.075045335	0.634070943	0.634368891	0.634485242
0.435149611	0.877283767	0.454988945	0.574138162	0.170549373	0.607905258
0.153931332	0.859683716	0.84684101	0.560909299	0.152834478	0.152010113
0.473627546	0.404242589	0.877759251	0.625847047	0.586096074	0.170784991
0.443326655	0.446685151	0.877307236	0.608948748	0.578378998	0.170569163
0.045194974	0.871892839	0.873834742	0.659033145	0.16523301	0.168162415
0.062470774	0.062479816	0.06243694	0.638255614	0.638400655	0.638531103
0.87800802	0.485053195	0.393206944	0.170732826	0.625206189	0.58263152
0.402721352	0.877396976	0.48553943	0.564830621	0.170556663	0.60752716
0.068837993	0.071383504	0.855205148	0.649952032	0.629891412	0.148865071
0.877413432	0.450731225	0.432465591	0.170561278	0.609748536	0.576353672
0.8773276	0.459025483	0.425543123	0.170599287	0.575692079	0.539643699
0.877605428	0.473985538	0.48319935	0.170717925	0.561859155	0.532175984
0.425530783	0.877235855	0.459097075	0.539476221	0.170501042	0.575600257
0.074580309	0.856118461	0.09143731	0.625573245	0.149773165	0.645932369
0.868859477	0.075900542	0.078501455	0.162527608	0.676616721	0.664469027
0.102992755	0.841867758	0.125006454	0.598616452	0.135130581	0.623570941
0.054603563	0.055095252	0.055105285	0.690589878	0.689889751	0.689916531
0.14129417	0.826690732	0.151568147	0.576227623	0.118876704	0.60317078
0.484668817	0.392817788	0.877232998	0.625455749	0.582505323	0.170613838
0.856250054	0.130480969	0.861955653	0.156556356	0.58647931	0.154430544
0.856530554	0.123156489	0.864251247	0.156649427	0.58862788	0.155671543
0.393179776	0.877949681	0.485022516	0.58263888	0.170819714	0.625176139
0.86415276	0.855632242	0.123150239	0.155949375	0.156727654	0.588403253
0.415590439	0.877419518	0.469983495	0.536173463	0.17053595	0.575462656
0.841657404	0.124702019	0.103667082	0.135303031	0.623071054	0.598039251
0.877461185	0.480559384	0.405667948	0.170523714	0.575008084	0.532623412
0.054640702	0.054292222	0.881941231	0.689924173	0.690601335	0.175349276
0.881463484	0.00000482	0.00000486	0.175350455	0.699381218	0.699719699
0.824219787	0.823179045	0.823119157	0.298291257	0.298477847	0.297275993
0.866967657	0.087660512	0.867486168	0.162035899	0.619413823	0.159619132
0.07871867	0.868797276	0.087895853	0.663372425	0.16267015	0.674647952
0.480837297	0.40152617	0.877683642	0.590285219	0.548033806	0.170436323
0.876344251	0.883535561	0.013706849	0.170400355	0.175419706	0.697338793
0.403954406	0.877187617	0.473344406	0.586302033	0.170721237	0.625773362
0.86575133	0.077165441	0.867992729	0.161593032	0.62326785	0.160316795
0.871110047	0.874546542	0.075956981	0.164406503	0.168140056	0.65037369
0.091621121	0.074402913	0.855050127	0.645332624	0.625750952	0.149519941
0.877885542	0.43893225	0.438927574	0.170953396	0.626590814	0.596450089
0.877377292	0.466669455	0.490048584	0.170689295	0.560844785	0.531386244
0.062486909	0.06248006	0.062460491	0.638259067	0.638418444	0.638523136
0.877358267	0.88379147	0.040858251	0.170855351	0.175611371	0.693120138
0.881467502	0.027952021	0.027615521	0.175379699	0.694806026	0.69541201
0.081472053	0.856006288	0.068641927	0.633491798	0.149113795	0.654441614
0.059442884	0.063779353	0.062795264	0.652231881	0.65276086	0.652031319
0.857330538	0.12303739	0.864560571	0.156558868	0.588467075	0.155480778
0.133746732	0.861929004	0.843793623	0.567734217	0.154821935	0.147847112
0.877484742	0.458924786	0.422447194	0.170381707	0.590707012	0.554910303
0.844712817	0.846011097	0.846816899	0.257247543	0.256791731	0.257605992
0.844572658	0.141801403	0.860260943	0.149630792	0.564514617	0.153412307
0.869067094	0.097439745	0.080305869	0.162778434	0.669545572	0.656007066
0.841693304	0.113537839	0.100735573	0.135179719	0.625932372	0.600921674
0.113681255	0.09998627	0.841972632	0.625821249	0.60075737	0.135211225
0.442940514	0.447579356	0.877355165	0.607935143	0.577379895	0.170585695
0.841695007	0.083349068	0.102300699	0.13488922	0.631387445	0.605907873
0.873027437	0.874237357	0.872943487	0.188326109	0.189297367	0.189256415
0.847796192	0.846416873	0.84741676	0.258164213	0.257176698	0.25754325
0.074875171	0.074981835	0.075406884	0.634396297	0.634318848	0.634463582
0.081865058	0.867104582	0.866220804	0.621090099	0.159899668	0.161965034
0.01370578	0.876162899	0.881523948	0.697297902	0.170832994	0.175203372
0.104119795	0.866968761	0.867189733	0.615641921	0.159331253	0.162860487
0.855072425	0.107510244	0.865299113	0.154945343	0.593712656	0.156965262
0.877412687	0.469952837	0.415425046	0.170594086	0.575599432	0.53627225
0.123113875	0.863305889	0.857124306	0.588354242	0.15554553	0.156704825
0.873997528	0.048590156	0.872257947	0.168272628	0.658964692	0.165345798
0.874496162	0.05540436	0.871887788	0.168723357	0.655090618	0.164819576
0.882056753	0.00000493	0.00000486	0.17542003	0.699255846	0.699270812
0.141749746	0.86069382	0.844763648	0.564514524	0.153483418	0.149670021
0.00000549	0.874350177	0.882586763	0.699305006	0.170321959	0.174948661
0.856974881	0.130443617	0.86277038	0.156776261	0.586474066	0.154552517
0.153935861	0.860180961	0.846800374	0.560833104	0.152723506	0.151832913
0.48069584	0.401380807	0.877397881	0.590136647	0.548022131	0.170415833
0.057565926	0.045145037	0.076148068	0.675460247	0.674679763	0.676452153
0.279519415	0.282663963	0.825733283	0.614631224	0.584664575	0.118736476
0.856905119	0.068744516	0.072114541	0.149485439	0.650176578	0.628936936
0.866454606	0.865824302	0.104097716	0.159381688	0.162642611	0.615234191
0.013706146	0.875955129	0.882738665	0.697279871	0.170903196	0.175609754
0.10399617	0.866952453	0.866814821	0.615620204	0.159438258	0.162908385
0.473582994	0.40419667	0.877668178	0.625933449	0.586149508	0.17072741
0.865596296	0.077110453	0.86744163	0.161063307	0.623053812	0.15994571
0.446243244	0.877346969	0.444390637	0.576456541	0.170558778	0.606937119
0.438880117	0.438875397	0.877781738	0.626686446	0.596328008	0.170648487
0.027502469	0.881679678	0.027719725	0.695213513	0.175255914	0.695049753
0.040855302	0.87594902	0.883143813	0.693052386	0.170551687	0.175637602
0.824587157	0.82311433	0.823020248	0.298081268	0.29871842	0.298041221
0.455041636	0.435865982	0.877395449	0.611021559	0.577437658	0.170590753
0.092674595	0.099631203	0.841258618	0.629507276	0.604479379	0.134945056
0.860233398	0.843704954	0.137162666	0.153810342	0.148183358	0.566287671
0.43599988	0.877324469	0.454400925	0.576359161	0.170564169	0.609791209
0.882378149	0.027325857	0.876516461	0.175646095	0.695201158	0.171179812
0.480437107	0.405882506	0.877291408	0.575139888	0.532644188	0.170522099
0.133730785	0.861846092	0.843992133	0.567832045	0.155188454	0.148151774
0.065221511	0.871614067	0.87498116	0.652683487	0.164373836	0.168659267
0.854500146	0.116685093	0.86259747	0.155392698	0.590428129	0.1553647
0.424280411	0.877335426	0.465365989	0.572917754	0.170556879	0.60955376
0.438858002	0.438853288	0.877737524	0.626676794	0.596360926	0.170650171
0.877295142	0.484557684	0.399227818	0.170530665	0.608315502	0.565686818
0.8461646	0.845830918	0.847741562	0.256804566	0.256627739	0.257685107
0.123046723	0.297396369	0.207738095	0.621857375	0.622347587	0.621338717
0.06522037	0.872188895	0.873917866	0.652766295	0.16477067	0.168401142
0.014175075	0.881548919	0.014090989	0.6971844	0.175480689	0.697055317
0.429613232	0.877653599	0.459687996	0.524430413	0.170844351	0.559752686
0.126110187	0.110595713	0.147010898	0.615454259	0.615216829	0.615056236
0.865109088	0.077016414	0.866572839	0.160994292	0.623265674	0.159543194
0.825789595	0.229926	0.222665317	0.118825088	0.611818128	0.582693652
0.867030455	0.865798179	0.07734825	0.159839926	0.16145677	0.622637866
0.875660894	0.884154257	0.027327313	0.170588936	0.175821624	0.695224184
0.872151179	0.874811323	0.047062346	0.165226967	0.16832314	0.658490597
0.877511925	0.484806943	0.39295787	0.170582451	0.625293438	0.582582005
0.435860778	0.877272107	0.44802896	0.542853094	0.170594761	0.575820078
0.279031435	0.282477311	0.825753038	0.612663381	0.584986597	0.118728047
0.111392249	0.8645267	0.855506008	0.59205521	0.156231596	0.15517555
0.875921514	0.075973233	0.871391457	0.168875775	0.650453701	0.164460672
0.079807896	0.07146711	0.856012108	0.647842524	0.627452236	0.14934894
0.871861676	0.873634901	0.047547194	0.165229595	0.16825149	0.658647516
0.860917446	0.844408216	0.137191065	0.153963438	0.148614763	0.566226136
0.044848266	0.049659799	0.051815876	0.657806623	0.65819083	0.658540129
0.447746002	0.4324396	0.877033634	0.590814542	0.558338724	0.170111954
0.862532407	0.863230664	0.862748183	0.218382595	0.218895542	0.219367573
0.855341463	0.102878258	0.079133154	0.149131873	0.643410727	0.623566918
0.86427652	0.864050503	0.863490339	0.219765627	0.219838712	0.219172891
0.070457407	0.071336424	0.074234518	0.649821311	0.650065215	0.650110452
0.081564253	0.869183597	0.099452554	0.656371667	0.162647633	0.668986153
0.841315674	0.102836409	0.099072461	0.134987394	0.627708338	0.602761359
0.068877621	0.071285961	0.855318363	0.650060619	0.62993657	0.148938162
0.465750107	0.424146678	0.877408939	0.608782996	0.57209703	0.170561763
0.079864784	0.868928637	0.092760893	0.658255363	0.162685729	0.670050054
0.401705739	0.877905665	0.480928485	0.548397111	0.17067746	0.590036216
0.877287758	0.437124867	0.444239408	0.170371151	0.591453936	0.561925109
0.877387248	0.469816997	0.415550073	0.17055672	0.575404617	0.53611987
0.873479802	0.065238396	0.87010311	0.168104301	0.6527515	0.164474228
0.883827322	0.0000055	0.876274991	0.175455495	0.699314662	0.17110516
0.826268969	0.200998343	0.206310533	0.11898706	0.608262391	0.577962349
0.84466016	0.147472046	0.857971866	0.150029093	0.562794165	0.152464185
0.486993474	0.401522747	0.877441323	0.607417436	0.564315733	0.170529599
0.044569353	0.872129657	0.874134456	0.659295247	0.165053638	0.167938449
0.404287353	0.877854471	0.473677808	0.586221394	0.170799588	0.625859432
0.09971918	0.081218406	0.869183776	0.669073937	0.657146547	0.162697835
0.480831751	0.405892169	0.877544476	0.574789245	0.532306197	0.170547584
0.083268938	0.299644244	0.27863886	0.620079782	0.620572277	0.617887677
0.140208151	0.134021776	0.825506215	0.605764227	0.577575814	0.118755789
0.863893022	0.863745772	0.863081838	0.218417643	0.219431068	0.218838358
0.857970468	0.13048466	0.862826098	0.157061198	0.586550921	0.154934993
0.079681511	0.071527594	0.855638312	0.647692398	0.627658814	0.149207325
0.435877485	0.877290625	0.448023893	0.542856877	0.170616078	0.575849746
0.087168893	0.078313175	0.868921505	0.672549579	0.661507903	0.162600323
0.405618579	0.877293798	0.480765866	0.532765094	0.170551703	0.575088595
0.401606496	0.877591916	0.480730171	0.548225778	0.170460211	0.589948718
0.825686187	0.136799141	0.126367618	0.119157283	0.603964184	0.576991847
0.062470774	0.062479816	0.06243694	0.638255614	0.638400655	0.638531103
0.414596278	0.877150726	0.474885377	0.569383848	0.170576574	0.60843412
0.013812339	0.014444691	0.014093865	0.69659705	0.697421594	0.696956044
0.863934674	0.856506019	0.123160733	0.15581386	0.156584517	0.588451787
0.872120891	0.875849347	0.075941614	0.164777311	0.16945921	0.650536542
0.147452496	0.858925797	0.845832879	0.562866303	0.152543619	0.150372023
0.877495048	0.439839111	0.444920816	0.170625352	0.609710378	0.579253358
0.103051277	0.099112945	0.841559688	0.627696253	0.602601085	0.134981451
0.059982236	0.060044399	0.059964588	0.640256993	0.640102835	0.639958916
0.877607641	0.470358419	0.419754529	0.170809925	0.559661479	0.520963275
0.856539412	0.111466804	0.86557697	0.155497007	0.592158917	0.156743758
0.867168087	0.86597433	0.081927104	0.159857529	0.161615238	0.621174098
0.865114183	0.863690113	0.863856295	0.219401046	0.219207748	0.219494522
0.013793599	0.014176686	0.013953912	0.697041863	0.69676289	0.696261436
0.343344864	0.825318286	0.331091199	0.582593606	0.118450959	0.613302075
0.448142292	0.435911961	0.877412869	0.575826287	0.542884033	0.170552154
0.127596728	0.308271048	0.212530033	0.623531916	0.623898903	0.620226538
0.027324934	0.87638031	0.883590734	0.695202066	0.170893239	0.175665406
0.863071594	0.862631187	0.863913091	0.219043955	0.21909744	0.219477607
0.855694906	0.091245479	0.074146546	0.149438595	0.645259369	0.625728302
0.87730487	0.484692206	0.392865108	0.17078623	0.625093087	0.582535811
0.141629153	0.129583754	0.825076041	0.605399457	0.577664182	0.118678364
0.099650237	0.841913076	0.092699735	0.604370727	0.134884263	0.629762757
0.87700189	0.438490488	0.438485694	0.17031671	0.626413761	0.596533572
0.07915145	0.082485019	0.868942517	0.678894624	0.666026977	0.162488549
0.00000549	0.87719696	0.884111936	0.699295785	0.170586833	0.17607517
0.865806023	0.081537246	0.867523748	0.161385925	0.62117512	0.159646048
0.868920552	0.090305073	0.07745758	0.162673367	0.671372745	0.659304767
0.081852395	0.869263798	0.09988032	0.656585926	0.162651142	0.669321176
0.083400693	0.102224456	0.841565934	0.63096145	0.605730502	0.134735011
0.459653333	0.429668786	0.877689001	0.559849768	0.524461881	0.170754167
