Va	Vb	Vc	Ia	Ib	Ic
0.427116182	0.877672553	0.450541608	0.593066551	0.170823304	0.626463028
0.872070872	0.875917267	0.075945283	0.164822084	0.169513713	0.650486805
0.873968991	0.873603192	0.875255955	0.188787352	0.188943523	0.189307655
0.423928147	0.87734109	0.465566224	0.573035399	0.170555598	0.609692127
0.062503388	0.062479196	0.062461518	0.638281263	0.638278035	0.638495064
0.882725931	0.054273336	0.876305543	0.175059787	0.690486487	0.170962413
0.438684569	0.444501141	0.877630861	0.593152948	0.563448276	0.170623102
0.876426676	0.883880074	0.054279376	0.171205936	0.175668742	0.69058884
0.10767776	0.865262525	0.854939594	0.593929646	0.15687526	0.154425999
0.864272386	0.855008337	0.111434352	0.155770394	0.154671261	0.591904001
0.469964843	0.415681385	0.877390417	0.575552366	0.536290958	0.170603331
0.060013074	0.060047442	0.059889207	0.639770447	0.640123351	0.640063612
0.444592934	0.877366147	0.438547399	0.561811065	0.170409842	0.591289262
0.446138436	0.877351246	0.4448109	0.576499217	0.170551569	0.606943159
0.476220966	0.412949171	0.877342269	0.610630014	0.57086136	0.170535795
0.088277297	0.079917455	0.868774499	0.672307496	0.660600412	0.162680608
0.470446609	0.419928082	0.877865393	0.559627182	0.520968156	0.170882249
0.825197924	0.14794685	0.13145334	0.119169875	0.603316885	0.575810913
0.877366071	0.448089412	0.435854081	0.170628137	0.575771891	0.542883054
0.079747512	0.071496156	0.855850503	0.64814976	0.627230233	0.149313658
0.062509287	0.062483108	0.062454554	0.638360402	0.638343502	0.638509084
0.841752312	0.092694055	0.099698102	0.134778929	0.62963472	0.604230562
0.124925194	0.103292823	0.841694459	0.623341899	0.598421607	0.135159622
0.469458609	0.410993237	0.87634042	0.590459803	0.551735716	0.170270067
0.070384063	0.051537412	0.082166433	0.673477546	0.672642416	0.674831261
0.868850276	0.075850915	0.078847226	0.162519758	0.676409168	0.664437641
0.883009781	0.013708056	0.87525417	0.175067105	0.697398909	0.170413312
0.447894632	0.432577564	0.877327797	0.59091807	0.558513345	0.170224235
0.868985893	0.082951659	0.075202661	0.162632043	0.673741514	0.661687498
0.846380836	0.847021419	0.846389898	0.25699462	0.257323915	0.256914004
0.822669585	0.823405617	0.822057035	0.298043111	0.298789522	0.298944031
0.855436156	0.079675847	0.071825765	0.148920634	0.647808941	0.627874077
0.881204948	0.027946735	0.027733474	0.175486943	0.694609086	0.695316804
0.855228043	0.107571332	0.865419754	0.154924082	0.593873023	0.157124353
0.869100495	0.082486939	0.074667878	0.162597884	0.674098295	0.660344841
0.402543905	0.877404902	0.485718324	0.564837319	0.170548489	0.607547789
0.141786397	0.861587284	0.845771377	0.564566947	0.15429744	0.150157861
0.146398734	0.13231816	0.826153145	0.60145841	0.57222812	0.119772487
0.876398562	0.882611598	0.0000055	0.171438167	0.175590277	0.699236645
0.862920252	0.856636746	0.130394763	0.15494173	0.156911586	0.586424806
0.882115911	0.00000492	0.00000486	0.175427265	0.699269228	0.699270992
0.103051277	0.099112945	0.841559688	0.627696253	0.602601085	0.134981451
0.08786825	0.867002644	0.866442114	0.619347761	0.15962697	0.162446487
0.443813581	0.447755458	0.877401258	0.606877009	0.577319209	0.170579949
0.065236235	0.871887919	0.873617751	0.652786359	0.165155918	0.168644023
0.120392619	0.111891868	0.141675945	0.616155667	0.614655546	0.616148747
0.465740095	0.424638968	0.877403764	0.60878596	0.572180622	0.170591194
0.868943163	0.090220102	0.077516738	0.162663191	0.671428687	0.659305661
0.864175759	0.8545994	0.107657987	0.156329207	0.154189918	0.59388565
0.465717642	0.424577539	0.877376455	0.608786618	0.572172418	0.170598428
0.87722792	0.47031232	0.411798043	0.170386566	0.590659596	0.551626827
0.864175759	0.8545994	0.107657987	0.156329207	0.154189918	0.59388565
0.465740768	0.424566343	0.877392139	0.608870274	0.572208478	0.170606696
0.438880476	0.438875756	0.877782454	0.62668618	0.596330777	0.17064819
0.877564237	0.459669322	0.429533412	0.170601718	0.559615776	0.524558521
0.480658119	0.405866675	0.87730716	0.574608862	0.53206224	0.17054901
0.864240169	0.856173051	0.116590422	0.155811603	0.155756073	0.590449943
0.458745247	0.421704752	0.876887909	0.590891396	0.555012521	0.170325999
0.103891723	0.866548672	0.866536872	0.615417395	0.15901185	0.162811149
0.059786111	0.039644616	0.079534449	0.679405162	0.679171589	0.67993631
0.40142721	0.877543294	0.480867006	0.547751311	0.170632287	0.589356735
0.077087549	0.867549552	0.865772989	0.623103463	0.160323341	0.161789468
0.855440794	0.1028834	0.078885322	0.14930656	0.643348161	0.623584712
0.080140099	0.855876146	0.104817249	0.623369448	0.149505324	0.642776489
0.123107138	0.863559588	0.856798998	0.588389753	0.155360149	0.156514463
0.133247607	0.825411053	0.149984275	0.57463836	0.118973773	0.603806316
0.420000571	0.878104561	0.470596894	0.521147489	0.170851216	0.559703523
0.845973324	0.147495744	0.859980708	0.150241722	0.562813659	0.152696332
0.869066982	0.079959967	0.077428111	0.162579362	0.674631989	0.663153304
0.415522274	0.877574858	0.462079969	0.589685978	0.170686374	0.626198588
0.069977502	0.071928295	0.073916047	0.649262019	0.649777658	0.649824917
0.855203148	0.102760035	0.078715255	0.149067859	0.643235829	0.623810487
0.822516226	0.823487897	0.824178964	0.298976577	0.298652186	0.298878485
0.054272002	0.881570415	0.05464953	0.690409299	0.17534479	0.690005791
0.405800757	0.877359935	0.480777155	0.532791513	0.170558189	0.575209518
0.571600878	0.877446007	0.529387753	0.535323421	0.170578528	0.56423497
0.877377404	0.483735855	0.400100357	0.170589188	0.608646896	0.56606042
0.877669555	0.473581136	0.40419991	0.170571899	0.625888135	0.586064337
0.469858847	0.415687768	0.877385471	0.575417844	0.536262376	0.170596806
0.060016335	0.060046636	0.059911695	0.639845599	0.640153855	0.640152091
0.856073809	0.116707564	0.863442974	0.15537406	0.590459112	0.155268669
0.113674894	0.100336984	0.841409658	0.626108539	0.600683106	0.135001314
0.405914018	0.877343903	0.480604312	0.532755064	0.170554036	0.575083733
0.137187443	0.861294555	0.843945824	0.566372454	0.153744275	0.148546122
0.883662379	0.013704945	0.875906504	0.175072717	0.697252468	0.170597143
0.083390262	0.102162713	0.841479194	0.630966027	0.606192186	0.13485033
0.877404532	0.87749985	0.878171013	0.170790042	0.170702909	0.171272709
0.473482122	0.404103856	0.877474116	0.625882235	0.58605282	0.170538883
0.055365147	0.872252785	0.874709751	0.654957942	0.164923944	0.169008257
0.882658219	0.040848177	0.876578657	0.175122474	0.692853909	0.171202295
0.041251401	0.882481665	0.041261077	0.69271509	0.175882043	0.692288127
0.469937323	0.415586877	0.877284366	0.575163604	0.535942948	0.170534043
0.825921484	0.222394449	0.231338969	0.118749114	0.608433029	0.581482485
0.410115823	0.877265785	0.480690954	0.517388965	0.170865564	0.559502731
0.147453203	0.859985793	0.845155563	0.562769367	0.152687081	0.150584526
0.14364605	0.826918724	0.149481953	0.576317449	0.118901821	0.603360481
0.861778761	0.843210844	0.133718113	0.154876586	0.147754839	0.56776988
0.041103984	0.04091337	0.881134015	0.692474484	0.692991755	0.174976633
0.881891931	0.054606847	0.054222763	0.175839781	0.690098748	0.690295626
0.855969968	0.064403247	0.078318768	0.148969988	0.652873191	0.631698973
0.131004126	0.31322617	0.21308524	0.623317448	0.625941429	0.621290952
0.00000278	0.00000297	0.00000289	0.699165375	0.699028871	0.69924942
0.044810704	0.872679907	0.875044819	0.659160013	0.165569902	0.168509215
0.87761422	0.448789983	0.439740199	0.170716657	0.559966424	0.527628903
0.45915878	0.422115127	0.877700832	0.590881223	0.554961385	0.170895777
0.432597387	0.877505563	0.448107482	0.558409478	0.170370192	0.591050138
0.87161753	0.874225434	0.047122069	0.164819261	0.16823306	0.656993488
0.826365344	0.218397259	0.227873804	0.118744539	0.612212713	0.583867329
0.86407553	0.863206425	0.863939665	0.21916872	0.219070127	0.219602576
0.092709725	0.099627795	0.841274433	0.629501012	0.60449492	0.1349487
0.157423082	0.148412319	0.094209514	0.616961313	0.616264611	0.6153627
0.084235444	0.868963953	0.08554938	0.660077198	0.16263198	0.674135846
0.87699812	0.483700332	0.469590059	0.170764583	0.561896456	0.532732248
0.846489541	0.153917189	0.859592858	0.151259301	0.560796546	0.152203099
0.877329388	0.440425282	0.444127805	0.170608116	0.609853447	0.579585231
0.128715252	0.299089351	0.202123241	0.621687923	0.626530485	0.624321341
0.146352209	0.137552446	0.095981085	0.61847236	0.616119656	0.615455822
0.877461091	0.480559388	0.405667764	0.170523734	0.575008154	0.5326234
0.86910797	0.082842269	0.074432239	0.162561257	0.6729093	0.659553489
0.413979301	0.877313143	0.475059818	0.56778112	0.170619891	0.606806093
0.448138722	0.435898197	0.877396132	0.575801972	0.542872463	0.17055938
0.866764206	0.866014677	0.088410645	0.159442039	0.162016796	0.619141589
0.862431999	0.844121377	0.133718348	0.154849618	0.147813119	0.567802425
0.869101704	0.098248612	0.080895391	0.162757566	0.667606026	0.654181238
0.87635893	0.877594368	0.877234795	0.170691106	0.170726336	0.170692156
0.078750405	0.869130033	0.093613514	0.659126968	0.16273945	0.670550514
0.877366644	0.448090487	0.435850917	0.170627993	0.575771496	0.542883383
0.142743059	0.826098355	0.149057463	0.576281891	0.119156844	0.605707635
0.459729607	0.429750311	0.877844869	0.559882396	0.524399761	0.170741239
0.862058878	0.842840228	0.133729494	0.15479989	0.147574396	0.567672006
0.102154772	0.841676384	0.083407694	0.606154055	0.134774193	0.631108023
0.059982586	0.060038777	0.059965809	0.639959889	0.640157011	0.639785618
0.826329629	0.148692318	0.130969668	0.119270669	0.602084044	0.574649656
0.862295006	0.863372768	0.86328792	0.219153927	0.219122572	0.219500952
0.48090037	0.405770857	0.877521678	0.574780473	0.532328637	0.17056226
0.878095098	0.481201239	0.410407204	0.170663677	0.559462325	0.517374555
0.446648876	0.877315433	0.445433907	0.577580117	0.170571667	0.60782711
0.876968534	0.480764105	0.401165493	0.170264684	0.589615076	0.547572642
0.425661375	0.877445475	0.459156218	0.539364477	0.170655565	0.575432455
0.855990427	0.107572708	0.865041878	0.155126361	0.593664413	0.157049779
0.876133431	0.882543389	0.040843963	0.171020909	0.17537573	0.692851397
0.421645659	0.876767792	0.458772453	0.554785417	0.170132358	0.59017672
0.84166434	0.124857552	0.103532476	0.135282806	0.623397977	0.598029306
0.462013312	0.415451072	0.877436932	0.626214172	0.589653848	0.170514488
0.149744468	0.133628082	0.826377362	0.603217951	0.57534267	0.119330163
0.867664203	0.8661178	0.077352691	0.160187734	0.161890786	0.622888633
0.866545439	0.095572798	0.867021302	0.162317534	0.617200105	0.159349604
0.877603586	0.473993103	0.482980486	0.170715098	0.561864007	0.532172176
0.099850926	0.080983683	0.869052305	0.66848727	0.656571507	0.162617992
0.046296582	0.049053601	0.052710674	0.657893668	0.658354707	0.660134681
0.083405691	0.102149265	0.84154558	0.63086575	0.605763202	0.134730389
0.068844714	0.071291609	0.855560916	0.650102225	0.62938871	0.149047111
0.871831371	0.875927153	0.075946485	0.164819271	0.169503076	0.650481325
0.137196712	0.862078164	0.844479483	0.566235779	0.154303591	0.148821344
0.059692401	0.039441019	0.079117498	0.679431263	0.679140922	0.679896996
0.041108084	0.040955874	0.881773	0.692697947	0.692893452	0.175272398
0.069794343	0.051530775	0.082355972	0.673448744	0.672532646	0.674937432
0.065230611	0.87233604	0.875429265	0.652811594	0.165096434	0.168623736
0.843663685	0.133799964	0.862438269	0.147898923	0.567762338	0.155075559
0.86884878	0.097507345	0.080388013	0.162767778	0.665889205	0.654268922
0.462447207	0.415881602	0.878301504	0.62610209	0.589855969	0.17060416
0.876392074	0.883464368	0.040856244	0.170624741	0.175887132	0.693074631
0.877417694	0.483559302	0.400300154	0.17054932	0.608628843	0.566025302
0.437955296	0.444884752	0.877407841	0.592712089	0.563218625	0.170332141
0.480700041	0.401351932	0.877377359	0.590161516	0.548029869	0.170482593
0.459128924	0.425633807	0.877397935	0.575903158	0.539708104	0.170581181
0.044562295	0.049209929	0.050718711	0.658106319	0.658454148	0.658464762
0.402535113	0.877257448	0.486210882	0.565352158	0.170569319	0.608305389
0.103514248	0.841280542	0.125182654	0.598207379	0.135220154	0.62333019
0.462148813	0.415591932	0.877713113	0.626338175	0.589669162	0.170549871
0.08153234	0.867643617	0.865662266	0.621365193	0.159823448	0.161658711
0.856099469	0.091284394	0.074246995	0.149297283	0.646094145	0.625523325
0.846193835	0.147491618	0.86063594	0.150935015	0.562832769	0.153234113
0.825612458	0.148998604	0.133445471	0.118912241	0.604574301	0.575822183
0.868073074	0.866446167	0.077441697	0.160207151	0.161811709	0.623096377
0.459429755	0.429439637	0.877230103	0.559907687	0.524372108	0.170619291
0.06005446	0.060017202	0.059905067	0.639765024	0.64037566	0.639944416
0.868944881	0.089952141	0.076403842	0.162671742	0.671465591	0.659239859
0.074412233	0.855483315	0.082205408	0.628133187	0.149405496	0.648136552
0.846486988	0.153886012	0.859561933	0.151260228	0.560806938	0.152210824
0.87855374	0.877427885	0.877192882	0.171086406	0.170572082	0.170380112
0.841796639	0.113736688	0.100192358	0.135155821	0.626209844	0.600819746
0.4462463	0.877347049	0.444389137	0.576456653	0.170558743	0.606936991
0.099661427	0.841636302	0.092683823	0.604589024	0.134789523	0.629833766
0.858977608	0.843781592	0.141755476	0.152982109	0.149248267	0.564526059
0.08553921	0.868987273	0.082304378	0.665344249	0.162512243	0.677373433
0.42570257	0.877324979	0.459026601	0.53939201	0.170669509	0.575558644
0.403057127	0.877392692	0.485611371	0.56474959	0.170534994	0.607399265
0.028018871	0.027748869	0.881189646	0.695023301	0.695717536	0.175200978
0.516680654	0.4965601	0.877876067	0.559538766	0.530653009	0.170615102
0.102984224	0.09925722	0.841508523	0.62770842	0.602603981	0.134968381
0.068961681	0.071335824	0.855269345	0.649829786	0.629521714	0.149185187
0.877430679	0.45042049	0.426995735	0.170495217	0.626367206	0.593213242
0.448789571	0.439586793	0.87745317	0.559755923	0.527858679	0.170576249
0.432580947	0.877383139	0.448022917	0.558249027	0.170434243	0.59093115
0.070439353	0.071588262	0.07423676	0.650166916	0.649920069	0.650528702
0.123101712	0.863897594	0.856841452	0.588349265	0.155610187	0.156788993
0.040858825	0.876460919	0.883305841	0.693118082	0.170553569	0.175779255
0.445265731	0.877377573	0.438023201	0.562849978	0.170464075	0.592560514
0.873357406	0.05536793	0.870847857	0.168351499	0.654928561	0.164357523
0.153908435	0.859563466	0.84680654	0.560905764	0.152423875	0.151606708
0.039790081	0.046524583	0.073586355	0.677375166	0.676643373	0.677828822
0.438455588	0.444576757	0.877685775	0.592950002	0.563361645	0.170546868
0.438743392	0.877517667	0.438748097	0.596412763	0.170805808	0.626494377
0.208639996	0.825981045	0.208376642	0.578079937	0.118905945	0.608131176
0.877550121	0.450480853	0.427054609	0.170591432	0.626399445	0.593174655
0.013757618	0.014108035	0.013984277	0.697136249	0.696756156	0.696369274
0.00000549	0.875044904	0.883415923	0.69941096	0.169712567	0.175518354
0.100449585	0.128118278	0.167813227	0.616742352	0.621654725	0.618918245
0.1000491	0.081394973	0.869233217	0.66874286	0.657717251	0.16261135
0.099730457	0.841751185	0.092683647	0.604333019	0.134819645	0.62976711
0.082693235	0.080069567	0.86878314	0.675360015	0.663754617	0.16258602
0.877352213	0.437238592	0.444145766	0.170331256	0.59146319	0.561981006
0.153946953	0.859692248	0.846973411	0.560826256	0.152693255	0.151793158
0.859751073	0.845975255	0.153942246	0.151589363	0.15076413	0.561012088
0.845180723	0.141820922	0.860393014	0.149686377	0.564550965	0.153605922
0.09965059	0.841763347	0.092637089	0.604339517	0.134838971	0.629761133
0.060062377	0.060024736	0.059909603	0.639850699	0.640183631	0.640208529
0.877355938	0.483937078	0.399908775	0.170490164	0.60820932	0.565465855
0.856434516	0.116701759	0.864445191	0.155906582	0.59023592	0.156219957
0.861844836	0.862580519	0.863505321	0.219494487	0.219150008	0.219445568
0.866083635	0.081494802	0.867710783	0.162123132	0.621635876	0.159905406
0.877506001	0.480627527	0.405717151	0.170563171	0.575198465	0.532849081
0.877473424	0.480837806	0.410166463	0.170443574	0.559328531	0.517587116
0.877535946	0.459663366	0.429515255	0.170569266	0.559614871	0.524553021
0.055373053	0.871598819	0.874565027	0.654901729	0.164606995	0.168419585
0.01391758	0.014337546	0.013888896	0.697007314	0.697429533	0.697448364
0.870137606	0.873820528	0.075966405	0.164368873	0.168393513	0.650472239
0.074787616	0.074932117	0.075023357	0.634096908	0.634380812	0.634449281
0.87484453	0.047219024	0.871627664	0.168393935	0.656950102	0.164811505
0.24095915	0.249020216	0.825519173	0.61029408	0.580912726	0.118443483
0.877393925	0.484755216	0.39288991	0.170579287	0.625304392	0.582581499
0.877028901	0.884078715	0.054268124	0.171550472	0.175178502	0.690432359
0.041012063	0.882104975	0.041664803	0.692781763	0.17573488	0.692050784
0.874704683	0.883718279	0.0000055	0.170689862	0.175393229	0.699300694
0.137194358	0.860793288	0.844420615	0.566396905	0.154080593	0.148879944
0.87733328	0.458970595	0.425611487	0.170586551	0.575637327	0.539618603
0.88156498	0.028060776	0.027593702	0.175345823	0.694995194	0.695398319
0.103138467	0.099064029	0.841632562	0.627698703	0.602571823	0.134958843
0.884139574	0.040849562	0.876709955	0.17509531	0.692883661	0.171149465
0.826210433	0.200610384	0.206883735	0.119105605	0.609843939	0.577314718
0.448146851	0.435898252	0.877402431	0.575800609	0.542870828	0.170559904
0.121767842	0.111923729	0.141373669	0.615406443	0.615005602	0.615989339
0.47004184	0.411744073	0.877681208	0.590655032	0.551446459	0.170681967
0.01469821	0.880868556	0.014848051	0.697269566	0.1753501	0.696765086
0.081675098	0.079168971	0.868874792	0.675761304	0.663961559	0.162575792
0.871137138	0.874540057	0.075957249	0.16439527	0.168132417	0.650383845
0.877296809	0.438637738	0.438632994	0.170319573	0.626574595	0.596422373
0.080058381	0.855815809	0.104245987	0.623386014	0.149617281	0.643792236
0.40591739	0.877344248	0.480603289	0.532755249	0.170553992	0.575083579
0.868942377	0.0978564	0.080739876	0.162772649	0.666500293	0.653983689
0.877269278	0.459110594	0.422075238	0.170353671	0.59076821	0.554955056
0.083904005	0.306004217	0.282515843	0.619703206	0.619610739	0.618982329
0.841762129	0.092664746	0.099668292	0.134792869	0.629609505	0.604318569
0.027322062	0.87647071	0.882943163	0.695106392	0.17073209	0.17527932
0.450299275	0.426866648	0.877180699	0.626373734	0.593230601	0.17027584
0.459043713	0.425636131	0.877323227	0.575690076	0.539505866	0.17059069
0.125640034	0.297176038	0.203892558	0.621716587	0.627176823	0.624820722
0.874816426	0.873474151	0.874461495	0.188803777	0.188424414	0.188368767
0.860814107	0.84526945	0.141741546	0.153598398	0.149662165	0.564500099
0.040860407	0.876624762	0.88329616	0.693144691	0.170556247	0.175810055
0.079654734	0.868943722	0.088926358	0.661201804	0.162628983	0.670818082
0.842646942	0.133815536	0.862658739	0.148321178	0.567732935	0.155457899
0.111413521	0.864097138	0.855802663	0.592068199	0.156325148	0.155236723
0.846465056	0.153970488	0.85864742	0.150901993	0.560869506	0.151606914
0.08340921	0.102157264	0.841441195	0.630746212	0.605838555	0.134752012
0.076000695	0.871374445	0.874564401	0.650507102	0.164309137	0.168706896
0.434940445	0.877527436	0.454865946	0.574536723	0.170565397	0.607935303
0.081506971	0.869235999	0.099475785	0.656671419	0.16266005	0.669373616
0.086303679	0.868945627	0.083100657	0.665105052	0.162493864	0.677419103
0.00000492	0.00000475	0.881783166	0.699344939	0.699152637	0.175354633
0.084952813	0.868985941	0.081628098	0.665400375	0.162544263	0.67736532
0.111441864	0.864369642	0.855798532	0.592108473	0.156139674	0.155310199
0.866146711	0.087724461	0.867874166	0.162046796	0.619312203	0.159436701
0.866760225	0.095552703	0.866834004	0.162313053	0.617402922	0.159348852
0.87429531	0.055394041	0.872150708	0.168588326	0.655142733	0.164754252
0.854993308	0.123113637	0.861844242	0.156035999	0.588454798	0.154975815
0.210651386	0.826220654	0.212428513	0.580048319	0.119335351	0.610140181
0.877473004	0.447945049	0.433019769	0.170716378	0.590647326	0.557716957
0.041543385	0.882123796	0.041500725	0.69262927	0.175505348	0.692131186
0.100406278	0.841794321	0.113982222	0.600962072	0.135029637	0.625955203
0.041110525	0.881973701	0.041565621	0.692762243	0.175064383	0.693012999
0.873434953	0.874178537	0.874054621	0.188376588	0.189076722	0.188445247
0.876958478	0.459373182	0.429236746	0.170722141	0.559787191	0.524474641
0.074855364	0.074914962	0.075090324	0.634147862	0.63438691	0.634424236
0.00000278	0.00000292	0.00000283	0.699257245	0.699342765	0.699525499
0.14743446	0.860492965	0.845784948	0.562686427	0.15311801	0.150822832
0.85553507	0.102841139	0.079019628	0.149241269	0.643383296	0.623653574
0.876760846	0.884494515	0.054276059	0.170906816	0.17566241	0.690523559
0.825975345	0.188359049	0.192859447	0.118517328	0.613071145	0.580509773
0.875063101	0.049195145	0.873427489	0.168400966	0.659172102	0.165292002
0.099676221	0.841761022	0.092649084	0.604335914	0.134833716	0.629764631
0.446048127	0.877354986	0.444521762	0.576445091	0.170561486	0.606946174
0.074779556	0.856000355	0.091414744	0.625872833	0.149370154	0.645679993
0.039661892	0.046690159	0.073605978	0.676561406	0.677074926	0.67712187
0.862356675	0.844017284	0.133716944	0.154865379	0.147815693	0.567804223
0.081426816	0.869151316	0.099213547	0.656811328	0.162676341	0.669421366
0.074867466	0.856205645	0.091443565	0.625630912	0.149815786	0.645907516
0.10218494	0.841626914	0.083445182	0.606176943	0.134772373	0.631172292
0.113801529	0.100318182	0.841440518	0.626134187	0.60067883	0.134991027
0.085774756	0.869098103	0.082325248	0.664652101	0.162350049	0.677173606
0.845558587	0.141806979	0.861642541	0.149979008	0.56454721	0.154157603
0.102223679	0.841270177	0.083369107	0.60582012	0.134785308	0.631356865
0.068879968	0.071233905	0.855067163	0.649906047	0.629578739	0.148854793
0.868882002	0.080918433	0.077576568	0.162621313	0.6729709	0.661588366
0.459501329	0.429494021	0.877354763	0.559888659	0.524404951	0.170741232
0.841618784	0.124937687	0.103876846	0.135297718	0.623276594	0.597901127
0.866459629	0.095450101	0.86738459	0.162356507	0.617200244	0.159458913
0.415647906	0.87741159	0.469938899	0.536202511	0.170574441	0.575466267
0.875083739	0.076026475	0.870988327	0.16851308	0.650494774	0.164537898
0.459559373	0.429652663	0.877572935	0.559819473	0.5243914	0.170626322
0.067656103	0.067586387	0.067858549	0.636299205	0.636299936	0.636647744
0.868928367	0.090856562	0.07772264	0.1626893	0.67136259	0.659342216
0.8550807	0.111467431	0.864503952	0.155424739	0.59213824	0.156817874
0.877748397	0.484928477	0.393070881	0.170743234	0.625202279	0.582635332
0.429704046	0.877645535	0.459585946	0.524387869	0.170741591	0.559898393
0.86024082	0.84598279	0.147431104	0.153208564	0.150868548	0.562529934
0.081472053	0.856006288	0.068641927	0.633491798	0.149113795	0.654441614
0.87285251	0.87414729	0.87207783	0.188565103	0.189077552	0.188791132
0.028077807	0.028186444	0.881396492	0.694758756	0.695225659	0.174858659
0.276661991	0.285260707	0.825774884	0.611535747	0.581188988	0.118609457
0.871305426	0.875551198	0.047508619	0.165281271	0.169164861	0.657102013
0.46202871	0.415475477	0.877476367	0.626324435	0.589643343	0.170635005
0.081765658	0.867297957	0.866246161	0.621039866	0.159657441	0.161835395
0.085724923	0.869317575	0.083188343	0.665442706	0.162480628	0.67755868
0.48056434	0.409983669	0.877004074	0.559210415	0.517599327	0.170545655
0.469945685	0.415676435	0.877359557	0.575484215	0.536253075	0.170581422
0.881697933	0.041241395	0.040927644	0.175482373	0.692592247	0.692977027
0.459430837	0.42955615	0.877347097	0.559742402	0.524324898	0.170731022
0.072881014	0.854159801	0.071007915	0.629646034	0.149051773	0.649129958
0.415416564	0.877378558	0.461989136	0.589906622	0.17066808	0.626092196
0.127442887	0.11215864	0.145616156	0.616251962	0.614981442	0.616202593
0.857227628	0.13043967	0.862617167	0.156784903	0.586482978	0.154570281
0.02801956	0.02758294	0.028291929	0.695444198	0.694633548	0.695246041
0.877311121	0.437123735	0.444160542	0.170386509	0.591458684	0.56193489
0.415807047	0.877451493	0.469856733	0.536202594	0.170539177	0.575475398
0.066313209	0.078316377	0.855683973	0.653457679	0.633369823	0.149458323
0.873816422	0.047332296	0.870285044	0.168224217	0.65710283	0.164542504
0.459012872	0.425757505	0.877348242	0.575453151	0.539343818	0.170581695
0.078633843	0.868958778	0.087447365	0.662752048	0.162636769	0.671746783
0.877387338	0.469817125	0.415549641	0.170556696	0.575404563	0.536119921
0.864510178	0.854918064	0.107657176	0.156449487	0.154011928	0.593712158
0.22087015	0.218353	0.825305667	0.607285727	0.582647475	0.11885259
0.856822437	0.068764361	0.072125876	0.149582688	0.650196954	0.628835071
0.480834711	0.405825158	0.877458565	0.574737007	0.532197019	0.170543086
0.415562009	0.877660713	0.462125737	0.589695475	0.170692193	0.626230738
0.054275749	0.876358366	0.883984556	0.690535813	0.17103984	0.175571842
0.054292303	0.881273321	0.054642987	0.690203523	0.175431749	0.6899431
0.074816342	0.856139269	0.091183781	0.625716821	0.149973701	0.64551451
0.877253708	0.450331955	0.426907341	0.1704875	0.62640344	0.593190389
0.448141791	0.435887787	0.877387734	0.575766531	0.54283483	0.17056587
0.867389512	0.865742614	0.081843881	0.159859749	0.161518813	0.62093572
0.0000028	0.00000296	0.00000283	0.699215028	0.699193933	0.699517431
0.856210419	0.091292827	0.074074328	0.149469895	0.645674147	0.625926345
0.045547273	0.048294849	0.054007518	0.655668057	0.656924633	0.656416098
0.087883287	0.867113941	0.866125914	0.619836854	0.159487503	0.162075159
0.075992852	0.871616196	0.874944014	0.650503285	0.164430343	0.168736462
0.41134662	0.876890086	0.469632968	0.551426239	0.170443524	0.590427467
0.877313465	0.469703331	0.41555645	0.170591675	0.575333728	0.536071496
0.877352923	0.483941273	0.399897122	0.170490488	0.608211304	0.565465618
0.392981289	0.877544976	0.484815991	0.582359115	0.1706839	0.625370659
0.220080819	0.219966885	0.82507216	0.60588359	0.579759129	0.119048575
0.873289702	0.055387508	0.87142217	0.168625469	0.654793181	0.164541318
0.861487037	0.846872054	0.147406443	0.153309465	0.150840607	0.56279109
0.864884963	0.077028331	0.867306928	0.160968915	0.622745531	0.159839139
0.040864022	0.875110014	0.883176863	0.693187839	0.169754753	0.175134549
0.165280397	0.152624642	0.095219894	0.617569154	0.617093196	0.615710175
0.821311978	0.823487494	0.821049203	0.297723779	0.298732094	0.297753909
0.103186483	0.078868207	0.856357117	0.643725999	0.623481795	0.149640284
0.079723174	0.071556696	0.855601866	0.648155466	0.627212434	0.149082602
0.437076453	0.446321206	0.877330166	0.575806146	0.546033273	0.170575169
0.027328063	0.88166653	0.027655281	0.695283659	0.175123042	0.694452569
0.068844931	0.071291398	0.85556286	0.6501026	0.629390873	0.149046454
0.124583453	0.103186063	0.841570217	0.624049074	0.598333008	0.135129037
0.869098693	0.090140661	0.076153884	0.162674445	0.671738462	0.659735144
0.877320769	0.448128856	0.435779827	0.170582044	0.575637893	0.542754975
0.846232729	0.147487766	0.86140478	0.150574349	0.562880708	0.152859188
0.861087154	0.842547749	0.133719184	0.154857099	0.147796469	0.567792565
0.863708019	0.863021368	0.863840082	0.219537788	0.21919845	0.219613934
0.859379836	0.845332099	0.154021278	0.152276535	0.151299574	0.560764793
0.027767776	0.027723909	0.028288309	0.695337672	0.694779549	0.69532812
0.429853406	0.877965537	0.459756102	0.524459913	0.170879409	0.559752519
0.058677188	0.038208272	0.076971603	0.679519212	0.67889726	0.68018737
0.874058272	0.047332901	0.870756157	0.168278951	0.657090423	0.164551426
0.878021324	0.437596428	0.444563849	0.170658114	0.591114038	0.56155866
0.86708475	0.103994489	0.86662806	0.162813774	0.615312438	0.159195382
0.070830617	0.065207053	0.085823741	0.670045931	0.670777737	0.671912796
0.081693972	0.079081165	0.868812289	0.675192039	0.663328484	0.162564126
0.877405246	0.461999008	0.415433378	0.170568428	0.626139735	0.589750358
0.877482301	0.480870973	0.410140343	0.170456317	0.55933654	0.517519409
0.87779929	0.470425609	0.419883778	0.170660031	0.55957215	0.520927786
0.065209874	0.871682903	0.875367538	0.652775974	0.164427337	0.168663477
0.422102054	0.877729192	0.459279456	0.55484836	0.170817832	0.591123272
0.153950186	0.860064985	0.846137519	0.560883311	0.152688495	0.151870255
0.882622606	0.027563566	0.027415366	0.175409458	0.694908257	0.694812402
0.409979197	0.877192195	0.480742826	0.517559834	0.170496475	0.559381454
0.874466654	0.076020039	0.870429014	0.16878824	0.65054009	0.164563668
0.402146739	0.877306146	0.486661319	0.565366266	0.170558515	0.608299081
0.844730114	0.141724404	0.86087407	0.149597546	0.564646202	0.153614313
0.470171025	0.411997807	0.878112043	0.590533343	0.551751017	0.170280779
0.028074675	0.028085891	0.881415309	0.694775837	0.695288714	0.174876971
0.439038145	0.878107166	0.439042869	0.596310149	0.171215291	0.626726083
0.84598422	0.847126065	0.846218495	0.256526143	0.256866452	0.257119724
0.873247296	0.874748122	0.874630323	0.188200479	0.189255792	0.189289534
0.013708647	0.8771481	0.884263178	0.697377628	0.171077635	0.175319701
0.103162228	0.09918693	0.841636735	0.627698383	0.60256372	0.134966784
0.856718405	0.130382714	0.862579972	0.156302255	0.586400668	0.154377536
0.866848681	0.866056543	0.088296091	0.159376454	0.161903368	0.619731028
0.46578927	0.424556063	0.877380631	0.60883374	0.572187485	0.170599837
0.877194882	0.437535922	0.443796841	0.170651403	0.591446517	0.561788192
0.480735376	0.401422671	0.877472806	0.590028503	0.548234185	0.170533538
0.883495227	0.054271907	0.875788709	0.175047948	0.690487928	0.170669552
0.051913573	0.0540861	0.058987351	0.654195377	0.654467425	0.653638663
0.863112971	0.863590866	0.863012753	0.218671178	0.219172474	0.219070901
0.124636851	0.103187018	0.841620384	0.62410365	0.598420172	0.135109891
0.87734892	0.459010499	0.425596633	0.170580336	0.575609344	0.539612727
0.081855472	0.855908211	0.068818297	0.633561378	0.148942011	0.654101568
0.426971208	0.877378082	0.450392006	0.592996254	0.170802146	0.626549176
0.092688201	0.099613283	0.841395189	0.629571985	0.604401377	0.134829167
0.877600243	0.473999727	0.482783109	0.170713029	0.561868682	0.5321682
0.8814833	0.00000485	0.00000486	0.175359941	0.69928216	0.699758591
0.401606	0.877596059	0.480732904	0.548226	0.170460655	0.589948496
0.124289796	0.295376948	0.203778384	0.623081726	0.628362082	0.623339884
0.869115659	0.090575669	0.075876446	0.162673512	0.671737044	0.659719754
0.045464938	0.04863973	0.051259009	0.657278106	0.658234196	0.659023753
0.041606115	0.041101486	0.042194769	0.693207005	0.691982522	0.693000038
0.884330533	0.040848398	0.875531355	0.175573641	0.692884965	0.170480551
0.85500723	0.111447066	0.86461891	0.154695874	0.592183157	0.155723447
0.054618946	0.054242833	0.881716793	0.689866921	0.690260414	0.175426075
0.874235735	0.050046226	0.872335717	0.168277703	0.658821866	0.164982989
0.099237857	0.841896684	0.103063272	0.602345377	0.134894107	0.627684233
0.87771406	0.470385405	0.419835598	0.170664151	0.559591592	0.520951713
0.87696925	0.480763542	0.401167723	0.170259966	0.589615045	0.547572003
0.04197873	0.041051529	0.042521872	0.692800207	0.691725718	0.692364831
0.860526115	0.845929453	0.147428587	0.153218867	0.150883403	0.56253072
0.878017514	0.470451637	0.420085082	0.170937402	0.559678588	0.521083858
0.027832645	0.027700565	0.028382304	0.695462412	0.695188609	0.695000238
0.878010921	0.470450645	0.420079488	0.170939157	0.559678909	0.521083615
0.141824676	0.861050908	0.844043083	0.564497744	0.153352912	0.149341347
0.826145645	0.179932578	0.195011905	0.118915679	0.610275795	0.579800784
0.822561494	0.823388928	0.823756385	0.297838974	0.298790463	0.298308449
0.882410435	0.054472363	0.054132615	0.17566305	0.690026836	0.690495144
0.00000278	0.00000285	0.00000281	0.699182496	0.699031889	0.699471384
0.872937543	0.87410134	0.873289408	0.188548366	0.189306639	0.189012411
0.877931708	0.47044268	0.42000712	0.170952329	0.559676824	0.521086016
0.865602192	0.081484095	0.86759298	0.161408971	0.621125838	0.159721495
0.44813782	0.43590076	0.877402458	0.57581421	0.542881297	0.1705548
0.103236225	0.078837943	0.856479317	0.64384483	0.623361736	0.149608112
0.459143537	0.422181535	0.877762002	0.590882398	0.554985648	0.170869599
0.12311564	0.863377129	0.857348843	0.58835442	0.155189781	0.156392086
0.884179316	0.013709242	0.876429137	0.175856252	0.697525119	0.170889527
0.432582257	0.877385472	0.448034979	0.558222329	0.170524923	0.590908599
0.481090611	0.410347593	0.877921625	0.559276429	0.517682218	0.170485527
0.871905309	0.875442298	0.05533228	0.165289139	0.1690438	0.654923927
0.014208345	0.88110991	0.014532828	0.697222166	0.175308526	0.697672496
0.87765475	0.484879951	0.393026693	0.170780564	0.625254387	0.582627524
0.861781937	0.862375042	0.863565759	0.218821517	0.21913048	0.219124834
0.884217258	0.0000055	0.876427917	0.175482345	0.699308805	0.171187285
0.153955062	0.860052488	0.845928551	0.560894849	0.152626065	0.151814673
0.393149159	0.877915217	0.485016078	0.582634645	0.17087709	0.625231124
0.877462744	0.480557922	0.405679108	0.17052334	0.57500682	0.532622856
0.075987343	0.871065716	0.873990658	0.650518321	0.164543807	0.16870761
0.04115539	0.881504013	0.041771469	0.69302109	0.175438023	0.692573594
0.446912072	0.877365088	0.444139902	0.576607571	0.170544458	0.6069941
0.877430993	0.480825912	0.410140539	0.170570977	0.559408671	0.517405698
0.841765719	0.11369076	0.100372374	0.13508052	0.626156998	0.60070814
0.13011679	0.108378299	0.151309881	0.615436985	0.613341067	0.614731961
0.846945702	0.15392397	0.85874728	0.151521969	0.56095588	0.152108484
0.882179795	0.027711093	0.027330572	0.175398144	0.695151008	0.695201031
0.00000549	0.876404865	0.884084602	0.699146535	0.170839138	0.175512696
0.877505585	0.473495544	0.404121562	0.170605366	0.625762467	0.5860663
0.099392331	0.135204546	0.177198842	0.618350344	0.618706333	0.620398194
0.867351651	0.86570937	0.081977288	0.159821546	0.161522693	0.620937105
0.882299042	0.02783026	0.027685622	0.175406469	0.695068082	0.695041769
0.153945555	0.859897669	0.846894016	0.560828032	0.152717012	0.151818678
0.480871975	0.401571977	0.877763694	0.590263669	0.548123604	0.170449227
0.437067741	0.446306842	0.877305788	0.575698004	0.545992456	0.170575916
0.013760979	0.013984882	0.013921222	0.697180946	0.697237255	0.697502213
0.060005221	0.060043934	0.059943774	0.63999884	0.640143958	0.64021456
0.872087045	0.874081377	0.047766431	0.165116715	0.168145008	0.658665088
0.074820434	0.074934931	0.075104038	0.63408177	0.634363081	0.634607241
0.028492684	0.028045225	0.882068555	0.694948021	0.695038701	0.174917571
0.877542199	0.470269507	0.419789447	0.170677972	0.559728838	0.520944657
0.081513234	0.85546314	0.067293986	0.63086202	0.148906261	0.652153388
0.856369066	0.068675798	0.072113021	0.14939798	0.649758538	0.628649263
0.081811287	0.867115814	0.866220025	0.621086603	0.159840407	0.161954101
0.054612839	0.055150866	0.054636053	0.690247036	0.690165484	0.690215874
0.871172465	0.874649338	0.055341295	0.164180033	0.168228485	0.654904016
0.058714689	0.038367379	0.077173552	0.679612669	0.678962388	0.680218941
0.39307738	0.877773976	0.48494642	0.582644665	0.170830437	0.625174867
0.102244261	0.841277111	0.083358532	0.605912085	0.13481185	0.631299694
0.877180919	0.450295218	0.426871343	0.170455011	0.626410597	0.593208407
0.448141344	0.435901454	0.877408033	0.575818949	0.542883846	0.170554094
0.045572549	0.048403389	0.051831586	0.657699971	0.65820891	0.659120235
0.133730785	0.861846092	0.843992133	0.567832045	0.155188454	0.148151774
0.081454628	0.869176302	0.099305432	0.656771527	0.162670903	0.669415914
0.84174016	0.113820412	0.100393409	0.135061661	0.62616209	0.600672858
0.091206043	0.077600985	0.86885932	0.667985883	0.657347503	0.16257239
0.480984872	0.410224696	0.877690947	0.559327215	0.51771632	0.170464921
0.477050294	0.41251291	0.877399361	0.60907814	0.568652558	0.170565657
0.860593153	0.844509785	0.147496011	0.153089087	0.150646993	0.562894285
0.869020667	0.083244308	0.075629861	0.162668437	0.674411971	0.660963127
0.875473596	0.075996948	0.871304627	0.168839637	0.650443636	0.164371149
0.856822305	0.06871377	0.072084285	0.149455337	0.650150025	0.628625939
0.054289332	0.881580778	0.054645623	0.690440816	0.175344363	0.689996279
0.062515385	0.062502207	0.062454737	0.638405178	0.638464586	0.638561706
0.062496448	0.062480889	0.062420622	0.638304979	0.638315827	0.638486099
0.874105951	0.051576969	0.871819276	0.168324014	0.65902083	0.16507306
0.841525356	0.102919917	0.099029286	0.134978068	0.627865767	0.602822167
0.252636147	0.237696956	0.826786379	0.605400065	0.580542363	0.118988776
0.075958964	0.871373137	0.874605673	0.650520313	0.16446334	0.168489263
0.447820954	0.432529189	0.877209732	0.590783043	0.558449488	0.170227114
0.439673938	0.877579696	0.448822608	0.527486107	0.170756106	0.559986669
0.05910151	0.038520166	0.077665965	0.67978064	0.679094346	0.680158258
0.883146798	0.040856553	0.87621036	0.174946843	0.693003993	0.170645245
0.411612363	0.877537084	0.469994094	0.551575804	0.170518644	0.590518424
0.85607431	0.116696578	0.863410493	0.155370326	0.590448939	0.155258788
0.415738984	0.878018508	0.462306198	0.589661794	0.170776963	0.62617188
0.401707532	0.877679761	0.480727317	0.548249204	0.170439592	0.589959174
0.877380457	0.469802783	0.415552353	0.170601096	0.57554635	0.536203861
0.871325548	0.874432627	0.075955132	0.164381855	0.168079096	0.650421581
0.081865058	0.867104582	0.866220804	0.621090099	0.159899668	0.161965034
0.825179273	0.823154524	0.823905434	0.298329544	0.298480087	0.297319835
0.884477602	0.0000055	0.875385661	0.175160034	0.699411834	0.170044173
0.871907527	0.874365047	0.047225646	0.164843363	0.168069541	0.657100491
0.039822085	0.046472911	0.073564896	0.677410289	0.676643853	0.677873775
0.027775165	0.027572605	0.881259521	0.694991498	0.695682342	0.175198816
0.095451671	0.866023047	0.866194364	0.617632135	0.158956225	0.162163287
0.878137584	0.481459952	0.401743669	0.170887154	0.589944055	0.547787667
0.079825582	0.868955496	0.093834438	0.659266293	0.162665553	0.670389233
0.865811373	0.076991731	0.867066718	0.161107461	0.622956219	0.159474626
0.438802997	0.438798297	0.877627426	0.626687668	0.596321928	0.170723177
0.877686159	0.470317569	0.419885207	0.170739571	0.559639848	0.520957198
0.071161692	0.065091952	0.08592492	0.669999725	0.670823497	0.671847471
0.480602516	0.405740133	0.877302896	0.575115172	0.532621353	0.170521975
0.450499489	0.427070833	0.877584951	0.626524326	0.593077185	0.170506285
0.473345471	0.403953159	0.87718723	0.626007267	0.586110361	0.170473676
0.081795386	0.867727875	0.866205633	0.62133926	0.160015531	0.16158098
0.054305013	0.881375984	0.054603874	0.691056623	0.175438286	0.690035378
0.081717244	0.079076103	0.868854108	0.675187349	0.663269803	0.162556304
0.43865506	0.438650337	0.877331513	0.626616862	0.596452696	0.170673469
0.866455735	0.08151214	0.868028426	0.161925032	0.621679742	0.159887207
0.862246877	0.855564513	0.123151167	0.155172222	0.156023159	0.588547714
0.459662661	0.429653556	0.877680064	0.559875116	0.524422696	0.17075055
0.859926329	0.845974114	0.147398912	0.153247252	0.150940251	0.562622194
0.856904863	0.130470004	0.863502671	0.156572591	0.5864338	0.154504946
0.881399419	0.041219963	0.040821381	0.175406625	0.692529261	0.693121023
0.82605901	0.221410861	0.222049792	0.11880452	0.610641366	0.583242557
0.448142577	0.435900537	0.877407055	0.575820037	0.542883622	0.170553977
0.855855725	0.116707745	0.864301343	0.155788174	0.590208773	0.156066829
0.863879275	0.85643076	0.123150404	0.155174457	0.155983092	0.588574841
0.480831751	0.405892169	0.877544476	0.574789245	0.532306197	0.170547584
0.147396968	0.859891724	0.845287697	0.56281375	0.152465744	0.15036681
0.846362461	0.147445792	0.858818596	0.150321614	0.562651635	0.152730976
0.260914626	0.252153477	0.825312671	0.610828909	0.582126012	0.118601162
0.392920864	0.877426924	0.48475856	0.582440119	0.170484022	0.625286503
0.410338824	0.877683962	0.480880321	0.517468143	0.170556146	0.559455253
0.039836737	0.046458042	0.073561707	0.677460101	0.676646624	0.677940295
0.87712616	0.461864493	0.415288467	0.170542526	0.626135124	0.58990091
0.867408728	0.865951358	0.081930117	0.15984658	0.161636072	0.621194761
0.095391083	0.866759695	0.865568438	0.617421683	0.159279733	0.162169967
0.060044575	0.060042134	0.059937354	0.63982837	0.640159505	0.639947796
0.067658742	0.06759437	0.067870811	0.636430618	0.63632914	0.636717453
0.875459306	0.883749146	0.054271037	0.170723317	0.175467682	0.690436621
0.083419202	0.102158243	0.841552389	0.630766441	0.605921384	0.134731385
0.864364889	0.853962926	0.107693688	0.156483872	0.154035783	0.593691927
0.877485556	0.480503542	0.405824764	0.170591697	0.575397019	0.532974551
0.821621521	0.823484182	0.821331795	0.297799678	0.298728772	0.297886079
0.846431626	0.15392226	0.859614217	0.151256559	0.560808781	0.152197564
0.825638812	0.278599022	0.288521652	0.118303079	0.61067843	0.58341626
0.444591532	0.877365793	0.438547906	0.561810904	0.17041008	0.591289816
0.065236171	0.872463069	0.875597409	0.652824783	0.165130979	0.168617746
0.00000483	0.00000492	0.881697881	0.699277796	0.699183154	0.175245413
0.480626235	0.405712979	0.877293502	0.574990864	0.532510069	0.170525054
0.442896891	0.448499438	0.877365998	0.606547034	0.57664613	0.17059617
0.875519013	0.04728987	0.871982918	0.168493362	0.656787313	0.164785112
0.07885014	0.868936761	0.088243358	0.660319924	0.162619559	0.670631454
0.874759526	0.047290478	0.871744796	0.168467042	0.656723941	0.164677579
0.081907186	0.855978725	0.067941802	0.631401158	0.149102038	0.652662582
0.436237047	0.877314714	0.454186717	0.576362883	0.170561449	0.60979097
0.027615358	0.027692829	0.02809648	0.694983126	0.695095469	0.69571557
0.00000549	0.875592668	0.884696076	0.699297367	0.170066741	0.175671068
0.276607598	0.301229753	0.825879665	0.614635505	0.585072772	0.118610524
0.881184775	0.027810371	0.027649759	0.175463166	0.694663324	0.69539606
0.446053681	0.877351178	0.444511849	0.576450714	0.170560031	0.606943504
0.140244757	0.130970179	0.826392177	0.606187179	0.577595767	0.119335829
0.571897136	0.877213448	0.553650901	0.537568526	0.170437342	0.564608917
0.065243528	0.871549973	0.874254171	0.652782986	0.164823174	0.168386799
0.86908038	0.098524778	0.081668572	0.162769143	0.668588539	0.654850317
0.095632772	0.866407983	0.866752265	0.617430966	0.158961366	0.16229515
0.079747256	0.071489496	0.85576786	0.648222196	0.627149581	0.149240912
0.238513285	0.245788701	0.826258857	0.608389406	0.582144271	0.118977235
0.854991641	0.111427593	0.864174117	0.154655067	0.592254434	0.15565637
0.470136466	0.419601677	0.877222178	0.559661673	0.521055165	0.170766342
0.141754035	0.860634109	0.846032441	0.56453372	0.153547808	0.149726831
0.87734131	0.462389263	0.420965249	0.170608704	0.609453239	0.572806407
0.878364149	0.877362404	0.878853679	0.170874264	0.170538421	0.170980659
0.041030874	0.882102789	0.041655971	0.69277504	0.175726765	0.692052386
0.872689477	0.874756625	0.055333729	0.16563756	0.168740324	0.654748256
0.882434627	0.0000055	0.874711961	0.174661637	0.699369076	0.170138739
0.874309319	0.049888599	0.871933686	0.168243579	0.658824426	0.164959888
0.877463844	0.473491175	0.410281164	0.170583751	0.609303049	0.569484149
0.041102301	0.040959375	0.881754062	0.692653357	0.692945854	0.175250773
0.874579076	0.873532596	0.876253177	0.188807052	0.188568876	0.18871085
0.413986902	0.877429893	0.475845689	0.566299526	0.170648688	0.605562636
0.410282363	0.877927724	0.481148874	0.517503684	0.170764316	0.559442719
0.079774291	0.071506573	0.855761304	0.647820176	0.627337816	0.149396306
0.405803618	0.877306163	0.480612696	0.532743515	0.170544834	0.575077843
0.875550079	0.884126893	0.027331069	0.17034826	0.175485465	0.695381353
0.425686072	0.877444626	0.459157367	0.539374222	0.170594087	0.575451709
0.873823603	0.076035021	0.870779219	0.168457696	0.650502003	0.164736245
0.859975697	0.844578717	0.141759833	0.152991292	0.14932181	0.564556009
0.055354209	0.872879703	0.873999217	0.654784982	0.165411116	0.168845662
0.874225925	0.05542058	0.872334265	0.168720276	0.655075802	0.164840088
0.874799205	0.047224116	0.871564799	0.168384298	0.656936266	0.164808882
0.099511942	0.081009105	0.869046519	0.668443999	0.656542561	0.162615987
0.111397664	0.864904307	0.855815226	0.592204846	0.156287046	0.155364039
0.821943638	0.823809544	0.823681818	0.298607832	0.298976074	0.29993849
0.8688685	0.075389334	0.079008576	0.16252738	0.676635989	0.664507696
0.05461027	0.054173054	0.88200209	0.689957692	0.690609711	0.175672684
0.877457606	0.484790924	0.392917966	0.170778538	0.625290567	0.582679928
0.85580658	0.116675075	0.864128259	0.155539774	0.590239295	0.155795323
0.877482511	0.4736422	0.410137498	0.170564753	0.609302563	0.569464811
0.092071834	0.078968191	0.869337287	0.668217109	0.657086828	0.162652873
0.825955861	0.188175501	0.191908953	0.118480783	0.613007232	0.580728852
0.877405906	0.484029562	0.399902198	0.170586765	0.60873783	0.566088174
0.877474264	0.480537872	0.405758463	0.170592729	0.57528239	0.532902334
0.863817398	0.854547691	0.107663901	0.156265098	0.154194124	0.593789071
0.863190134	0.857673341	0.130339912	0.154696438	0.156825952	0.586460809
0.866501195	0.865732283	0.088134357	0.159253856	0.161831581	0.619561517
0.877687391	0.448846976	0.439758129	0.17072567	0.559976059	0.527673302
0.824938653	0.823042046	0.825041684	0.29855602	0.298585484	0.298174966
0.877608153	0.438793522	0.438788785	0.170857697	0.626589132	0.596438784
0.126293667	0.294699694	0.201250949	0.621490259	0.623751964	0.623736786
0.429666933	0.877636908	0.459616834	0.524450141	0.170866326	0.559789403
0.075982473	0.871579884	0.874622559	0.650510822	0.164618792	0.168518269
0.871729398	0.875619927	0.065170033	0.164879063	0.169144755	0.652723143
0.874930637	0.076047721	0.871485966	0.168504668	0.650489942	0.164619277
0.85630372	0.064662886	0.078314137	0.148955393	0.652783167	0.631683579
0.223297264	0.232792983	0.827063467	0.610665659	0.579049808	0.118924074
0.075995827	0.871543865	0.874764433	0.650500436	0.164426533	0.168736605
0.877322137	0.437160001	0.44412086	0.170431972	0.591520779	0.561949336
0.881999021	0.027324609	0.874580663	0.175408841	0.695204309	0.170638922
0.074768798	0.07494713	0.075133372	0.634158904	0.634389808	0.634564849
0.088007798	0.867292689	0.86532541	0.618995571	0.159647307	0.162142449
0.841384928	0.102926976	0.099018511	0.134979019	0.62762341	0.602635752
0.040800811	0.046510194	0.074772683	0.677569128	0.677591151	0.680415673
0.867342212	0.866493861	0.095378939	0.159481261	0.162605454	0.617410391
0.102853404	0.133208519	0.179823577	0.617661941	0.62104475	0.621614223
0.877316004	0.459022676	0.425550562	0.170591076	0.575629429	0.539605817
0.00000549	0.874547567	0.88263611	0.699311821	0.170320943	0.174833572
0.123113966	0.296196021	0.205962121	0.622880409	0.628151536	0.623350166
0.103518502	0.841348177	0.125191858	0.598524566	0.135285946	0.623385135
0.875779635	0.883142211	0.013706793	0.170383986	0.17528895	0.697328969
0.092152161	0.079919923	0.869324503	0.667925886	0.656963595	0.162694611
0.877599684	0.474000702	0.482756491	0.170712781	0.561869337	0.532167622
0.067651939	0.067634476	0.067915135	0.636333877	0.63630134	0.636673043
0.448166366	0.435880315	0.877399658	0.575795106	0.542823497	0.170558171
0.133745704	0.86200193	0.844360034	0.567774355	0.154847279	0.147858
0.855994087	0.102831539	0.078762547	0.149641343	0.643424649	0.623844832
0.092250037	0.079350835	0.869406188	0.668129776	0.657080038	0.162653693
0.849631015	0.847143498	0.847531575	0.257287965	0.257217287	0.25695239
0.876148197	0.884059466	0.027329724	0.170609937	0.175851777	0.695276954
0.877266225	0.44869245	0.4394746	0.170508066	0.559758901	0.527727864
0.082908086	0.29987881	0.280167551	0.620051305	0.617587623	0.618788523
0.882008293	0.027560719	0.027443494	0.175481425	0.694351783	0.694809489
0.876566375	0.882655272	0.013706656	0.171030685	0.17571175	0.697331051
0.841923753	0.092740302	0.099642779	0.134787091	0.629651218	0.604386442
0.841315674	0.102836409	0.099072461	0.134987394	0.627708338	0.602761359
0.872425869	0.874071098	0.075943275	0.165094346	0.168922909	0.65042677
0.081704784	0.301568332	0.287277773	0.619721008	0.618619343	0.618094756
0.102923863	0.078843058	0.855348766	0.643635478	0.623691834	0.149262865
