Va	Vb	Vc	Ia	Ib	Ic
0.41168487	0.877558858	0.4699453	0.551469664	0.170464695	0.590495817
0.877560779	0.469370822	0.483437732	0.170648744	0.559636127	0.531669761
0.841694618	0.113578439	0.100653097	0.135177824	0.625917904	0.600921144
0.826248127	0.215617577	0.23295528	0.118743356	0.610445994	0.582342163
0.045475986	0.048262198	0.05389702	0.655689968	0.656781094	0.655949068
0.869038525	0.082768977	0.07535696	0.162583781	0.673431618	0.659741151
0.8725782	0.873673422	0.047211842	0.165217697	0.168283783	0.656988242
0.439145462	0.443607591	0.87717821	0.591992047	0.561830949	0.17045776
0.877749782	0.480919924	0.410371947	0.170897997	0.559573459	0.517352294
0.278466884	0.285944539	0.825692497	0.612083487	0.58517451	0.118731242
0.444612049	0.877371184	0.438540631	0.561813373	0.17040663	0.59128154
0.424301777	0.87736433	0.464614732	0.57269051	0.170573072	0.609424009
0.877335836	0.458973036	0.425613978	0.170583304	0.575642198	0.539616567
0.480867002	0.410030606	0.877383451	0.559260703	0.517670485	0.17045152
0.104115063	0.866186963	0.866523685	0.615393442	0.159104843	0.162906207
0.876725462	0.448009407	0.432239098	0.170437102	0.590843918	0.558037503
0.415372263	0.877277403	0.461932582	0.58981018	0.170506061	0.626081942
0.855849306	0.123111765	0.862779495	0.155964761	0.588433428	0.155013417
0.07350653	0.855519286	0.082437708	0.627644093	0.149278143	0.647669266
0.014230464	0.881510222	0.014292025	0.697422201	0.175393042	0.696997722
0.857086554	0.123141473	0.863711598	0.156476208	0.588500726	0.155486973
0.881432318	0.00000483	0.00000491	0.175454093	0.698842102	0.699309876
0.419627066	0.877412968	0.470289335	0.521039607	0.170634841	0.55966141
0.458980216	0.425700735	0.87733691	0.575652065	0.539475121	0.170591855
0.859403115	0.844143259	0.141735033	0.152874967	0.148975993	0.564529246
0.141751444	0.860692151	0.844757218	0.56450433	0.153487848	0.14967484
0.045272623	0.871995544	0.874903722	0.659056948	0.165427582	0.168507057
0.133696213	0.862121986	0.84416359	0.567796829	0.155213157	0.14817758
0.877135973	0.48461957	0.392768182	0.170782324	0.6252289	0.582641034
0.041124509	0.040899657	0.881787629	0.692579547	0.693058271	0.17509865
0.874223496	0.049085896	0.872751352	0.168330273	0.659036119	0.165490915
0.877413432	0.450731225	0.432465591	0.170561278	0.609748536	0.576353672
0.856730281	0.091272211	0.07419161	0.149368546	0.645840961	0.625593749
0.484978982	0.393134571	0.877861362	0.625171437	0.582583426	0.170791467
0.865894842	0.087676533	0.866812939	0.161644393	0.619324903	0.159004946
0.874309319	0.049888599	0.871933686	0.168243579	0.658824426	0.164959888
0.856281507	0.111469623	0.865210464	0.155458414	0.592155859	0.156756853
0.08781741	0.079383671	0.868926608	0.672309213	0.660936487	0.162646207
0.877535946	0.459663366	0.429515255	0.170569266	0.559614871	0.524553021
0.054635902	0.054256141	0.881139919	0.69009653	0.690303439	0.175099125
0.0828525	0.868878592	0.084106304	0.663187357	0.162490066	0.677221207
0.141754035	0.860634109	0.846032441	0.56453372	0.153547808	0.149726831
0.87781793	0.473650075	0.404280287	0.170575344	0.625942462	0.586048181
0.459198328	0.422208829	0.877849893	0.590870201	0.555213784	0.170410237
0.866973952	0.865370914	0.081992341	0.159341296	0.161575833	0.621360835
0.419619607	0.877421782	0.470304866	0.521072395	0.170701109	0.55965847
0.874181141	0.047227698	0.870162607	0.168262306	0.657004102	0.164647928
0.476036572	0.413057532	0.877335692	0.610540451	0.570857518	0.170524656
0.080074702	0.855735084	0.104160004	0.62349034	0.149446082	0.64373387
0.123108601	0.863963951	0.856277111	0.588672536	0.15520005	0.15633022
0.055328386	0.873070496	0.873842923	0.654730014	0.164952086	0.168564444
0.480768218	0.401471488	0.877555324	0.590035547	0.548258181	0.170419623
0.877455724	0.437835603	0.443744793	0.170549099	0.590762735	0.561140606
0.099235237	0.841906512	0.103012269	0.602328274	0.134897542	0.627698654
0.877180598	0.437572483	0.443612642	0.170455224	0.591662717	0.562337786
0.878110878	0.462352972	0.415785064	0.170562163	0.626154614	0.589795241
0.867312729	0.865290816	0.077621242	0.15968007	0.161201189	0.622828033
0.446318023	0.877288914	0.437039817	0.546040494	0.170613361	0.57572412
0.866754601	0.866837738	0.09549652	0.159409507	0.162485162	0.617257774
0.065212237	0.871432888	0.873906362	0.652812062	0.164648383	0.16823263
0.470545911	0.420099718	0.878136136	0.55965467	0.521072149	0.170795159
0.44785871	0.432573942	0.877293085	0.590784917	0.558517478	0.170219346
0.246470027	0.262373505	0.824961853	0.610198672	0.581301854	0.118496251
0.856169205	0.116763546	0.863271572	0.155575909	0.59027905	0.155475066
0.876650225	0.883345625	0.040860508	0.17078973	0.175885607	0.693142436
0.881618696	0.00000494	0.00000479	0.175532277	0.699117313	0.699163671
0.881980208	0.027629004	0.027200952	0.175423975	0.694405306	0.694717148
0.270807542	0.825662344	0.274094654	0.584685948	0.118610935	0.613133991
0.041131567	0.040947824	0.880843455	0.692560982	0.693061547	0.174995009
0.876373598	0.88360124	0.027333195	0.17063878	0.175858472	0.695436959
0.1337457	0.862001419	0.844355509	0.567774041	0.154846938	0.147857794
0.866688778	0.866395515	0.095508328	0.159222341	0.162316926	0.617240794
0.874923989	0.0553735	0.871906424	0.168547806	0.654843316	0.164327178
0.485036124	0.393180194	0.877964601	0.62521947	0.582603094	0.170637512
0.470089264	0.41190507	0.877872512	0.590642236	0.551481856	0.170474516
0.868940995	0.089872454	0.075269065	0.162677589	0.671461684	0.659252528
0.111409388	0.864315472	0.855837009	0.592182495	0.156332708	0.155540345
0.877331828	0.451000601	0.432046263	0.170483278	0.60874752	0.575258291
0.449969565	0.42654332	0.876527079	0.626491418	0.593084144	0.170403144
0.272795379	0.285031983	0.825658331	0.61373674	0.582810794	0.118676741
0.856479296	0.068682999	0.072114084	0.149402065	0.64982019	0.628647327
0.855855725	0.116707745	0.864301343	0.155788174	0.590208773	0.156066829
0.45035209	0.42692345	0.877290058	0.626406382	0.593236967	0.170397182
0.855580983	0.123111414	0.862323485	0.155928601	0.588452062	0.155014568
0.841849397	0.092731001	0.099660288	0.134798739	0.629602965	0.604378738
0.045664577	0.047851757	0.053643046	0.655709456	0.656940049	0.6564451
0.459559373	0.429652663	0.877572935	0.559819473	0.5243914	0.170626322
0.04122243	0.882094856	0.041584286	0.692681703	0.175666381	0.692096344
0.877614401	0.44879005	0.439740316	0.170716472	0.559966271	0.527629217
0.861148154	0.845442686	0.141712697	0.153844621	0.149993753	0.564598134
0.027327822	0.876498217	0.88384238	0.695250899	0.170939252	0.175781298
0.873289702	0.055387508	0.87142217	0.168625469	0.654793181	0.164541318
0.874267491	0.051626972	0.87208377	0.168318672	0.659003037	0.165071402
0.877957221	0.877249791	0.877922983	0.171028972	0.170699101	0.171060864
0.863474055	0.856822098	0.130371712	0.155116518	0.156848019	0.58650534
0.086667859	0.869133458	0.082836696	0.665260309	0.16246526	0.677240685
0.874502966	0.047319821	0.871586536	0.168425023	0.656928641	0.16452426
0.054294696	0.881371518	0.054644781	0.690246161	0.175401069	0.689967363
0.027832645	0.027700565	0.028382304	0.695462412	0.695188609	0.695000238
0.874770282	0.047249719	0.871884134	0.168511519	0.656893768	0.164866786
0.485837334	0.402453763	0.877321434	0.607717623	0.564755588	0.170501174
0.08176882	0.867362418	0.865254661	0.621323299	0.159952967	0.161580973
0.873213624	0.874137766	0.8739397	0.188536485	0.189308788	0.189038388
0.00000278	0.00000292	0.00000285	0.699354902	0.698827956	0.698926598
0.083398961	0.102160143	0.84154418	0.630798187	0.605856844	0.134735243
0.00000277	0.00000289	0.00000284	0.699166688	0.699471437	0.699498986
0.855011243	0.068628969	0.072091615	0.149302461	0.649898445	0.629068539
0.875799186	0.88359461	0.054275028	0.170931579	0.175620075	0.690515433
0.884843281	0.0000055	0.876857134	0.175465504	0.699344086	0.17099996
0.877327176	0.437170786	0.444245564	0.170349136	0.591474149	0.561954722
0.877186568	0.48046454	0.401705651	0.170673596	0.589989435	0.548185712
0.841652128	0.124844937	0.103635832	0.135295456	0.623196303	0.598058026
0.487295694	0.401131916	0.87746052	0.607415273	0.564373651	0.170512877
0.072703138	0.856010695	0.071176988	0.62963189	0.149623841	0.650248922
0.066523897	0.078476718	0.855636364	0.65355481	0.633143651	0.149551146
0.844618776	0.14180199	0.860253652	0.149621521	0.564521925	0.153399704
0.875817508	0.882763371	0.027320956	0.17059995	0.17581131	0.695105761
0.876680337	0.883329583	0.040860475	0.170786969	0.175889485	0.693141535
0.856067985	0.111468303	0.864099763	0.155737042	0.592129686	0.156745439
0.875898221	0.047214819	0.871236705	0.168574134	0.656697963	0.164249277
0.872490683	0.875190314	0.047501373	0.165314379	0.168447269	0.658894739
0.054272867	0.876833608	0.883397693	0.690475923	0.171598206	0.175575398
0.874885216	0.075999713	0.871180022	0.168849679	0.650401867	0.164373646
0.841508061	0.113764804	0.100388612	0.135150715	0.625738828	0.600768893
0.877760179	0.484933008	0.393079885	0.170647724	0.625325185	0.582613044
0.877356632	0.459041903	0.425557734	0.170574278	0.575650902	0.539637055
0.866362695	0.087683328	0.866568655	0.161956934	0.619440154	0.159136695
0.429720503	0.877723243	0.459647222	0.524308398	0.170880696	0.559853339
0.865955428	0.081503626	0.867361175	0.161563776	0.621287938	0.15961039
0.278955474	0.28278059	0.825711782	0.612500694	0.585032871	0.11873357
0.06979565	0.06515577	0.085201324	0.67050677	0.670265334	0.672503756
0.4042275	0.877714465	0.473599588	0.586222522	0.170834768	0.625876446
0.860968924	0.844818791	0.141737902	0.153625534	0.149663426	0.56457308
0.130408005	0.863445413	0.857005428	0.586305132	0.154845989	0.157276586
0.43494341	0.877412925	0.454856187	0.574096873	0.170564679	0.60766204
0.875660894	0.884154257	0.027327313	0.170588936	0.175821624	0.695224184
0.140226084	0.133331465	0.825594258	0.604185529	0.575993512	0.119093764
0.872481417	0.874131523	0.871473744	0.188532239	0.189155721	0.188927187
0.859294018	0.846279984	0.153984897	0.152186357	0.151212044	0.560770126
0.47023789	0.419804047	0.877524835	0.55965011	0.520988289	0.170616359
0.041979223	0.041051555	0.042523205	0.692795476	0.691726012	0.692369776
0.455044077	0.435879034	0.877394034	0.611012516	0.577443556	0.170591141
0.846627166	0.845600863	0.847805096	0.258256201	0.257176643	0.257607329
0.480832661	0.401457451	0.877602299	0.590164788	0.548063822	0.170905721
0.877617906	0.462105817	0.415538916	0.170731824	0.626331876	0.589674104
0.868866692	0.097443014	0.08054333	0.162769592	0.666058687	0.654099019
0.862333045	0.84527434	0.13724033	0.154388243	0.149019254	0.566230937
0.087955024	0.866865783	0.866320348	0.61933709	0.159537243	0.162137867
0.82331716	0.823295815	0.822570027	0.297623396	0.29872034	0.297534657
0.014112464	0.881454565	0.014303757	0.697226084	0.175423081	0.697106427
0.067633089	0.067729242	0.067946885	0.636310229	0.636598874	0.636769018
0.41990233	0.87765213	0.470267169	0.520889241	0.170614471	0.559680263
0.865644045	0.087719941	0.866789223	0.161888111	0.619273342	0.159322131
0.877403794	0.483484358	0.400467255	0.170564777	0.608561708	0.565889483
0.142681182	0.825703863	0.146561613	0.575412349	0.118884961	0.602277708
0.881655251	0.041054082	0.040689988	0.17549315	0.692534287	0.693013894
0.214047651	0.826281292	0.212030051	0.579940795	0.11930006	0.610283459
0.23411987	0.241418712	0.826000822	0.608560097	0.581145319	0.119105022
0.107775127	0.865079946	0.855988788	0.593920191	0.156962477	0.154693747
0.869066724	0.097861256	0.080648837	0.162768204	0.669920138	0.656912159
0.027376782	0.881665426	0.027660921	0.695476569	0.17499668	0.694326423
0.869135896	0.090279552	0.076201608	0.162671121	0.671818077	0.659772504
0.415476391	0.877487933	0.462038872	0.589833329	0.170520385	0.626053484
0.446048617	0.87735503	0.444521554	0.576445068	0.170561489	0.606946033
0.486950812	0.401338282	0.877237801	0.607760238	0.564837468	0.170501247
0.43975699	0.877661897	0.448823175	0.527489009	0.170767462	0.559982202
0.091857657	0.078983548	0.869257508	0.668292642	0.657084588	0.162657493
0.076932628	0.868141472	0.865231474	0.62313716	0.160430298	0.161433264
0.877365967	0.483078703	0.400863145	0.170568002	0.608574152	0.565914301
0.875518967	0.883284861	0.013707536	0.170372207	0.175293373	0.697357191
0.823175143	0.824098875	0.826475515	0.298460334	0.298704834	0.298633006
0.443313319	0.447205386	0.877349952	0.608029101	0.577451763	0.17059119
0.450285589	0.426855266	0.877155504	0.626364825	0.59323171	0.170233235
0.432603788	0.877488464	0.448088861	0.558171348	0.170743638	0.591084293
0.864058382	0.856459747	0.12314779	0.155738937	0.156494974	0.58841644
0.233781185	0.244474911	0.826009448	0.607922327	0.58102463	0.119090769
0.846522215	0.846133547	0.847607452	0.257368409	0.25678571	0.257671078
0.867054443	0.095297859	0.867071786	0.162555663	0.617801333	0.159379999
0.877605954	0.470358196	0.419753046	0.170808355	0.559661357	0.520963151
0.844348344	0.133771064	0.862536913	0.147730099	0.567741786	0.15484815
0.86386574	0.857048393	0.130355504	0.155150009	0.156916405	0.586548632
0.080619035	0.855337397	0.104494415	0.623524892	0.149184849	0.643353542
0.401605928	0.877595167	0.480732393	0.54822588	0.170460633	0.589948662
0.133741785	0.862441863	0.844090835	0.567776521	0.155467116	0.148441571
0.473789794	0.404413411	0.878090815	0.625968597	0.586141058	0.170545151
0.874659092	0.047263578	0.872333244	0.168269218	0.657002745	0.16470238
0.858977608	0.843781592	0.141755476	0.152982109	0.149248267	0.564526059
0.856003536	0.079452627	0.07185929	0.149110122	0.647861784	0.627306315
0.861849914	0.843079356	0.133723641	0.154808174	0.147558931	0.567734946
0.864594835	0.864006224	0.863424134	0.219015022	0.219422386	0.219214734
0.054637934	0.054839338	0.054658288	0.690469409	0.689888541	0.690250813
0.081753402	0.277699234	0.263130475	0.620309225	0.618634656	0.619574794
0.014597865	0.881159887	0.01436274	0.697186926	0.175181636	0.697618779
0.882561069	0.054699357	0.054229163	0.175797927	0.690426554	0.690170933
0.470513543	0.419919812	0.87791898	0.559612577	0.520990729	0.170514721
0.099308719	0.841937626	0.103154504	0.602302059	0.134905602	0.627744447
0.459698218	0.429697498	0.877757169	0.55983419	0.524433396	0.170817751
0.867069058	0.104044278	0.866360253	0.162750159	0.615244952	0.159023069
0.867015965	0.104012169	0.866540581	0.162867645	0.615473967	0.158926753
0.863089284	0.856021937	0.123150702	0.155163978	0.155954876	0.588564538
0.121823064	0.297981334	0.209233968	0.622448883	0.62701567	0.623250175
0.068865552	0.071288056	0.855599369	0.650137669	0.629385362	0.148795375
0.868781704	0.084562241	0.076184603	0.162669722	0.672830709	0.661592964
0.841678627	0.083352123	0.102305101	0.134898128	0.631405643	0.605894051
0.863653637	0.856398547	0.123115253	0.155306045	0.156190001	0.58862931
0.0842004	0.868702194	0.085537578	0.661201938	0.16261635	0.676001411
0.073968975	0.855527116	0.082582485	0.627548786	0.149285302	0.647723289
0.055375783	0.871810652	0.874378682	0.654914537	0.164666667	0.168458479
0.484734896	0.39287557	0.877359305	0.625283836	0.582533605	0.170574933
0.103077429	0.09911094	0.841579156	0.627707774	0.602462617	0.13500693
0.054553296	0.055355127	0.054919477	0.690250156	0.690092002	0.69036638
0.087261694	0.079586501	0.868777612	0.672421999	0.660114831	0.162639947
0.086396756	0.869236322	0.08316177	0.665386765	0.162460251	0.67741854
0.872340512	0.87371457	0.047226094	0.165602898	0.168550375	0.656987581
0.454999728	0.435904195	0.877407884	0.611038531	0.577420852	0.170585866
0.083407172	0.102227294	0.841797093	0.631244093	0.605960796	0.134733094
0.87684083	0.883904113	0.054269701	0.171527847	0.175183824	0.690451173
0.869098693	0.090140661	0.076153884	0.162674445	0.671738462	0.659735144
0.876560916	0.883879431	0.027323405	0.170670951	0.175798844	0.695171727
0.872279114	0.874549816	0.065214544	0.165360119	0.168992809	0.652858751
0.051663508	0.053849281	0.058204026	0.653963994	0.654240858	0.653864588
0.465571256	0.424527386	0.877228892	0.608617051	0.571945533	0.170572869
0.059475661	0.06415104	0.06278326	0.652291457	0.65201618	0.651561276
0.082036376	0.302837684	0.287193204	0.619703114	0.616201673	0.615936208
0.447762801	0.43243353	0.877052952	0.590832733	0.558349369	0.1701476
0.866231223	0.087724831	0.867715684	0.162093498	0.619312859	0.159552411
0.143510901	0.826057468	0.149859157	0.576207713	0.119151881	0.605691194
0.111440325	0.86415459	0.855559465	0.592137705	0.155834635	0.155063564
0.877495001	0.473541764	0.410319675	0.170555937	0.609306868	0.569466874
0.473490759	0.40411535	0.877494363	0.625860223	0.586100275	0.170764771
0.877395918	0.448011907	0.432920679	0.170738566	0.59064391	0.557687188
0.044547643	0.872191309	0.874065301	0.659284968	0.165062058	0.167945714
0.435016677	0.877388372	0.45493144	0.574036916	0.170538557	0.607729089
0.866960239	0.104049164	0.866529769	0.162862417	0.615428677	0.158923238
0.247405542	0.261329812	0.825064505	0.609426124	0.581177499	0.118509757
0.014431643	0.880955096	0.014813491	0.697336743	0.175209877	0.697349837
0.06251206	0.062479824	0.062449509	0.638335817	0.638334256	0.638504164
0.843653139	0.84644943	0.845068648	0.256817005	0.256919842	0.257423835
0.86283448	0.86246382	0.863929328	0.218451691	0.218898658	0.219405895
0.87285251	0.87414729	0.87207783	0.188565103	0.189077552	0.188791132
0.877301888	0.448099995	0.43580331	0.170583415	0.575626541	0.54273528
0.229259425	0.226304209	0.827216469	0.609761968	0.578243784	0.118920856
0.054287747	0.881575316	0.054646055	0.690429731	0.175345202	0.689998493
0.045234257	0.871699185	0.87484072	0.659053723	0.165476758	0.168647961
0.466025592	0.42398503	0.877264882	0.608458077	0.571840576	0.1705571
0.846181779	0.845117006	0.848573225	0.257460303	0.256911561	0.257531376
0.056137464	0.044949009	0.075052079	0.674728229	0.674770633	0.675524142
0.87734872	0.44046716	0.444174371	0.170618522	0.609870686	0.579581138
0.866568034	0.865652251	0.08174414	0.159259598	0.161341779	0.621469934
0.062509287	0.062483108	0.062454554	0.638360402	0.638343502	0.638509084
0.881440978	0.00000495	0.00000479	0.175338889	0.699498953	0.699683345
0.856249987	0.064692436	0.078685968	0.149049553	0.65265947	0.631469833
0.091227579	0.078050495	0.868856931	0.667968149	0.657383505	0.162568515
0.877300039	0.440335345	0.444060103	0.170515285	0.608046285	0.577727365
0.864854213	0.854653166	0.107757663	0.156349069	0.154272842	0.593669812
0.040855302	0.87594902	0.883143813	0.693052386	0.170551687	0.175637602
0.476463898	0.41302156	0.877421195	0.6096834	0.569357674	0.170560262
0.487017414	0.401464108	0.877438329	0.607419581	0.564314976	0.170529736
0.841762129	0.092664746	0.099668292	0.134792869	0.629609505	0.604318569
0.874129201	0.051440831	0.871993002	0.168370313	0.659103792	0.16500351
0.86448247	0.854762676	0.107686773	0.156281795	0.15423915	0.593798966
0.877037138	0.470003339	0.419558103	0.170673893	0.559699804	0.520947361
0.068830455	0.071322598	0.855096805	0.649920861	0.629936142	0.148901847
0.084088133	0.868976846	0.085546717	0.660154513	0.162621088	0.674351899
0.130527238	0.110865162	0.154115926	0.615742204	0.614113902	0.614972276
0.868714481	0.075960591	0.079626373	0.162581029	0.676081183	0.664294891
0.426900567	0.87724051	0.450325519	0.593118961	0.170563433	0.626401187
0.041226487	0.882678521	0.041527454	0.692732161	0.175836087	0.692334083
0.059881583	0.039662413	0.079618877	0.679395645	0.679183836	0.67996022
0.413974298	0.87747036	0.475963001	0.566495651	0.170629431	0.605698233
0.855858739	0.068707365	0.072016708	0.1491652	0.650192618	0.629789451
0.111436914	0.864908846	0.855711211	0.592140728	0.156321155	0.155510628
0.866432723	0.081533777	0.867956102	0.16170733	0.621477629	0.159920851
0.443165192	0.446960671	0.877364004	0.608918274	0.57833279	0.170568589
0.00000476	0.881136288	0.00000489	0.699140373	0.17504263	0.698956741
0.877380447	0.459545767	0.429476255	0.170840292	0.55977547	0.52456051
0.877398242	0.473594938	0.410169202	0.170546912	0.60910461	0.569258568
0.059520213	0.064880427	0.063246689	0.652004139	0.651813268	0.652073218
0.87735624	0.437069907	0.446354336	0.170599367	0.575718663	0.546078843
0.882951506	0.054274447	0.876085998	0.174867385	0.690496898	0.170832491
0.028165309	0.027601544	0.881439994	0.694963583	0.694907888	0.174977587
0.393076755	0.877756831	0.484931922	0.582661665	0.170823778	0.625214045
0.877572795	0.462080977	0.415518682	0.170675399	0.626173909	0.589701564
0.146915934	0.131883925	0.825989012	0.601768024	0.572771665	0.119452477
0.856664249	0.091274772	0.074209223	0.149305124	0.645800034	0.625653915
0.059409465	0.063997539	0.063188274	0.652155733	0.652781735	0.652070234
0.480575737	0.401289314	0.877180812	0.589929099	0.547902738	0.170332481
0.470290948	0.419865128	0.877640988	0.559633056	0.520971698	0.170884803
0.081069727	0.084487695	0.868968552	0.679591986	0.666552871	0.162495595
0.014361526	0.881132017	0.014484823	0.697185785	0.17524668	0.697678338
0.442884628	0.447267239	0.877366411	0.608869597	0.578277937	0.170571146
0.877756792	0.480941997	0.41035341	0.170905356	0.559575733	0.517351682
0.448142577	0.435900537	0.877407055	0.575820037	0.542883622	0.170553977
0.841752312	0.092694055	0.099698102	0.134778929	0.62963472	0.604230562
0.842551101	0.133762614	0.862336078	0.147777618	0.567667491	0.154765395
0.080453238	0.856053289	0.104874803	0.623676325	0.149562659	0.643260071
0.875310755	0.055395892	0.871816503	0.168488373	0.655025987	0.164507447
0.873845608	0.874411248	0.875886636	0.188648678	0.188919589	0.188876021
0.881341669	0.041217989	0.040789378	0.175357065	0.692554203	0.692967116
0.027322077	0.876476925	0.88294047	0.695106765	0.170731341	0.175278615
0.877406633	0.462002128	0.41543109	0.17049908	0.626075948	0.589818654
0.877393418	0.469808611	0.415603197	0.170556249	0.575399718	0.536120912
0.071006915	0.064932096	0.085566743	0.669982025	0.670752284	0.67189383
0.877439416	0.469122435	0.486064807	0.170637411	0.562380447	0.533590647
0.877425907	0.473461181	0.404075635	0.170626334	0.625923029	0.586025553
0.868661639	0.08102308	0.077996554	0.162585137	0.674624754	0.662727086
0.877292627	0.440342216	0.44404749	0.170516205	0.608050118	0.577724063
0.439642987	0.877454625	0.448729601	0.527519141	0.17069142	0.559905012
0.847974348	0.846808708	0.846727884	0.257776563	0.257596457	0.257051575
0.871756663	0.874769807	0.065180135	0.164814092	0.16859423	0.652822881
0.841728776	0.083349558	0.102291298	0.134878108	0.631402157	0.605900161
0.067625305	0.067631798	0.067862819	0.636204421	0.636345673	0.636633403
0.079748316	0.869152661	0.093236731	0.659032515	0.162733205	0.670388919
0.855833669	0.068682237	0.072001343	0.149086179	0.650286502	0.629585299
0.470457144	0.419877479	0.87782448	0.559474133	0.52114505	0.17051035
0.437094607	0.446350506	0.877378001	0.575738726	0.546021681	0.170620208
0.877476031	0.480838206	0.410168801	0.17044329	0.559328511	0.517587091
0.080474765	0.855998253	0.104180559	0.62356419	0.149555664	0.643704123
0.083418834	0.102158031	0.841546967	0.630765189	0.605917399	0.134732194
0.11137999	0.864827373	0.854816557	0.592038534	0.15632067	0.155285837
0.85746828	0.123037696	0.86484027	0.156532935	0.5884545	0.155481002
0.855272728	0.102834487	0.079048931	0.149452585	0.643419023	0.623629925
0.082943354	0.080305023	0.868865917	0.675949213	0.663816959	0.16260032
0.415513282	0.877552111	0.462066475	0.589678685	0.170744524	0.626202555
0.877636759	0.44879179	0.439759288	0.170723721	0.559966789	0.527629597
0.014599099	0.881457871	0.014701289	0.697215825	0.175461271	0.69720106
0.08708678	0.079083413	0.86872912	0.672666179	0.660876985	0.162680262
0.875937606	0.88332417	0.0000055	0.17060432	0.175237131	0.699303936
0.865406713	0.077000182	0.867742728	0.161053466	0.623352366	0.159615455
0.480901655	0.410177259	0.877561306	0.559393199	0.517531511	0.170656597
0.877509487	0.473497353	0.404123681	0.170605773	0.625762512	0.586066315
0.844490684	0.141808459	0.859926474	0.149675536	0.564591898	0.153658403
0.860517963	0.844754986	0.147502222	0.153012687	0.150583057	0.562885426
0.486582234	0.401631095	0.877413504	0.609964453	0.566657216	0.170491874
0.867900487	0.865240228	0.077594468	0.159943878	0.161514933	0.623468053
0.404322511	0.877925691	0.473714484	0.586259456	0.170737477	0.625804848
0.877376585	0.448091388	0.435858022	0.170624937	0.575749564	0.54288711
0.081657377	0.867293114	0.86618993	0.621123709	0.159939832	0.161923805
0.075999363	0.871437493	0.875108085	0.650519973	0.164422573	0.168858678
0.862152903	0.845012108	0.137238989	0.154565782	0.148925664	0.566195816
0.865792998	0.081511298	0.867563194	0.161455809	0.621168463	0.15960499
0.881380902	0.054581446	0.054417712	0.175068591	0.690170916	0.690575523
0.877152665	0.437247391	0.443918219	0.170497071	0.591651564	0.562428783
0.439059698	0.878149742	0.439064427	0.596517842	0.170615084	0.626453018
0.877508725	0.48481637	0.392944084	0.170726928	0.625345421	0.582656907
0.159012975	0.151493007	0.094468563	0.61741085	0.616163494	0.615456252
0.432581174	0.87738299	0.448022752	0.558249033	0.170434284	0.59093115
0.076000695	0.871374445	0.874564401	0.650507102	0.164309137	0.168706896
0.855072425	0.107510244	0.865299113	0.154945343	0.593712656	0.156965262
0.859051611	0.845761336	0.153948113	0.151604311	0.150867256	0.560939997
0.874024315	0.873450272	0.873102964	0.188801654	0.18866798	0.188437637
0.070419561	0.071358152	0.074170186	0.649886919	0.650100247	0.649937546
0.00000492	0.00000495	0.881907639	0.699278247	0.699311407	0.175061405
0.059412059	0.06380731	0.063237875	0.652062338	0.652380301	0.652310017
0.0000049	0.881317415	0.00000482	0.69919182	0.175212691	0.698881597
0.861418962	0.846751637	0.147410107	0.153330356	0.150836859	0.562805623
0.438594605	0.877219303	0.438599267	0.596518935	0.170611138	0.626472717
0.014001172	0.014071966	0.882287763	0.697210071	0.696746073	0.175381572
0.410308863	0.877794772	0.48100982	0.51751331	0.170825187	0.559487567
0.43710671	0.446368986	0.87740772	0.575775195	0.546051723	0.170610408
0.487411546	0.400819369	0.877412868	0.609906887	0.566590636	0.170495125
0.055357038	0.87291775	0.875279884	0.654949117	0.164931921	0.169007886
0.217019351	0.826053792	0.217114262	0.580655198	0.119329386	0.608977169
0.415580811	0.877350318	0.470056172	0.536013454	0.17051047	0.575265466
0.079728274	0.071557646	0.855629705	0.648164687	0.627237613	0.149068659
0.01440819	0.881133279	0.014465709	0.69717503	0.175236802	0.697678662
0.051858239	0.053662412	0.058273427	0.654381807	0.654153488	0.654400293
0.027609913	0.881117701	0.027815614	0.695141015	0.175040724	0.694577673
0.841699886	0.113869375	0.100372421	0.135067032	0.62610793	0.600666056
0.869106522	0.098253932	0.080483186	0.162712826	0.669895686	0.657333605
0.041632492	0.041149991	0.042466793	0.693215403	0.691916405	0.69295613
0.27633636	0.283759849	0.82563396	0.614069202	0.586860056	0.11865319
0.841667245	0.124802279	0.103670316	0.135306958	0.62303843	0.598052198
0.153975013	0.859449338	0.846823162	0.560851844	0.151941566	0.151251642
0.825732609	0.136131432	0.128270252	0.119074149	0.606249425	0.577922239
0.107843742	0.864569366	0.854685715	0.593737203	0.156617687	0.154512654
0.865448956	0.081463491	0.867088824	0.161402372	0.621411445	0.159313822
0.87196179	0.875228007	0.055332215	0.165178687	0.168803329	0.654857327
0.877290995	0.480773892	0.401535575	0.170639167	0.590118299	0.548311493
0.074172969	0.855424888	0.082820697	0.627598112	0.149157205	0.647988253
0.435006948	0.877392565	0.454899972	0.574031346	0.170545957	0.607691744
0.877599948	0.474000245	0.482768918	0.170712896	0.561869031	0.532167893
0.875149385	0.055372435	0.871923969	0.168545545	0.654877397	0.164334704
0.083432102	0.102172907	0.841430872	0.630929764	0.606153723	0.134851589
0.86701886	0.095316216	0.866930215	0.162562346	0.617753351	0.15938796
0.424374284	0.877404341	0.465146105	0.573179839	0.170546429	0.609863857
0.113674894	0.100336984	0.841409658	0.626108539	0.600683106	0.135001314
0.084054925	0.868527295	0.085390351	0.662422608	0.162582499	0.676938368
0.8762723	0.883907792	0.027326355	0.170592099	0.175763571	0.69520155
0.877389151	0.462713041	0.420670646	0.170663764	0.609512026	0.572976555
0.074874015	0.856568217	0.091314538	0.625765551	0.149922302	0.645683292
0.4475235	0.432227665	0.876603843	0.590939928	0.558273057	0.170428071
0.470181082	0.411853273	0.877974981	0.590592996	0.551574476	0.170434394
0.87143011	0.874197236	0.047186383	0.164850502	0.168137499	0.657088886
0.876618975	0.883517871	0.013706737	0.171159823	0.175727789	0.697319979
0.027797041	0.027487693	0.0282325	0.695091494	0.695121714	0.695107333
0.881493733	0.05472251	0.054331364	0.175685195	0.689960693	0.69051637
0.435900293	0.877309289	0.448068837	0.542890875	0.170500588	0.575825971
0.087822766	0.867090709	0.866424227	0.619364888	0.159516032	0.162518136
0.87246888	0.874239643	0.047237586	0.164991261	0.168138893	0.656990718
0.446696529	0.877356683	0.444293607	0.576521576	0.170550831	0.606947888
0.086029304	0.868913901	0.082771442	0.665083011	0.162502438	0.677431311
0.8774051	0.450741145	0.432456555	0.170559941	0.609764061	0.57635477
0.46953389	0.411097406	0.876525123	0.590724082	0.551496497	0.170311107
0.054573359	0.055357044	0.055171988	0.690502539	0.689932982	0.690477723
0.437122387	0.446384849	0.877440764	0.575804892	0.546063142	0.170574381
0.081100011	0.084343182	0.868991727	0.679598806	0.666534532	0.162490085
0.866761408	0.866114937	0.081752248	0.159193892	0.161744898	0.621210263
0.87170455	0.874791445	0.046840462	0.16476027	0.16825523	0.658081683
0.864343932	0.863699715	0.863673368	0.219614139	0.219508344	0.219478488
0.878060169	0.439019517	0.43901478	0.170925384	0.626606924	0.59643663
0.877416565	0.462850688	0.420512918	0.170653444	0.609517503	0.572978874
0.863858371	0.856346265	0.123155121	0.15566524	0.156443521	0.588418198
0.878325226	0.470584731	0.420248766	0.170738075	0.559712283	0.521074002
0.883662379	0.013704945	0.875906504	0.175072717	0.697252468	0.170597143
0.877483245	0.473488472	0.404105402	0.170564306	0.625766629	0.586058158
0.057533943	0.045180825	0.076445941	0.675446871	0.674597716	0.676384426
0.883023637	0.0000055	0.876262523	0.175482695	0.699365927	0.17120791
0.856867504	0.130471068	0.863433072	0.156496158	0.586437754	0.154460723
0.871486746	0.8758888	0.065183958	0.16455696	0.168894633	0.652663974
0.070685746	0.051518596	0.08289079	0.672898428	0.672447215	0.674345146
0.856202544	0.079449921	0.071856577	0.149113025	0.647933881	0.627307025
0.131227891	0.82579206	0.149088519	0.575646499	0.11902998	0.604085236
0.099341091	0.841852084	0.103067115	0.602322609	0.134898653	0.627672111
0.877511925	0.484806943	0.39295787	0.170582451	0.625293438	0.582582005
0.866028329	0.86681364	0.104342926	0.159037054	0.162750814	0.615326237
0.874048943	0.049385808	0.872438613	0.168280526	0.65883276	0.165159943
0.855579153	0.068651632	0.072043567	0.148941999	0.650167994	0.629471164
0.041159915	0.040964425	0.880756367	0.692636845	0.693111945	0.174959236
0.153929605	0.859827403	0.846871813	0.560907858	0.1528207	0.151986336
0.863521936	0.856267489	0.123152513	0.155183859	0.156003414	0.588558119
0.841858161	0.092762543	0.09965158	0.134797741	0.629619034	0.604365461
0.066709281	0.078668491	0.855794462	0.653598869	0.633164845	0.149596113
0.864834173	0.077129561	0.867239999	0.161061689	0.622862243	0.159866174
0.076002896	0.871528854	0.875283119	0.650481251	0.164343812	0.168740453
0.873611732	0.065238472	0.870316118	0.168060201	0.652747565	0.164489182
0.099337657	0.8418591	0.103069052	0.602324504	0.134897421	0.627676167
0.086844342	0.869240005	0.083217938	0.665383179	0.16245986	0.677375851
0.864569432	0.863525156	0.863972113	0.219629704	0.219697831	0.219246197
0.437103773	0.446359986	0.877395599	0.575778505	0.546044877	0.170613249
0.079775717	0.071481873	0.854956016	0.647517597	0.627690367	0.149337421
0.081606835	0.869221367	0.099469497	0.657148526	0.162652611	0.669524004
0.863969355	0.855884166	0.116634492	0.155678539	0.15568295	0.590339666
0.051916594	0.053552157	0.058275974	0.654088807	0.654155822	0.654120392
0.869084577	0.09790639	0.081295583	0.16277127	0.668892328	0.655136321
0.860201675	0.845481481	0.1417492	0.153660625	0.149742656	0.564525191
0.413696408	0.877417027	0.47574724	0.566110678	0.170658185	0.605899834
0.401598504	0.877518228	0.480674881	0.548218552	0.170388847	0.589945857
0.846964264	0.147488277	0.859849885	0.150507307	0.562766703	0.152777545
0.074706674	0.074950324	0.075051738	0.634064595	0.634350765	0.63453281
0.459073728	0.425727447	0.877390834	0.575491008	0.539380915	0.170570521
0.825520355	0.136831566	0.128112009	0.118597127	0.606637181	0.577287114
0.868902524	0.075567743	0.078536197	0.162515715	0.676508757	0.664327457
0.11139127	0.864929069	0.855822665	0.592267843	0.156289547	0.155504248
0.877463957	0.473459767	0.410312554	0.170561888	0.609077058	0.569160805
0.07303627	0.855257699	0.071114094	0.629585546	0.149003241	0.649779635
0.124966714	0.103567088	0.841672299	0.623367152	0.598333877	0.135146513
0.867664203	0.8661178	0.077352691	0.160187734	0.161890786	0.622888633
0.419798521	0.877422159	0.470144078	0.520867607	0.170756082	0.559710577
0.883073366	0.0000055	0.875004945	0.175087296	0.699336994	0.169773899
0.855418685	0.102847459	0.078969999	0.149295274	0.643426703	0.623686725
0.855386845	0.111415059	0.864539355	0.155010106	0.591973176	0.156046277
0.841356063	0.083349087	0.10223325	0.134845556	0.631129731	0.605923476
0.054600264	0.054258167	0.881752391	0.689926519	0.690210783	0.175371325
0.107769907	0.8650122	0.855595819	0.593849781	0.15686677	0.154620302
0.883697748	0.040851203	0.876431816	0.175073396	0.692898941	0.170774107
0.855254016	0.10749498	0.865007515	0.154850109	0.593988691	0.156978361
0.013708144	0.876880806	0.884178241	0.697401053	0.171156291	0.175260316
0.040714715	0.046859574	0.075075157	0.677494373	0.67780633	0.680565087
0.129290845	0.108491707	0.151200054	0.615451871	0.613165967	0.614656751
0.841669925	0.124729532	0.103653592	0.135300067	0.623126196	0.598060468
0.091356685	0.076274238	0.869336308	0.670217351	0.6602214	0.162595197
0.107616563	0.864621868	0.855212834	0.593851996	0.157043294	0.154988944
0.864034681	0.856320275	0.116632448	0.155675094	0.155679339	0.590333089
0.877041821	0.469956801	0.411970598	0.170161899	0.591476067	0.552728938
0.877255607	0.462411746	0.420975656	0.170543202	0.608555526	0.572135581
0.461855749	0.415299823	0.877127876	0.62608146	0.589638477	0.170497428
0.868800531	0.076219648	0.079194354	0.162530388	0.676443926	0.664347646
0.15397199	0.859840237	0.847320275	0.560844018	0.151961122	0.151257407
0.469724971	0.411432971	0.877074345	0.590508826	0.552093454	0.170021526
0.877528669	0.474615379	0.479604073	0.170694758	0.561900022	0.532166114
0.068863282	0.071204602	0.854938496	0.649823303	0.629603814	0.148918904
0.014571227	0.881068672	0.014397161	0.697268446	0.175183422	0.697473134
0.065216411	0.871570566	0.874033832	0.65286052	0.164668872	0.168374042
0.857599858	0.123037277	0.864637494	0.156445086	0.588494021	0.155709377
0.874400013	0.0553922	0.871953162	0.168627187	0.654724427	0.164478477
0.873046772	0.876439685	0.075952365	0.165031527	0.168981986	0.650455829
0.480575738	0.405821009	0.877371998	0.574861538	0.532404805	0.170529615
0.044624578	0.872374123	0.874291758	0.65919509	0.165645829	0.168413493
0.884423191	0.02732423	0.87466762	0.175456106	0.695195607	0.170175746
0.485000738	0.393126979	0.877877559	0.625280655	0.582605048	0.170803155
0.066661397	0.078419756	0.854964667	0.654017636	0.634114651	0.148649735
0.846839464	0.153918792	0.859456807	0.151330761	0.560945036	0.152072046
0.427116207	0.877672618	0.450541648	0.593066729	0.170823362	0.626463176
0.083420618	0.102225967	0.841806576	0.63120917	0.605850443	0.134724958
0.876970698	0.480827731	0.401134765	0.17067255	0.590369202	0.548103974
0.439365852	0.876870649	0.448431943	0.527551037	0.170829425	0.559901419
0.133745738	0.86200242	0.844364318	0.567774471	0.154847638	0.147858249
0.276607598	0.301229753	0.825879665	0.614635505	0.585072772	0.118610524
0.877447898	0.473487209	0.410134745	0.1706162	0.609295437	0.569486977
0.437617203	0.445141872	0.877372087	0.59276079	0.563202231	0.170451221
0.0901272	0.075712231	0.869101526	0.66910922	0.659573739	0.162591572
0.405915602	0.87734407	0.480603834	0.532755153	0.170554014	0.575083659
0.85608535	0.091302869	0.074137295	0.149216755	0.646009805	0.625726491
0.08174998	0.869255429	0.099449678	0.656616503	0.162653297	0.669342454
0.409895712	0.876994047	0.48062916	0.517555441	0.170494149	0.559391876
0.099305895	0.841723499	0.10318919	0.602402221	0.13492219	0.627656638
0.469983502	0.41565405	0.877360371	0.575459757	0.536240347	0.170573456
0.123096636	0.863553973	0.856866249	0.588361166	0.155643814	0.156822862
0.874955833	0.873360106	0.87476061	0.188804806	0.188457378	0.188567872
0.872900403	0.875546425	0.04742808	0.165557207	0.168740417	0.657005013
0.855272578	0.064401423	0.078016468	0.148876593	0.653019698	0.632690504
0.404220695	0.877702631	0.4735935	0.586191872	0.170705415	0.625717079
0.86891905	0.09112548	0.077869305	0.162690731	0.671335808	0.659325036
0.858904702	0.846403273	0.154035711	0.152185702	0.151194229	0.560777346
0.435989404	0.877429879	0.448134653	0.542684208	0.170609527	0.575495666
0.077000258	0.868043167	0.864956066	0.623027251	0.160150953	0.161094552
0.054249817	0.881446667	0.054624266	0.690581614	0.175382455	0.690025066
0.437948745	0.444891748	0.87740319	0.592711027	0.563216159	0.170332738
0.028448319	0.028078066	0.881121345	0.695002616	0.695834966	0.175143386
0.480701632	0.405781299	0.877254715	0.574563911	0.532031792	0.170546497
0.881427784	0.00000482	0.00000492	0.175446187	0.698873991	0.69925129
0.074735188	0.075001762	0.075045176	0.634074105	0.634385726	0.634512183
0.877291918	0.440342678	0.444046167	0.170516314	0.60805042	0.57772372
0.092634189	0.099604421	0.841233501	0.629467816	0.604460939	0.134931685
0.437127529	0.446383082	0.877446222	0.57579167	0.546065439	0.170585802
0.047129875	0.8715516	0.874462274	0.656950841	0.164402917	0.16807532
0.446335009	0.877338932	0.437071584	0.546037783	0.17061919	0.575746552
0.480807703	0.405782192	0.877378309	0.574699357	0.532145799	0.170545159
0.13040471	0.862835561	0.857488064	0.586319274	0.155111836	0.15741002
0.872041522	0.875680903	0.075954604	0.16476008	0.169364161	0.650431501
0.102908329	0.133737568	0.181325183	0.617935088	0.620501338	0.621457568
0.070384063	0.051537412	0.082166433	0.673477546	0.672642416	0.674831261
0.076004705	0.871083005	0.875292374	0.650524171	0.164442148	0.168877376
0.86809644	0.865006363	0.077763132	0.160360017	0.161742575	0.623195263
0.099747998	0.081167749	0.869220847	0.669060249	0.657076384	0.162675659
0.872695257	0.874006199	0.075933951	0.164818317	0.168735755	0.650390818
0.124695164	0.103231485	0.841834506	0.624015743	0.5986611	0.135249818
0.877588991	0.459068882	0.422452761	0.170345275	0.590912505	0.555048824
0.826419724	0.13553225	0.127021635	0.119135068	0.605275341	0.577900171
0.09998722	0.081324112	0.869210293	0.669234363	0.657583375	0.162747621
0.869075078	0.082884854	0.074566127	0.162570443	0.673139993	0.659605342
0.865863443	0.856389364	0.111444417	0.156248617	0.155359234	0.592174236
0.85604952	0.111457697	0.864664285	0.155655531	0.592147529	0.156739986
0.393196674	0.878015808	0.485068685	0.582635976	0.170898311	0.625242573
0.450635754	0.427212282	0.877862469	0.626514287	0.593104916	0.170660681
0.859075251	0.846269928	0.153947065	0.152335689	0.151468248	0.560925581
0.874935299	0.047226226	0.871347267	0.168379069	0.656942065	0.164828566
0.878216388	0.884764227	0.0000055	0.171044603	0.176273834	0.699602699
0.401252646	0.876837751	0.480371035	0.548264258	0.170130418	0.589917434
0.841718172	0.102956227	0.099030624	0.135025208	0.627691366	0.602586622
0.882445303	0.013706567	0.876486412	0.175028671	0.697335135	0.170555366
0.059572259	0.064619983	0.063070053	0.652091379	0.651757744	0.652104578
0.415641134	0.877411001	0.469940517	0.53620221	0.170574429	0.575466821
0.040190974	0.046454166	0.074000002	0.677736908	0.676878085	0.678973631
0.825082332	0.192882922	0.200338151	0.118633525	0.611598229	0.57866704
0.873790694	0.055341442	0.871733412	0.168101185	0.654880187	0.164530221
0.124567956	0.103192538	0.841835411	0.623537132	0.598509934	0.135245666
0.447821987	0.432529705	0.877212029	0.590782518	0.558449727	0.170226152
0.882520822	0.040847231	0.876915303	0.174601562	0.692846348	0.170595946
0.059981476	0.06004832	0.059967736	0.640270157	0.640101511	0.639980423
0.099242221	0.841752082	0.103090039	0.60242936	0.134915308	0.62766522
0.081531909	0.855698187	0.068579575	0.63308914	0.148995277	0.653276064
0.856296037	0.091217445	0.074220883	0.149433502	0.645740299	0.625486384
0.864295757	0.85372698	0.107681164	0.156455363	0.154061439	0.593753109
0.465915862	0.424811624	0.877392302	0.608777066	0.572163095	0.170568023
0.421848208	0.877364347	0.459152454	0.555144594	0.170270679	0.590356535
0.877089419	0.470332433	0.411649205	0.170209374	0.589682587	0.551200698
0.856402167	0.111446276	0.864692647	0.154968025	0.59200391	0.155824787
0.877819051	0.437339795	0.44449261	0.17055759	0.59194774	0.562697947
0.055373053	0.871598819	0.874565027	0.654901729	0.164606995	0.168419585
0.855121488	0.116702886	0.862941267	0.155392273	0.590384792	0.155494795
0.872358036	0.874402447	0.047249124	0.165458869	0.168460235	0.657015274
0.877431656	0.462784891	0.420633411	0.170646372	0.609520822	0.572987957
0.883176017	0.054272424	0.875904648	0.174935269	0.690505879	0.170618524
0.824938653	0.823042046	0.825041684	0.29855602	0.298585484	0.298174966
0.856530554	0.123156489	0.864251247	0.156649427	0.58862788	0.155671543
0.448115486	0.435929443	0.877391701	0.575708904	0.542733135	0.170565248
0.427012139	0.877463646	0.450436656	0.593042389	0.170486608	0.626488824
0.876011408	0.075978283	0.871384878	0.168857507	0.650475019	0.164432631
0.476131724	0.413108091	0.877345108	0.610551502	0.570860963	0.170526832
0.275389634	0.277682687	0.82606551	0.611072747	0.582788725	0.119007992
0.075987343	0.871065716	0.873990658	0.650518321	0.164543807	0.16870761
0.081698599	0.867324872	0.865669814	0.621263043	0.159830473	0.161616215
0.826625723	0.201883519	0.195022454	0.11886492	0.61044167	0.578251034
0.825211131	0.823036203	0.825437545	0.298819961	0.298620924	0.29872484
0.877223047	0.877457729	0.877431338	0.170599111	0.170615037	0.170138261
0.868851196	0.075943448	0.078896114	0.162518818	0.676396993	0.664468948
0.446286931	0.877264994	0.437044634	0.546056079	0.170536804	0.575732494
0.084952813	0.868985941	0.081628098	0.665400375	0.162544263	0.67736532
0.076004157	0.8716845	0.87522067	0.650527088	0.164557663	0.169022554
0.00000277	0.00000289	0.00000283	0.699144915	0.69934282	0.69859882
0.028035451	0.027607098	0.02848737	0.695282965	0.695572222	0.69532816
0.855742975	0.068662681	0.072048305	0.148974593	0.650182599	0.629629444
0.86209762	0.842808087	0.13372056	0.155181186	0.147814555	0.567763989
0.099280893	0.080732427	0.86894809	0.667523491	0.657093071	0.162568274
0.081717159	0.867450175	0.865985789	0.621228268	0.159736821	0.161732384
0.092689141	0.099596059	0.841162658	0.629424319	0.604439983	0.134931132
0.083615923	0.868622173	0.084979626	0.66197512	0.162597145	0.676697063
0.095441041	0.86672997	0.866802217	0.617473035	0.159135609	0.162474495
0.883110462	0.013704967	0.8761336	0.175574246	0.697249318	0.171236463
0.133743255	0.861878929	0.844329078	0.567776925	0.155435763	0.148403278
0.088020302	0.078571635	0.868911018	0.672541829	0.661505105	0.162601862
0.137254498	0.862192501	0.845402619	0.56631045	0.154350935	0.149223568
0.87744874	0.473491758	0.410125428	0.170616322	0.609295883	0.56948771
0.877358119	0.459552519	0.429443423	0.170810649	0.559771299	0.524513251
0.864558793	0.856353417	0.123141509	0.155262056	0.15610836	0.588593188
0.857372693	0.130482468	0.862662092	0.156736156	0.586552917	0.154585493
0.081426816	0.869151316	0.099213547	0.656811328	0.162676341	0.669421366
0.867060316	0.095269098	0.867151749	0.162561229	0.617808579	0.159374863
0.855749553	0.116680498	0.864213454	0.155553711	0.590231748	0.15581799
0.153937184	0.859736182	0.846556772	0.560807088	0.152327143	0.15146338
0.07599933	0.871552699	0.875233034	0.650534905	0.16454264	0.169019755
0.864537455	0.854889847	0.111456305	0.155789844	0.154684895	0.59190233
0.866100328	0.081560977	0.867576058	0.16202478	0.621667397	0.159843951
0.855726825	0.107570527	0.865130573	0.15530318	0.593755502	0.1570951
0.432580602	0.877088533	0.447706686	0.558273794	0.170738397	0.591348546
0.442815196	0.448240504	0.877341187	0.60668695	0.576585746	0.17061419
0.147411066	0.860099321	0.846227064	0.56278489	0.152475653	0.150348686
0.866570956	0.095614566	0.867224918	0.162533214	0.617265699	0.159522748
0.401842048	0.878104948	0.480983106	0.548160484	0.170705594	0.58982673
0.091767477	0.07448445	0.856648134	0.645619535	0.625549659	0.150021405
0.855750416	0.091244102	0.074190894	0.149390161	0.645138081	0.625822909
0.86876061	0.082081285	0.07867385	0.162615469	0.673929037	0.662045332
0.881447903	0.054598347	0.054327986	0.175286114	0.690234921	0.690479338
0.825975345	0.188359049	0.192859447	0.118517328	0.613071145	0.580509773
0.14178279	0.862208677	0.846532565	0.564531771	0.154162229	0.150266156
0.077045792	0.868210538	0.865834747	0.623227758	0.160343647	0.161234993
0.393062168	0.877732251	0.484921195	0.58264197	0.170867572	0.625239515
0.48041699	0.40589864	0.877289275	0.575228436	0.53273102	0.170520836
0.882448488	0.0000055	0.875160868	0.174436758	0.699388204	0.170132479
0.448154277	0.435901426	0.877417263	0.575761555	0.542802525	0.170564938
0.435847881	0.877257115	0.448072558	0.54285755	0.170549136	0.575765527
0.060001294	0.060046355	0.059881402	0.639774552	0.640140266	0.640034528
0.878620642	0.877384378	0.879024783	0.170803615	0.170609188	0.171166047
0.868898598	0.081123909	0.0777439	0.1626167	0.67304082	0.661609748
0.058998244	0.038862633	0.077880553	0.679815194	0.678991308	0.680169652
0.874298119	0.055392384	0.872133086	0.168599271	0.654887238	0.164679339
0.46569182	0.424390757	0.877241579	0.608641673	0.571966531	0.17057318
0.444547268	0.877406494	0.438594491	0.562892705	0.170495653	0.592587747
0.123099877	0.864924174	0.857679534	0.588511753	0.155773367	0.15682526
0.421765655	0.877305244	0.459166888	0.555093182	0.170234571	0.590317366
0.864982199	0.855586678	0.116598124	0.15639258	0.156251554	0.590351543
0.05426759	0.876241167	0.882615622	0.690420617	0.17111339	0.175389421
0.876147983	0.883398757	0.027331822	0.170531411	0.17566548	0.695403775
0.864472921	0.855537519	0.111455018	0.156212275	0.155398302	0.592236732
0.027326367	0.877130745	0.884695815	0.695223706	0.171078121	0.175718793
0.137240539	0.861138264	0.844745186	0.566356502	0.154335341	0.149207383
0.877637881	0.481034602	0.401692736	0.171001006	0.59028531	0.547924097
0.103946517	0.123370616	0.168527431	0.616166669	0.620619288	0.617254816
0.86634854	0.866272723	0.104181776	0.158960778	0.162407294	0.61517301
0.209772624	0.826042147	0.208793117	0.577258608	0.119329457	0.606525106
0.014245584	0.014230195	0.881754257	0.697603676	0.697529506	0.175379215
0.876147045	0.881849813	0.040849414	0.170882812	0.175342696	0.692914055
0.102206009	0.841611783	0.083417031	0.606127131	0.134723241	0.63143797
0.855875482	0.111438644	0.864453013	0.154935485	0.592075885	0.155770041
0.877430993	0.480825912	0.410140539	0.170570977	0.559408671	0.517405698
0.091154954	0.077511563	0.868856884	0.667914941	0.657596675	0.162567989
0.074554577	0.85485653	0.09142518	0.625855556	0.149141731	0.645432223
0.103277522	0.841777113	0.125140598	0.598488747	0.135128077	0.62356216
0.413312598	0.877415221	0.47607426	0.56658597	0.170548069	0.606531836
0.404224542	0.877709692	0.473596765	0.586191782	0.170703503	0.625716894
0.0000028	0.0000029	0.0000028	0.699209027	0.698916166	0.699143116
0.00000492	0.00000484	0.882034999	0.699295068	0.699635458	0.175323517
0.841665746	0.113708433	0.100422764	0.135053028	0.625834365	0.600461556
0.00000277	0.00000288	0.00000282	0.699133435	0.699494978	0.698742748
0.079925071	0.869010015	0.092691154	0.65823315	0.162617107	0.670070497
0.873362531	0.873878805	0.874504544	0.18878164	0.189005531	0.189355161
0.869113528	0.082765912	0.074829534	0.162584789	0.672510583	0.659676377
0.075061584	0.856142084	0.091546413	0.625631742	0.149811938	0.645912613
0.868789938	0.081548463	0.078647133	0.162613905	0.673821506	0.661951479
0.130430647	0.863400914	0.856864861	0.586619369	0.155234458	0.157329426
0.00000549	0.876826422	0.882987283	0.699140315	0.170441425	0.175030472
